ply
format ascii 1.0
element vertex 1279
property float x
property float y
property float z
property uchar red
property uchar green
property uchar blue
end_header
0.256647 0.104425 -0.183364 68 1 84
-0.274068 -0.587485 -0.277364 68 1 84
0.201389 0.098176 -0.209544 62 72 136
0.577858 0.113645 0.224873 61 76 137
0.627235 -0.093559 0.438344 50 98 141
0.653696 -0.312349 0.337241 72 26 108
0.260938 0.589929 0.066916 46 107 142
0.613625 -0.007144 0.366502 37 130 142
0.373113 -0.386068 -0.172221 68 1 84
-0.333933 0.525263 0.085272 72 33 114
0.255493 0.391937 -0.115682 68 1 84
-0.330441 0.026025 -0.173974 68 1 84
-0.476643 0.273343 0.075201 68 1 84
-0.448616 0.418587 0.206542 68 1 84
0.069583 0.344299 -0.270741 68 1 84
-0.508131 0.155785 0.057872 68 1 84
-0.351598 -0.372758 -0.165677 68 1 84
-0.648361 -0.321547 0.434331 71 39 119
-0.591300 -0.267647 0.095942 68 1 84
-0.034396 -0.258234 -0.295072 68 1 84
0.499941 0.196296 0.070655 71 17 99
-0.493516 0.326878 0.167025 68 1 84
0.275628 -0.381656 -0.182086 68 1 84
0.211094 0.583590 -0.090685 68 1 84
-0.069608 0.558203 -0.242183 31 163 134
-0.527907 -0.124053 -0.038851 68 1 84
0.509936 0.193245 0.087707 64 67 135
-0.088213 0.148541 -0.290798 68 3 87
-0.017424 -0.438711 -0.283193 68 1 84
0.509325 -0.362993 -0.036396 68 1 84
0.321871 0.552918 0.187975 69 5 88
0.600798 -0.491228 0.064767 68 1 84
-0.324643 -0.451122 -0.229626 68 1 84
0.450259 -0.054968 -0.108350 68 1 84
0.627665 -0.442528 0.174218 68 1 84
-0.307802 -0.160788 -0.171881 68 1 84
0.581291 -0.089515 0.047634 68 1 84
-0.492856 -0.149122 -0.084358 68 1 84
-0.230480 -0.024210 -0.204956 68 1 84
0.568622 0.142191 0.220409 70 45 124
-0.128465 0.077299 -0.234670 52 95 141
-0.150407 0.461304 -0.192940 75 194 108
0.199601 -0.367637 -0.174996 68 1 84
0.635749 -0.214793 0.539234 57 185 118
0.510983 0.306289 0.363910 67 59 131
0.616368 -0.043572 0.431014 34 138 141
0.434712 0.422786 0.326694 31 148 139
-0.289914 0.385309 -0.090903 51 97 141
-0.418418 0.374183 0.052621 68 1 84
-0.459730 0.036017 -0.079313 68 1 84
-0.347705 0.305169 -0.084116 66 190 113
0.418480 -0.272696 -0.113496 68 1 84
-0.652703 -0.549092 0.381363 72 30 112
-0.577157 0.146866 0.306689 71 20 102
-0.055649 0.105758 -0.283809 68 1 84
-0.595299 -0.337530 0.119073 68 1 84
0.349620 0.327327 -0.056978 68 1 84
-0.427512 -0.103811 -0.136033 68 1 84
-0.310002 0.436872 -0.034911 45 111 142
-0.666295 -0.565355 0.445307 64 67 135
-0.347390 0.521591 0.117558 59 81 138
0.557317 -0.473293 -0.043536 68 1 84
-0.346474 0.519513 0.104396 69 52 127
-0.577521 0.106500 0.436480 68 1 84
-0.635587 -0.344113 0.309758 68 1 84
0.086031 -0.339595 -0.255940 68 1 84
0.234968 0.075836 -0.186210 68 1 84
0.188762 0.273493 -0.205524 68 1 84
0.406659 0.013756 -0.127231 68 1 84
0.127174 0.216065 -0.279583 60 78 138
-0.301865 0.354185 -0.101048 38 127 142
-0.428739 0.311839 0.022270 60 77 138
0.497743 0.184883 0.056783 69 50 127
-0.095856 -0.305287 -0.203491 68 1 84
0.146340 0.431422 -0.203892 41 175 127
-0.425386 0.434291 0.310114 68 1 84
0.377550 -0.250741 -0.133587 68 1 84
0.222303 0.553478 -0.094782 71 15 98
0.620044 -0.154873 0.154012 68 1 84
0.500151 0.340895 0.253574 57 84 139
0.138391 0.632285 -0.143539 62 72 136
0.187817 -0.405599 -0.206964 68 1 84
-0.352115 -0.553313 -0.237443 68 1 84
-0.166063 -0.537831 -0.292355 68 1 84
0.634096 -0.196361 0.518506 43 177 125
-0.455967 -0.177268 -0.114558 68 1 84
-0.160759 0.618718 -0.111339 71 21 103
0.419983 0.464222 0.199580 70 48 125
0.418952 0.071896 -0.105544 67 58 131
-0.245441 0.027872 -0.202806 68 1 84
-0.044583 -0.314950 -0.257694 68 1 84
0.004061 0.017095 -0.373636 68 1 84
-0.132699 0.153258 -0.270290 71 42 121
0.530259 0.185056 0.498605 175 220 46
-0.213493 -0.285290 -0.178738 68 1 84
-0.134659 0.226990 -0.276108 68 1 84
0.606137 -0.286103 0.120202 68 1 84
-0.611316 -0.284481 0.148323 68 1 84
-0.017829 -0.154106 -0.381271 68 1 84
0.121467 -0.109209 -0.343894 68 1 84
0.637904 -0.247368 0.213916 70 11 94
0.595063 -0.029059 0.574030 30 158 136
0.094595 0.155891 -0.297099 65 66 134
-0.669290 -0.530991 0.452268 68 1 84
0.327929 -0.163487 -0.149980 68 1 84
0.633767 -0.444074 0.199049 68 1 84
0.312509 -0.042578 -0.171126 68 1 84
0.092396 0.002455 -0.312726 68 1 84
0.636393 -0.159725 0.480533 34 137 141
0.053823 -0.452114 -0.289647 68 1 84
-0.334356 0.295086 -0.101907 98 202 95
0.091514 0.405153 -0.228529 30 153 138
-0.328915 -0.051523 -0.175139 68 1 84
0.614362 -0.092340 0.148362 68 1 84
0.516677 -0.059207 -0.048648 68 1 84
0.454462 0.405244 0.166478 59 80 138
0.692340 -0.512999 0.477688 31 147 139
-0.261418 -0.272297 -0.181772 68 1 84
0.091238 -0.008943 -0.382786 68 1 84
0.117223 0.237593 -0.262327 48 104 141
-0.224034 -0.494650 -0.250361 68 1 84
-0.535763 0.093539 0.083156 68 1 84
-0.500315 0.329176 0.360805 68 1 84
0.223118 0.451616 -0.131586 72 25 107
-0.115025 0.645622 -0.114590 34 137 141
0.190278 0.629648 -0.019525 66 62 133
0.019683 -0.324656 -0.290665 68 1 84
0.418448 0.438793 0.336024 37 130 142
-0.464378 0.365617 0.136513 68 1 84
0.439915 -0.415775 -0.172225 68 1 84
-0.458184 0.277804 0.046634 66 61 132
0.635527 -0.109893 0.363908 57 84 139
0.073383 -0.249464 -0.305784 68 1 84
0.656341 -0.424305 0.335331 68 1 84
0.655931 -0.248447 0.396909 44 112 142
-0.637379 -0.175463 0.480548 68 1 84
0.007175 -0.125407 -0.412555 68 1 84
-0.614190 -0.346484 0.177295 68 1 84
-0.584298 0.011521 0.179323 68 1 84
0.430638 -0.160375 -0.118835 68 1 84
0.446741 -0.154132 -0.111418 68 1 84
0.416532 -0.339166 -0.116742 68 1 84
0.491814 0.356001 0.228833 72 30 112
0.345783 -0.135122 -0.147861 68 1 84
0.281928 -0.300623 -0.158336 68 1 84
-0.645941 -0.435193 0.369157 69 50 127
-0.074546 0.195250 -0.305232 68 1 84
0.632845 -0.186218 0.200151 68 1 84
0.250703 0.187083 -0.198184 68 57 130
-0.565417 0.104642 0.490089 68 1 84
0.514815 0.308767 0.334973 55 89 140
0.354009 0.045970 -0.150281 68 1 84
-0.539114 -0.509051 -0.004616 68 1 84
-0.564715 -0.400685 0.062047 68 1 84
0.655956 -0.302435 0.404099 55 88 140
0.096965 0.051705 -0.250453 68 1 84
-0.407485 -0.255513 -0.126206 68 1 84
0.103910 -0.180598 -0.314807 68 1 84
-0.607763 -0.071264 0.227482 68 1 84
0.404304 -0.568723 -0.217886 68 1 84
-0.431174 -0.492273 -0.171283 68 1 84
0.647139 -0.500662 0.243864 68 1 84
-0.582523 -0.047637 0.116593 68 1 84
-0.504605 -0.569988 -0.074374 68 1 84
0.154021 0.406771 -0.207530 53 93 140
-0.552040 -0.241113 0.022118 68 1 84
-0.458017 0.271221 0.042116 71 21 103
-0.015588 0.614572 -0.229082 70 45 124
0.062963 0.231006 -0.290368 57 85 139
0.245337 0.364594 -0.141658 68 1 84
0.573502 0.056765 0.528438 71 192 110
-0.225258 0.597124 -0.007624 68 1 84
-0.316301 0.317020 -0.108808 81 196 104
-0.181549 0.248813 -0.241686 71 18 101
0.491285 0.236453 0.085036 68 1 84
0.334802 0.542646 0.147029 66 64 133
0.533693 0.266556 0.342568 51 96 141
0.532067 -0.219050 -0.008029 68 1 84
-0.298156 0.554991 0.079434 68 1 84
0.644880 -0.171265 0.326572 56 86 139
-0.073057 0.655048 -0.142844 63 71 136
-0.607050 -0.054687 0.516150 42 117 142
-0.487225 0.258595 0.085545 68 1 84
-0.497199 -0.507634 -0.095125 68 1 84
-0.198042 0.208950 -0.245320 68 1 84
-0.546302 -0.538974 0.013069 68 1 84
-0.588343 -0.096880 0.102125 68 1 84
0.661916 -0.460861 0.360985 72 26 108
-0.604078 -0.007557 0.428626 68 1 84
-0.023611 -0.268817 -0.298217 68 1 84
0.116218 -0.411481 -0.246667 68 1 84
0.108733 -0.099447 -0.388995 68 1 84
0.280147 0.525334 -0.019161 68 1 84
-0.112653 0.551776 -0.215286 42 176 126
0.305779 0.219957 -0.142038 68 1 84
-0.055700 -0.082375 -0.397870 68 1 84
-0.664482 -0.362615 0.469988 68 1 84
0.412038 0.473969 0.214699 69 52 127
0.380831 0.420789 0.039131 68 1 84
0.235450 0.177089 -0.210163 68 57 130
0.585644 0.086362 0.430240 54 184 119
0.493673 0.293369 0.443646 30 155 137
-0.354650 -0.419349 -0.207823 68 1 84
-0.547859 -0.400460 0.030719 68 1 84
-0.211208 -0.370585 -0.179127 68 1 84
-0.546071 0.123352 0.133165 68 1 84
0.202479 0.193393 -0.239051 66 61 132
-0.095153 -0.193923 -0.267444 68 1 84
0.216854 0.415685 -0.151005 38 129 142
0.587212 -0.525324 0.024212 68 1 84
0.206422 0.231731 -0.227779 71 20 102
-0.563922 -0.160108 0.023922 68 1 84
-0.574063 0.159520 0.304997 72 34 115
0.238075 0.605567 0.067347 52 94 141
0.503957 -0.110546 -0.070042 68 1 84
0.616564 -0.021783 0.338433 48 103 141
0.128847 -0.075987 -0.341702 68 1 84
0.324862 -0.287467 -0.153687 68 1 84
-0.397810 0.292509 -0.032567 45 110 142
0.579215 -0.162955 0.044407 68 1 84
-0.608799 -0.062686 0.513298 46 109 142
0.647395 -0.408133 0.272123 68 1 84
0.580868 -0.176255 0.050777 68 1 84
0.195923 0.096126 -0.211505 69 53 128
-0.457504 -0.013897 -0.098127 68 1 84
-0.134436 0.107225 -0.249450 70 49 126
0.241977 -0.464286 -0.242216 68 1 84
-0.150197 0.540250 -0.184554 151 216 62
-0.476845 0.037582 -0.057104 68 1 84
-0.103378 -0.097389 -0.266052 68 1 84
-0.628680 -0.535898 0.305674 69 5 88
-0.471231 -0.333043 -0.042091 68 1 84
0.552152 0.179088 0.441332 59 186 117
-0.224346 -0.337878 -0.171687 68 1 84
-0.638342 -0.289291 0.307167 68 1 84
-0.644612 -0.253822 0.459049 68 1 84
-0.583700 0.084815 0.259669 68 1 84
-0.400702 0.287389 -0.031642 43 115 142
0.262536 0.544065 -0.031700 72 29 111
-0.172700 0.609376 -0.106355 37 131 141
-0.666738 -0.558554 0.419365 66 62 133
-0.205268 0.509578 -0.125734 35 169 130
-0.329468 0.223982 -0.134599 46 178 124
-0.352117 0.520931 0.147967 69 50 127
-0.640464 -0.198445 0.486509 68 1 84
0.166953 -0.434387 -0.237107 68 1 84
-0.324330 0.541115 0.119518 59 80 138
0.505182 -0.215791 -0.040332 68 1 84
0.003530 -0.263664 -0.314637 68 1 84
-0.575321 0.034272 0.161288 68 1 84
-0.432720 0.438738 0.186611 68 1 84
0.379863 -0.323147 -0.139991 68 1 84
0.062391 0.617989 -0.218589 72 25 107
-0.119487 0.513945 -0.215398 124 210 79
-0.208122 -0.369923 -0.178809 68 1 84
-0.326487 -0.183041 -0.168529 68 1 84
-0.318015 0.548826 0.142980 57 84 139
0.384697 0.004080 -0.140970 68 1 84
-0.188513 -0.053449 -0.210757 68 1 84
-0.324822 -0.500772 -0.226421 68 1 84
0.036107 0.481181 -0.259989 41 175 127
-0.535410 0.249415 0.394433 68 1 84
-0.623380 -0.233236 0.195219 68 1 84
0.448105 0.419363 0.287648 49 102 141
-0.079616 0.095376 -0.265389 71 37 117
-0.631769 -0.397043 0.309175 68 1 84
-0.301601 0.207701 -0.166824 35 136 141
0.247348 0.295229 -0.141873 68 1 84
-0.604017 -0.510832 0.192459 68 1 84
-0.440409 -0.124252 -0.130147 68 1 84
-0.496125 -0.105252 -0.078811 68 1 84
-0.613367 -0.078566 0.483492 71 42 121
0.132141 0.145632 -0.273652 55 88 140
-0.564418 -0.479774 0.063628 68 1 84
0.252170 -0.181007 -0.170135 68 1 84
0.437527 -0.181917 -0.110746 68 1 84
0.373635 -0.520440 -0.229363 68 1 84
-0.650510 -0.348983 0.405332 68 1 84
0.278656 0.462633 -0.053960 68 1 84
0.337293 0.103753 -0.145682 68 1 84
-0.429155 -0.371515 -0.099803 68 1 84
0.327640 -0.229254 -0.149945 68 1 84
0.071815 -0.221038 -0.324240 68 1 84
-0.514024 -0.430752 -0.033334 68 1 84
0.108506 0.523712 -0.238633 44 112 142
-0.209334 -0.522027 -0.276633 68 1 84
0.478681 -0.002987 -0.077882 68 1 84
0.041949 0.225642 -0.300409 64 68 135
-0.187683 0.565630 -0.128226 34 167 132
0.113662 0.479755 -0.228262 46 178 124
-0.402379 0.226374 -0.060344 68 1 84
0.467774 -0.453294 -0.146066 68 1 84
0.525005 -0.219164 -0.016272 68 1 84
-0.055970 -0.028864 -0.386883 68 1 84
-0.477716 0.234837 0.052654 68 1 84
-0.183009 -0.311483 -0.171434 68 1 84
-0.438102 -0.276462 -0.096531 68 1 84
-0.400750 0.124269 -0.108736 68 1 84
-0.243875 -0.510969 -0.256202 68 1 84
-0.291973 0.464176 -0.039609 60 77 138
-0.583378 -0.223088 0.072491 68 1 84
0.570206 -0.319013 0.063202 68 1 84
0.577295 0.073259 0.152030 71 40 120
0.355996 0.223795 -0.097741 68 1 84
-0.252939 -0.407030 -0.222276 68 1 84
0.434077 0.384536 0.087480 71 42 121
0.407835 -0.133800 -0.130455 68 1 84
-0.034567 0.142173 -0.304168 68 1 84
-0.300966 0.059334 -0.186063 69 8 91
0.508414 0.322676 0.230917 71 42 121
-0.587441 -0.270120 0.088736 68 1 84
0.501786 0.291163 0.424755 37 171 129
0.271617 0.584251 0.083623 58 82 139
-0.569642 -0.012489 0.096129 68 1 84
-0.432264 0.210069 -0.032568 68 1 84
0.312388 0.557690 0.124520 49 102 141
0.245039 0.387009 -0.131576 71 37 117
-0.427078 0.413939 0.110929 68 1 84
0.085745 0.249446 -0.270826 56 87 140
0.162001 -0.496326 -0.288676 68 1 84
0.603527 -0.013601 0.163237 69 6 90
0.627910 -0.152772 0.187759 68 1 84
-0.260049 -0.179862 -0.178160 68 1 84
-0.511198 0.184613 0.085367 68 1 84
0.073862 -0.203225 -0.333957 68 1 84
-0.266707 -0.315222 -0.183273 68 1 84
0.221712 0.060798 -0.186872 68 1 84
0.256812 -0.395997 -0.195083 68 1 84
-0.485908 0.269151 0.089538 68 1 84
0.565969 -0.120539 0.014724 68 1 84
0.015950 0.275053 -0.289589 31 150 139
0.178242 0.246889 -0.229661 40 122 142
-0.044065 0.003250 -0.303623 68 1 84
0.089703 0.660116 -0.123724 50 98 141
0.558236 -0.121173 0.001959 68 1 84
-0.571709 0.149494 0.260583 68 1 84
0.262367 0.043954 -0.177853 68 1 84
0.526376 -0.284495 0.012590 68 1 84
0.457460 0.413529 0.247830 64 67 135
0.140494 -0.136540 -0.264238 68 1 84
0.388180 0.493500 0.246374 67 58 131
-0.393007 -0.588490 -0.209651 68 1 84
0.514749 0.304336 0.351319 54 91 140
-0.213850 -0.070587 -0.205347 68 1 84
0.415884 0.195978 -0.052737 68 1 84
0.612667 -0.002345 0.365558 34 138 141
-0.311257 0.316402 -0.114028 89 199 100
-0.001646 0.362642 -0.254429 68 1 84
0.260762 0.214146 -0.184709 68 1 84
-0.085150 -0.077730 -0.321480 68 1 84
0.043687 -0.254836 -0.319255 68 1 84
-0.142750 -0.329227 -0.174964 68 1 84
0.633029 -0.370598 0.202242 68 1 84
-0.095689 0.053314 -0.237717 68 1 84
-0.639506 -0.265626 0.300602 68 1 84
0.053150 -0.407124 -0.278640 68 1 84
0.607891 0.000543 0.228645 49 100 141
-0.518274 -0.297746 -0.000462 68 1 84
-0.501716 -0.412250 -0.041799 68 1 84
0.124816 -0.143026 -0.299903 68 1 84
0.285337 0.379245 -0.086008 68 1 84
-0.262546 0.358732 -0.135943 51 96 141
0.487188 0.255679 0.091023 59 80 138
0.595820 -0.387956 0.083910 68 1 84
0.624375 -0.516179 0.136769 68 1 84
0.149297 -0.186821 -0.239478 68 1 84
0.584363 0.111095 0.287651 41 120 142
-0.643711 -0.509195 0.356922 72 25 107
0.634212 -0.110520 0.339543 46 108 142
0.363531 0.466271 0.053645 68 1 84
0.076892 0.549083 -0.252273 31 147 139
-0.488594 -0.247694 -0.057759 68 1 84
-0.283391 0.270996 -0.164563 32 144 140
0.447688 -0.280634 -0.084899 68 1 84
-0.382297 -0.141537 -0.157225 68 1 84
0.210609 0.623103 0.057118 68 1 84
-0.175989 0.292588 -0.209917 71 39 119
0.531454 -0.266900 0.012967 68 1 84
0.656233 -0.269702 0.386651 55 88 140
-0.296393 0.285224 -0.144454 42 176 126
-0.103499 -0.250731 -0.228949 68 1 84
0.649497 -0.225408 0.476642 42 176 126
0.538875 0.156220 0.117160 68 1 84
-0.556705 0.213036 0.279435 68 1 84
0.532009 0.019569 -0.003032 68 1 84
0.499871 -0.562983 -0.130754 68 1 84
-0.320753 0.222817 -0.143589 47 179 123
-0.164487 0.001821 -0.207718 68 1 84
0.010405 0.653348 -0.177244 54 90 140
-0.205116 0.502400 -0.127907 37 171 129
-0.103910 0.370497 -0.248473 71 44 123
-0.367112 0.332091 -0.046307 39 126 142
0.121596 0.039829 -0.241717 68 1 84
-0.434192 0.436037 0.228732 68 1 84
0.471221 0.141145 -0.022108 68 1 84
-0.387555 -0.266875 -0.139891 68 1 84
-0.002944 -0.510759 -0.300098 68 1 84
0.576471 -0.373499 0.052095 68 1 84
0.575132 0.147629 0.369481 71 192 110
-0.602262 -0.040705 0.229579 68 1 84
-0.305187 -0.020896 -0.185567 68 1 84
-0.256430 0.416197 -0.105736 70 49 126
0.132037 0.562061 -0.212382 32 143 140
-0.541810 0.085643 0.094082 70 9 92
-0.060712 -0.046522 -0.392171 68 1 84
-0.592302 0.026655 0.253864 68 1 84
-0.157055 0.121026 -0.246803 61 74 137
0.640157 -0.193658 0.235083 68 3 87
0.122297 0.615369 -0.184712 72 25 107
-0.620145 -0.347803 0.203752 68 1 84
-0.508974 0.035830 -0.008592 68 1 84
-0.571096 0.164845 0.288170 68 1 84
-0.269537 -0.327232 -0.180707 68 1 84
0.139803 -0.146084 -0.264471 68 1 84
0.069742 -0.022024 -0.418929 68 1 84
0.538147 0.260877 0.308629 44 113 142
0.693036 -0.510942 0.484258 32 143 140
0.214670 0.613086 -0.018390 70 11 94
0.288791 0.223734 -0.153147 68 1 84
-0.567999 0.163216 0.258417 68 1 84
-0.028513 0.121466 -0.296191 68 1 84
-0.419978 -0.503996 -0.184030 68 1 84
0.410325 0.341190 0.017467 68 1 84
-0.649360 -0.294018 0.506512 71 17 99
0.296280 -0.475792 -0.235699 68 1 84
0.616522 -0.132008 0.144958 68 1 84
0.473012 0.190514 0.018022 68 1 84
-0.281207 0.457690 -0.054841 67 60 132
-0.046986 0.345671 -0.273802 68 1 84
0.021450 -0.270385 -0.313512 68 1 84
0.119618 0.381317 -0.234374 70 12 95
0.579985 0.132988 0.361079 77 194 107
0.291500 0.318416 -0.105476 69 5 88
-0.375210 0.177009 -0.109810 68 1 84
-0.011537 -0.005158 -0.402104 68 1 84
-0.188626 0.238138 -0.244756 68 1 84
0.638008 -0.165806 0.236458 71 15 98
0.612161 -0.529482 0.094553 68 1 84
-0.185819 0.323551 -0.210092 71 39 119
0.577380 0.144622 0.316463 30 154 137
-0.630769 -0.284577 0.234109 68 1 84
0.165930 0.484658 -0.187215 31 163 134
-0.610622 -0.024564 0.374743 68 1 84
-0.126284 -0.134439 -0.246468 68 1 84
0.228432 -0.432902 -0.220576 68 1 84
-0.513927 0.320409 0.272023 68 1 84
-0.445717 -0.086460 -0.121999 68 1 84
-0.104639 -0.058915 -0.272345 68 1 84
-0.654988 -0.340576 0.441129 54 91 140
0.094257 -0.005928 -0.373031 68 1 84
0.522543 0.279672 0.210018 63 71 136
0.095994 -0.480995 -0.291830 68 1 84
-0.085852 -0.052703 -0.342717 68 1 84
0.325050 -0.004855 -0.167802 68 1 84
-0.455306 -0.361612 -0.069848 68 1 84
-0.527285 0.246739 0.178250 68 1 84
-0.454582 -0.060833 -0.110970 68 1 84
0.603517 0.005268 0.461804 34 139 141
0.639373 -0.237405 0.537927 34 139 141
0.222270 0.458413 -0.130407 68 57 130
0.384262 0.366426 0.001886 68 1 84
-0.667045 -0.563221 0.451643 72 28 110
0.189950 0.144114 -0.234954 42 119 142
0.276231 -0.046138 -0.179989 68 1 84
-0.509837 0.056206 0.004210 71 18 101
-0.026428 0.129502 -0.299006 68 1 84
-0.186254 0.108053 -0.230197 69 50 127
0.536034 -0.040618 -0.019101 68 1 84
-0.241625 0.596726 0.068066 68 1 84
0.467037 -0.037625 -0.093968 68 1 84
-0.110870 0.243029 -0.263659 54 91 140
0.437370 0.093323 -0.084429 68 1 84
-0.432834 0.371202 0.073572 68 1 84
-0.054327 0.344354 -0.275120 68 1 84
-0.521079 -0.186947 -0.043300 68 1 84
-0.181975 0.130862 -0.239483 72 30 112
0.242734 0.594556 0.010412 49 101 141
-0.000402 -0.219915 -0.338212 68 1 84
0.651309 -0.430089 0.294685 68 1 84
-0.502842 -0.208679 -0.059085 68 1 84
-0.115431 -0.019671 -0.292899 68 1 84
0.576998 -0.353390 0.062673 68 1 84
-0.607257 -0.519498 0.205418 68 1 84
0.031994 -0.382258 -0.281606 68 1 84
0.348528 0.271148 -0.085125 68 1 84
0.581122 -0.363425 0.064951 68 1 84
-0.622118 -0.112322 0.326483 68 1 84
-0.623337 -0.087734 0.369851 68 1 84
0.552375 0.147120 0.148194 68 1 84
-0.279157 -0.508983 -0.244991 68 1 84
-0.491677 -0.463081 -0.085264 68 1 84
-0.177334 -0.424489 -0.213385 68 1 84
0.330644 -0.343776 -0.147586 68 1 84
0.184465 -0.025542 -0.198368 68 1 84
0.546193 0.240657 0.301102 42 117 142
0.451535 -0.413042 -0.154706 68 1 84
-0.587686 -0.502378 0.132270 68 1 84
0.634770 -0.367286 0.209067 68 1 84
-0.309814 0.301586 -0.123011 71 192 110
0.083972 -0.248970 -0.296807 68 1 84
-0.564552 0.119713 0.472260 68 1 84
0.616794 -0.437546 0.135007 68 1 84
-0.299654 -0.275999 -0.180745 68 1 84
-0.496548 -0.448295 -0.069563 68 1 84
-0.383991 0.486865 0.130165 68 3 87
-0.503007 -0.046968 -0.058437 68 1 84
-0.089027 0.605353 -0.206123 71 43 122
0.053008 0.428649 -0.237886 30 152 138
-0.364722 0.492766 0.086790 68 1 84
0.262726 0.591057 0.093335 50 98 141
-0.108528 -0.245556 -0.227458 68 1 84
0.325383 0.305701 -0.087687 68 1 84
-0.336334 0.232704 -0.124711 61 187 116
0.416290 0.277260 -0.012334 68 1 84
0.261000 -0.522880 -0.278147 68 1 84
-0.530498 -0.569442 -0.022379 68 1 84
0.297644 0.351874 -0.087940 61 76 137
-0.118260 0.222113 -0.282893 68 3 87
-0.318758 0.018023 -0.180171 68 1 84
0.193556 0.051552 -0.191790 68 1 84
0.184234 -0.386014 -0.191351 68 1 84
-0.535835 0.184636 0.151401 68 1 84
-0.357812 0.246922 -0.098755 51 182 121
0.224136 0.173386 -0.218253 55 88 140
0.398133 -0.240479 -0.121176 68 1 84
0.031401 0.026979 -0.376803 68 1 84
0.633997 -0.188955 0.518112 41 175 127
0.650224 -0.458549 0.274570 68 1 84
-0.295835 0.230445 -0.168297 30 151 138
0.266917 -0.485130 -0.254583 68 1 84
-0.340250 0.455550 0.014562 68 1 84
0.609134 0.014974 0.345247 39 124 142
-0.591583 0.043605 0.268649 68 1 84
0.421518 0.311221 0.014275 68 1 84
0.447119 -0.163041 -0.109721 68 1 84
0.109028 0.208661 -0.291109 66 61 132
0.344584 0.324520 -0.062789 68 1 84
-0.391490 -0.584816 -0.211283 68 1 84
0.655068 -0.459585 0.311848 69 8 91
-0.197578 -0.437005 -0.221960 68 1 84
-0.073882 0.264395 -0.269275 35 137 141
-0.329289 -0.055600 -0.174882 68 1 84
-0.116213 0.129306 -0.267560 71 24 106
-0.596801 -0.022312 0.214888 68 1 84
0.401774 0.465756 0.123128 68 1 84
0.449255 -0.292040 -0.081801 68 1 84
0.387926 0.351110 -0.004468 68 1 84
-0.166861 -0.249659 -0.184391 68 1 84
-0.339240 -0.494820 -0.219147 68 1 84
-0.628866 -0.130142 0.437672 68 1 84
0.583600 -0.488106 0.016453 68 1 84
0.441635 0.303383 0.039271 68 1 84
-0.584492 0.076389 0.255964 68 1 84
0.543516 -0.138310 -0.020679 68 1 84
-0.540038 0.179827 0.160341 68 1 84
-0.405263 0.338401 0.006928 70 49 126
-0.028549 -0.252522 -0.303365 68 1 84
-0.072044 -0.171706 -0.305809 68 1 84
0.485027 -0.074602 -0.083458 68 1 84
0.278953 0.578558 0.081767 60 77 138
-0.611117 -0.034549 0.343032 68 1 84
0.611270 -0.237501 0.128445 68 1 84
0.439340 0.437542 0.196115 71 21 103
0.594626 0.059418 0.246384 43 116 142
0.593398 0.057030 0.225264 40 123 142
-0.399415 -0.337402 -0.127898 68 1 84
0.426853 0.078726 -0.097623 72 26 108
-0.561953 0.190927 0.267578 68 1 84
0.358299 0.523323 0.229659 71 40 120
-0.340391 0.210542 -0.128654 31 161 135
0.431233 0.199337 -0.035205 68 1 84
-0.447420 0.415927 0.179345 68 1 84
-0.000318 0.533093 -0.265440 39 125 142
0.182256 0.499142 -0.168635 31 146 140
0.681631 -0.452773 0.475076 32 144 140
-0.126637 -0.336349 -0.180933 68 1 84
0.161713 -0.084691 -0.226927 68 1 84
0.169211 -0.418494 -0.221898 68 1 84
-0.173703 -0.326494 -0.167373 68 1 84
0.075623 0.569613 -0.246552 38 127 142
-0.317106 0.544365 0.102324 59 81 138
0.062883 0.127723 -0.291049 67 59 131
-0.651685 -0.329224 0.442747 60 78 138
-0.609067 -0.043830 0.447189 72 30 112
0.478424 0.343314 0.393680 33 141 140
0.334597 0.197848 -0.125930 68 1 84
0.100435 -0.332055 -0.235953 68 1 84
0.324493 0.550226 0.181710 70 14 97
0.571448 0.166033 0.332643 31 148 139
0.148633 -0.160553 -0.248635 68 1 84
0.366686 -0.217237 -0.136465 68 1 84
-0.402487 0.473275 0.229001 68 1 84
-0.154881 -0.180431 -0.216535 68 1 84
-0.106066 -0.085452 -0.260843 68 1 84
0.493126 0.083317 -0.029158 68 1 84
-0.068746 0.503175 -0.247601 85 198 102
-0.122707 -0.131887 -0.249483 68 1 84
0.384762 0.031319 -0.136817 71 17 99
-0.625471 -0.246994 0.204543 68 1 84
-0.471214 0.045154 -0.061244 68 1 84
0.408439 -0.459247 -0.191424 68 1 84
0.400134 0.484942 0.175962 72 25 107
-0.506376 -0.146689 -0.069095 68 1 84
-0.585626 -0.139248 0.077630 68 1 84
-0.091029 0.179766 -0.299772 68 1 84
0.617629 -0.035926 0.249137 57 84 139
0.596165 0.045165 0.437955 45 110 142
-0.600295 0.024034 0.416917 68 1 84
0.349942 -0.252088 -0.143738 68 1 84
-0.637738 -0.464646 0.327358 69 5 88
-0.056290 -0.076555 -0.398417 68 1 84
0.395601 0.481434 0.272214 38 127 142
-0.572019 -0.292992 0.065928 68 1 84
-0.483299 -0.114587 -0.094053 68 1 84
-0.257568 0.586161 0.075777 71 22 105
0.218484 0.125988 -0.210976 47 105 141
0.354070 -0.558691 -0.249181 68 1 84
0.404297 0.454134 0.336254 35 137 141
-0.548282 0.238076 0.273318 68 1 84
-0.490165 0.357809 0.238504 68 1 84
0.473195 -0.568156 -0.161262 68 1 84
-0.138500 -0.156971 -0.234495 68 1 84
0.505362 0.326499 0.217194 71 17 99
0.641341 -0.156643 0.433480 47 105 141
-0.133945 0.369334 -0.238124 68 1 84
0.536364 -0.475112 -0.081918 68 1 84
-0.486242 0.113187 -0.005756 68 1 84
-0.617070 -0.077278 0.329788 68 1 84
0.668376 -0.481307 0.389349 72 34 115
-0.586910 0.029188 0.487525 68 1 84
0.615293 -0.281914 0.140414 68 1 84
0.669059 -0.553016 0.355100 68 1 84
0.585475 0.004820 0.572792 87 198 101
0.178451 0.378183 -0.208887 71 42 121
0.369233 0.352590 -0.023444 68 1 84
-0.206028 0.373518 -0.182591 68 1 84
0.352227 -0.084494 -0.154151 68 1 84
0.424810 0.446458 0.283658 31 149 139
-0.078555 -0.092958 -0.336713 68 1 84
-0.575107 0.147570 0.285912 68 1 84
-0.298495 0.203657 -0.170910 35 136 141
-0.009486 0.015385 -0.320361 68 1 84
0.627981 -0.083513 0.251310 68 1 84
-0.256588 0.502008 -0.062801 42 119 142
0.354028 -0.321793 -0.145150 68 1 84
0.612030 -0.011837 0.246841 58 82 139
0.355975 -0.421405 -0.208241 68 1 84
-0.554554 0.199698 0.401501 68 1 84
0.005608 -0.223495 -0.337384 68 1 84
0.481138 -0.315805 -0.037087 68 1 84
0.071934 0.201736 -0.306805 68 1 84
-0.291449 0.557039 0.063166 68 1 84
0.455524 0.372084 0.120136 66 62 133
-0.266148 0.058453 -0.198492 72 29 111
0.157592 0.299359 -0.246815 68 1 84
-0.636969 -0.404124 0.336356 68 1 84
-0.552132 -0.147828 0.000232 68 1 84
0.433238 0.015557 -0.109891 68 1 84
-0.587740 -0.206661 0.080861 68 1 84
-0.652164 -0.563476 0.379481 68 3 87
-0.133490 0.637781 -0.112940 33 141 140
-0.455054 -0.338621 -0.063112 68 1 84
0.371220 -0.273885 -0.141334 68 1 84
-0.385538 -0.216841 -0.145617 68 1 84
0.560476 0.110595 0.133468 68 1 84
0.050196 0.618783 -0.221016 68 1 84
-0.464142 -0.102806 -0.110264 68 1 84
-0.618267 -0.495635 0.262610 68 1 84
0.210490 0.566346 -0.107794 69 6 90
0.047914 0.617689 -0.222585 71 21 103
0.390554 -0.248527 -0.126964 68 1 84
0.245703 0.583935 -0.011354 71 37 117
-0.000435 0.666378 -0.127913 68 1 84
-0.049912 -0.059585 -0.407532 68 1 84
0.045075 0.270989 -0.285924 39 125 142
-0.177761 -0.130069 -0.212430 68 1 84
0.141999 -0.119117 -0.261508 68 1 84
0.566199 0.152571 0.223831 72 26 108
0.655550 -0.324013 0.347931 53 93 140
-0.528572 0.053977 0.039694 68 1 84
-0.024868 0.014761 -0.300062 68 1 84
-0.508195 -0.308054 -0.007403 68 1 84
-0.312360 -0.052664 -0.180740 68 1 84
0.224024 -0.117680 -0.189140 68 1 84
-0.196904 0.128379 -0.231226 57 85 139
-0.597255 -0.232899 0.106199 68 1 84
-0.615063 -0.057000 0.435478 72 32 113
-0.635123 -0.269231 0.256081 68 1 84
0.532561 0.150837 0.535483 210 225 27
-0.246452 0.584462 0.015186 68 1 84
0.415078 0.441654 0.340553 42 118 142
-0.206625 0.088835 -0.215016 63 69 135
0.600467 -0.149028 0.090923 68 1 84
-0.138445 0.087080 -0.238118 71 24 106
-0.363708 0.493267 0.085442 68 1 84
0.285944 0.167625 -0.170507 72 32 113
0.691673 -0.510208 0.511151 44 113 142
0.530692 0.157643 0.532760 144 214 67
-0.077496 0.441761 -0.231836 50 99 141
-0.301157 -0.068209 -0.183665 68 1 84
0.164595 -0.195260 -0.218443 68 1 84
-0.625324 -0.103376 0.411526 71 40 120
0.233296 -0.070618 -0.188166 68 1 84
0.090058 -0.178429 -0.336687 68 1 84
0.333532 0.430409 -0.008334 68 1 84
0.201998 0.537302 -0.135064 48 104 141
0.039038 0.600092 -0.239309 66 61 132
-0.537834 0.045672 0.055818 71 21 103
-0.286099 0.440715 -0.057938 45 110 142
0.621286 -0.046998 0.322367 35 137 141
-0.011486 0.185544 -0.316406 71 17 99
-0.562519 -0.512280 0.054817 68 1 84
-0.161427 0.308132 -0.227666 70 45 124
0.244657 0.597632 0.033968 36 134 141
0.333361 -0.435913 -0.208702 68 1 84
0.459085 -0.267529 -0.072648 68 1 84
-0.164289 0.556514 -0.163287 98 202 95
-0.132572 -0.158637 -0.239604 68 1 84
0.576689 0.094977 0.466546 40 174 127
-0.010843 -0.260386 -0.310696 68 1 84
0.607514 0.020825 0.371604 30 155 137
0.523923 0.237546 0.447368 79 195 105
-0.641770 -0.575709 0.350056 71 17 99
-0.593145 0.008176 0.470779 68 1 84
-0.535091 -0.315186 0.021405 68 1 84
0.625290 -0.116628 0.491455 35 137 141
0.293007 0.569748 0.098675 66 62 133
-0.446646 0.420131 0.236357 68 1 84
0.047927 -0.239971 -0.325864 68 1 84
-0.526548 0.276402 0.213452 68 1 84
-0.514464 0.308027 0.357957 68 1 84
0.118384 0.431930 -0.216491 34 139 141
-0.581274 -0.064329 0.097936 68 1 84
-0.358105 -0.101556 -0.164182 68 1 84
0.375954 -0.346911 -0.142399 68 1 84
-0.535383 0.062871 0.061619 68 1 84
0.459017 0.236571 0.027119 71 22 105
-0.601057 0.019046 0.321818 68 1 84
-0.162129 -0.520835 -0.286772 68 1 84
-0.405193 -0.145337 -0.149058 68 1 84
-0.379946 0.274810 -0.063031 47 106 141
-0.123372 0.638462 -0.126714 38 127 142
-0.473251 -0.013190 -0.082005 68 1 84
0.175802 0.237526 -0.240747 49 100 141
-0.578593 0.134569 0.289746 72 35 116
-0.438456 0.431829 0.218361 68 1 84
-0.500346 -0.299607 -0.018903 68 1 84
-0.300883 0.160086 -0.175161 36 133 141
-0.033279 -0.129974 -0.392084 68 1 84
0.459659 -0.380245 -0.114913 68 1 84
-0.666105 -0.441781 0.456957 68 1 84
0.617901 -0.028216 0.351231 35 136 141
0.653844 -0.279463 0.340210 49 100 141
-0.490123 -0.236764 -0.061364 68 1 84
-0.603265 -0.470651 0.185320 68 1 84
-0.652960 -0.495721 0.386632 68 1 84
0.240079 0.132527 -0.199029 53 92 140
-0.625407 -0.275180 0.204972 68 1 84
0.586766 0.059551 0.181387 54 91 140
0.536391 -0.379685 -0.015845 68 1 84
0.094217 -0.005177 -0.370651 68 1 84
0.682569 -0.546754 0.422553 53 92 140
0.452342 0.363217 0.437681 37 131 141
-0.602838 -0.015603 0.279402 68 1 84
-0.289796 0.242317 -0.170998 55 89 140
-0.114570 -0.259742 -0.212602 68 1 84
0.513479 0.315438 0.292802 52 95 141
0.039323 -0.468072 -0.296522 68 1 84
0.396888 0.054817 -0.124514 72 28 110
-0.263201 0.033619 -0.200176 68 1 84
0.178979 0.635895 -0.025761 68 1 84
-0.476458 0.355015 0.400253 68 1 84
0.018259 0.026566 -0.370454 68 1 84
0.503706 0.330013 0.331149 47 105 141
-0.627999 -0.243003 0.219760 68 1 84
-0.643655 -0.309804 0.407899 71 15 98
0.672133 -0.444684 0.429215 72 30 112
-0.665629 -0.545325 0.418625 67 58 131
-0.368937 -0.496930 -0.207701 68 1 84
-0.589451 -0.413935 0.123482 68 1 84
-0.463278 0.140296 -0.026644 68 1 84
0.648841 -0.197669 0.386484 59 81 138
0.654946 -0.310500 0.442377 68 1 84
-0.162041 -0.471544 -0.250830 68 1 84
-0.631022 -0.320465 0.245922 68 1 84
-0.337926 0.272724 -0.108238 71 192 110
0.498579 0.326593 0.185221 71 22 105
0.194722 0.364848 -0.202897 72 30 112
0.684305 -0.517448 0.434973 33 142 140
-0.230135 0.243177 -0.215749 72 35 116
-0.619932 -0.339272 0.198476 68 1 84
-0.481353 -0.398443 -0.061803 68 1 84
0.481300 -0.526190 -0.156367 68 1 84
-0.162467 -0.150167 -0.217866 68 1 84
0.627833 -0.247339 0.175472 68 1 84
0.434894 0.093996 -0.086091 68 1 84
-0.450711 -0.559964 -0.159889 68 1 84
-0.321631 -0.550751 -0.253977 68 1 84
-0.475206 0.154910 -0.000900 68 1 84
-0.588925 0.079876 0.410373 68 1 84
-0.045377 -0.124064 -0.385581 68 1 84
0.263786 -0.088865 -0.178869 68 1 84
-0.161346 0.598520 -0.137378 40 122 142
-0.591377 0.055911 0.434463 68 1 84
0.635499 -0.125425 0.259979 71 42 121
0.415434 -0.295512 -0.119966 68 1 84
-0.186774 -0.121547 -0.209326 68 1 84
0.264227 -0.375586 -0.175157 68 1 84
0.575842 0.053283 0.118856 68 1 84
0.634690 -0.307858 0.200676 68 1 84
0.291111 0.293502 -0.112988 68 1 84
-0.614229 -0.056734 0.333940 68 1 84
0.453152 0.119793 -0.058044 68 1 84
-0.645684 -0.255896 0.392680 68 1 84
0.319403 0.218459 -0.131240 68 1 84
0.572440 -0.210862 0.046564 68 1 84
-0.030277 0.237352 -0.283655 44 113 142
-0.615932 -0.289500 0.165233 68 1 84
0.025617 0.333824 -0.283573 68 1 84
0.634496 -0.125056 0.248343 70 48 125
-0.556403 -0.008940 0.062180 68 1 84
0.470870 -0.306702 -0.051027 68 1 84
0.121177 -0.357648 -0.209399 68 1 84
-0.345851 0.527392 0.169546 69 50 127
-0.615952 -0.215670 0.165097 68 1 84
-0.252497 0.138588 -0.205163 71 24 106
0.413133 -0.365014 -0.150543 68 1 84
-0.330064 -0.508283 -0.227341 68 1 84
0.406498 0.480194 0.205735 71 24 106
-0.019245 -0.473869 -0.293862 68 1 84
0.578651 0.138343 0.357192 71 192 110
-0.217217 -0.144445 -0.194498 68 1 84
-0.552083 -0.188218 0.005347 68 1 84
0.457668 0.332287 0.088402 71 44 123
-0.224182 0.605552 0.032283 68 1 84
0.649893 -0.381623 0.301578 68 1 84
0.367043 0.105040 -0.128587 68 1 84
0.128828 -0.153578 -0.283500 68 1 84
0.096939 -0.395275 -0.253899 68 1 84
-0.556049 -0.228917 0.024574 68 1 84
0.111725 -0.081415 -0.394783 68 1 84
0.404882 0.471524 0.270831 46 108 142
-0.110310 0.269617 -0.252726 61 76 137
-0.498454 0.345456 0.261935 68 1 84
0.385687 -0.429676 -0.203575 68 1 84
-0.415671 0.447140 0.296321 68 1 84
0.569246 -0.418162 0.012627 68 1 84
0.122897 0.656194 -0.081889 71 39 119
0.672242 -0.499334 0.394173 68 1 84
-0.583183 -0.181800 0.068308 68 1 84
-0.201970 0.581688 -0.093743 49 102 141
-0.631262 -0.143971 0.463427 68 1 84
-0.310495 0.097923 -0.176121 61 76 137
0.319360 -0.313345 -0.152237 68 1 84
0.155075 -0.306825 -0.175980 68 1 84
-0.286376 0.352058 -0.117263 32 144 140
-0.644128 -0.285367 0.419569 68 1 84
0.195597 0.188579 -0.244010 53 93 140
-0.665217 -0.401471 0.434506 68 1 84
0.448125 0.189621 -0.019549 68 1 84
-0.043189 0.198668 -0.311625 70 12 95
0.401548 -0.024352 -0.134943 68 1 84
-0.224796 0.045374 -0.205575 72 33 114
0.624399 -0.102643 0.472955 42 117 142
-0.246720 0.390788 -0.133191 71 42 121
0.431696 0.089021 -0.090363 68 1 84
-0.591401 -0.017249 0.186221 68 1 84
-0.186066 -0.161682 -0.201697 68 1 84
0.566218 -0.434851 -0.004139 68 1 84
-0.488150 0.315120 0.134992 68 1 84
-0.551226 0.102044 0.132517 68 1 84
-0.216298 0.531454 -0.103804 30 157 136
-0.059499 -0.324473 -0.238153 68 1 84
-0.527983 0.239226 0.436201 68 1 84
0.647723 -0.361436 0.286452 70 14 97
-0.075449 0.231541 -0.279176 55 88 140
0.691742 -0.512154 0.496480 43 115 142
0.172162 0.529720 -0.175733 49 100 141
-0.333296 0.261710 -0.117396 112 206 86
0.150512 0.229261 -0.259707 67 59 131
0.342691 0.486598 0.042510 68 1 84
0.293413 0.548903 0.033233 72 30 112
-0.002079 0.368122 -0.249751 68 1 84
-0.187931 0.576112 -0.120852 40 174 127
-0.283270 0.123540 -0.188649 50 98 141
0.514434 -0.250857 -0.014054 68 1 84
0.196092 0.256047 -0.210005 49 102 141
0.632480 -0.168773 0.203343 68 3 87
-0.472888 0.053038 -0.055294 68 1 84
0.415107 -0.070561 -0.128789 68 1 84
-0.153483 -0.209879 -0.207207 68 1 84
0.383063 -0.171290 -0.135244 68 1 84
-0.647862 -0.306989 0.452018 65 66 134
0.570428 0.149055 0.247605 58 82 139
0.429887 0.379383 0.076450 63 71 136
-0.051349 0.229555 -0.284601 48 103 141
-0.639608 -0.447142 0.335428 68 1 84
0.466486 -0.529769 -0.170433 68 1 84
-0.378029 0.007007 -0.150863 68 1 84
0.552024 0.206668 0.389427 39 124 142
0.531156 0.233156 0.432905 30 158 136
0.570281 -0.230848 0.050555 68 1 84
-0.107297 0.513903 -0.224266 83 197 103
-0.509046 0.287050 0.432539 68 1 84
-0.642775 -0.354959 0.366727 68 1 84
0.536366 -0.165556 -0.025144 68 1 84
-0.381028 -0.476021 -0.197053 68 1 84
-0.280151 0.449198 -0.060166 66 64 133
-0.241296 -0.216778 -0.180387 68 1 84
0.549178 -0.368932 0.012928 68 1 84
-0.491449 -0.262055 -0.047732 68 1 84
0.306171 -0.491081 -0.245153 68 1 84
0.593748 0.033639 0.474511 36 170 130
0.420569 -0.503781 -0.198058 68 1 84
0.691059 -0.500200 0.499560 39 126 142
0.497176 0.226338 0.089445 68 1 84
0.155786 0.011888 -0.285221 68 1 84
-0.576073 -0.093209 0.067058 68 1 84
0.132461 -0.294852 -0.199731 68 1 84
0.426075 0.272949 -0.001343 68 1 84
0.558661 0.101297 0.116582 68 1 84
0.378351 0.211512 -0.081695 68 1 84
0.482747 -0.200295 -0.070087 68 1 84
0.611593 -0.372911 0.130725 68 1 84
-0.484843 -0.574132 -0.106938 68 1 84
-0.156962 -0.182863 -0.214234 68 1 84
-0.397063 0.375880 0.024228 69 8 91
-0.068888 0.337125 -0.277923 68 1 84
-0.218795 0.251981 -0.216632 72 30 112
-0.595249 0.062018 0.381440 68 1 84
-0.274093 0.141315 -0.193603 50 98 141
0.412786 -0.351313 -0.130022 68 1 84
-0.667898 -0.463667 0.477059 70 9 92
0.646282 -0.182082 0.397530 52 95 141
0.589658 -0.086377 0.068557 68 1 84
-0.644848 -0.198615 0.374179 68 1 84
-0.613351 -0.094570 0.243941 68 1 84
-0.392908 -0.115823 -0.152598 68 1 84
0.377410 0.502468 0.257782 56 87 140
-0.401255 0.454295 0.109271 68 1 84
0.331562 -0.190808 -0.148442 68 1 84
0.647682 -0.354920 0.287696 69 8 91
0.619881 -0.466156 0.136824 68 1 84
-0.568372 -0.494527 0.073330 68 1 84
-0.511015 0.325758 0.284623 68 1 84
-0.526680 -0.134863 -0.041316 68 1 84
-0.611774 -0.379349 0.180887 68 1 84
-0.430226 0.351745 0.052245 68 1 84
0.650459 -0.270144 0.313085 68 1 84
0.154291 0.263724 -0.232106 52 94 141
0.541759 0.214861 0.425077 30 155 137
0.264549 0.121827 -0.181587 68 2 85
-0.269649 0.194386 -0.197510 53 93 140
0.303536 -0.327645 -0.150695 68 1 84
0.637650 -0.138416 0.271863 71 43 122
0.061527 -0.435389 -0.283692 68 1 84
0.654213 -0.298999 0.427191 47 105 141
-0.093790 0.497425 -0.232396 51 182 121
-0.628075 -0.125399 0.363409 68 1 84
-0.407756 -0.204728 -0.138250 68 1 84
-0.032151 -0.220306 -0.320390 68 1 84
0.396807 0.192794 -0.072647 68 1 84
-0.298165 0.178726 -0.175143 33 140 141
0.126319 -0.149212 -0.291915 68 1 84
0.587592 0.054313 0.176961 57 85 139
-0.273145 0.547088 -0.004013 68 1 84
-0.166340 -0.271782 -0.181456 68 1 84
0.655217 -0.472902 0.304773 68 1 84
0.654564 -0.301360 0.343914 70 47 124
-0.522555 0.069630 0.036400 71 18 101
-0.123269 -0.063433 -0.238965 68 1 84
0.173216 -0.034109 -0.214750 68 1 84
-0.269761 0.301759 -0.158244 63 71 136
0.629995 -0.357952 0.189692 68 1 84
-0.505898 -0.210090 -0.055000 68 1 84
-0.566134 0.164179 0.405835 68 1 84
-0.329401 0.537636 0.124537 59 80 138
0.439642 -0.327426 -0.083644 68 1 84
0.505858 -0.217785 -0.038550 68 1 84
-0.498483 0.316923 0.167966 68 1 84
0.295570 0.571622 0.144342 71 38 118
-0.482726 0.349596 0.381797 68 1 84
-0.199717 0.614639 -0.018407 68 1 84
-0.614416 -0.044413 0.409090 68 1 84
-0.151535 0.125849 -0.250990 65 65 134
0.561560 -0.036105 0.023423 68 1 84
-0.211603 -0.061604 -0.206341 68 1 84
0.231447 0.080363 -0.189236 68 1 84
-0.638753 -0.515376 0.341528 72 29 111
0.463083 0.344518 0.445346 48 104 141
-0.594191 -0.063397 0.154403 68 1 84
0.197274 0.571438 -0.124671 65 65 134
-0.472767 -0.363146 -0.046981 68 1 84
-0.591825 0.082711 0.359747 68 1 84
0.246279 -0.347561 -0.149644 68 1 84
0.526293 -0.061971 -0.037228 68 1 84
0.111228 -0.137822 -0.343223 68 1 84
-0.519892 0.076302 0.035054 72 25 107
0.232344 0.353499 -0.163640 71 40 120
0.628982 -0.085882 0.265390 59 81 138
0.367515 0.087649 -0.133097 68 1 84
-0.645027 -0.349620 0.379800 68 1 84
0.137028 0.211208 -0.278762 70 49 126
0.056804 0.055846 -0.290547 68 1 84
0.142495 -0.465702 -0.272512 68 1 84
-0.640303 -0.346757 0.356714 68 1 84
-0.212289 0.562498 -0.093784 39 126 142
0.291123 -0.356151 -0.153201 68 1 84
0.452492 -0.166929 -0.105790 68 1 84
0.616690 -0.477773 0.119740 68 1 84
-0.120654 -0.037627 -0.254748 68 1 84
-0.180002 -0.036615 -0.210557 68 1 84
0.291102 -0.116171 -0.167277 68 1 84
-0.176110 0.115728 -0.237113 66 61 132
-0.577550 -0.351191 0.083689 68 1 84
0.585472 0.088877 0.230559 39 124 142
0.578480 -0.379251 0.052175 68 1 84
0.274586 0.259529 -0.138468 68 1 84
-0.619270 -0.063145 0.381917 68 1 84
-0.501963 -0.027211 -0.052324 68 1 84
0.651363 -0.352821 0.320079 68 1 84
-0.467896 0.374075 0.160799 68 1 84
-0.603938 -0.159333 0.132702 68 1 84
-0.034597 -0.146584 -0.377252 68 1 84
0.110869 0.129159 -0.278921 71 39 119
0.415332 -0.401139 -0.200266 68 1 84
0.617503 -0.524284 0.109994 68 1 84
0.158971 0.202798 -0.270260 69 52 127
-0.638219 -0.314248 0.355107 68 1 84
-0.097443 -0.375621 -0.205291 68 1 84
-0.400089 0.471186 0.258789 68 1 84
-0.565992 -0.182961 0.030033 68 1 84
-0.447406 -0.441338 -0.129770 68 1 84
-0.006157 -0.247355 -0.320633 68 1 84
0.022671 -0.222707 -0.340621 68 1 84
0.495223 0.212058 0.073640 68 1 84
0.457096 0.408500 0.286260 66 62 133
-0.481030 0.365691 0.318290 68 1 84
-0.361013 0.509041 0.119211 48 104 141
0.589811 0.096993 0.332803 34 137 141
0.145909 0.380313 -0.226113 68 1 84
0.205771 0.241019 -0.222179 70 49 126
-0.415237 0.380892 0.053891 68 1 84
0.177126 0.428411 -0.184529 37 130 142
-0.120186 0.284919 -0.251212 46 107 142
-0.339197 0.520181 0.085082 71 18 101
-0.485095 0.116209 -0.006020 68 1 84
-0.485662 0.337387 0.158413 68 1 84
0.008261 0.381385 -0.241419 71 42 121
-0.631177 -0.145563 0.340654 68 1 84
0.168929 -0.108477 -0.223677 68 1 84
-0.239249 0.379206 -0.146916 72 33 114
-0.501620 -0.458651 -0.067027 68 1 84
-0.250107 0.098887 -0.202688 71 44 123
-0.560752 0.148294 0.452516 68 1 84
-0.614224 -0.041736 0.380072 68 1 84
-0.097184 -0.452580 -0.259958 68 1 84
-0.548191 -0.408207 0.029551 68 1 84
0.273689 0.369372 -0.103036 56 87 140
0.124917 -0.257820 -0.232396 68 1 84
-0.444375 0.414026 0.291052 68 1 84
0.391816 0.453105 0.084399 68 1 84
0.598915 0.059152 0.343305 53 183 120
0.557690 0.121173 0.501072 129 211 76
0.174543 0.631786 -0.075175 46 107 142
0.148136 0.496359 -0.203843 35 137 141
0.087620 0.000674 -0.354260 68 1 84
0.268485 0.459837 -0.068776 68 1 84
-0.448347 0.415818 0.253397 68 1 84
-0.478147 0.365028 0.339225 68 1 84
-0.364558 0.347534 -0.038103 50 99 141
-0.295960 0.564421 0.127859 65 65 134
-0.558976 0.204747 0.277635 68 1 84
-0.350461 0.441010 0.016999 68 1 84
0.645825 -0.299986 0.269614 68 1 84
0.445193 0.203084 -0.014731 68 1 84
0.235018 -0.387135 -0.186353 68 1 84
-0.523492 0.107416 0.061676 68 1 84
-0.529622 -0.344265 0.017427 68 1 84
0.501113 -0.455321 -0.118220 68 1 84
0.109475 -0.350478 -0.224596 68 1 84
0.628649 -0.134860 0.507080 30 158 136
0.591334 0.033614 0.486514 42 176 126
0.151590 0.280398 -0.241893 48 104 141
-0.179075 0.169781 -0.251850 64 68 135
-0.453785 -0.113447 -0.119703 68 1 84
-0.381317 -0.378909 -0.144256 68 1 84
0.580407 0.073196 0.167883 66 61 132
0.612283 -0.126537 0.129626 68 1 84
-0.179103 0.447630 -0.170954 70 12 95
0.180849 0.128560 -0.234491 44 113 142
-0.186959 -0.205760 -0.190698 68 1 84
-0.620430 -0.068154 0.382106 68 1 84
-0.611961 -0.033163 0.402378 68 1 84
-0.205308 -0.530932 -0.284075 68 1 84
0.552884 -0.252412 0.034265 68 1 84
-0.326956 -0.256955 -0.168883 68 1 84
0.211765 0.517907 -0.127693 72 34 115
0.654442 -0.530121 0.281677 68 1 84
-0.619397 -0.148017 0.228339 68 1 84
-0.544628 0.251397 0.280055 68 1 84
0.299225 -0.377183 -0.168692 68 1 84
-0.095000 -0.147249 -0.281495 68 1 84
0.656089 -0.264401 0.395460 60 78 138
-0.618066 -0.442201 0.249125 68 1 84
0.243964 0.048898 -0.179837 68 1 84
0.068952 -0.282444 -0.291359 68 1 84
0.026265 -0.074251 -0.440603 68 1 84
-0.254393 -0.176225 -0.179252 68 1 84
0.632140 -0.394037 0.199046 68 1 84
-0.109623 -0.139540 -0.263911 68 1 84
-0.384016 0.346346 -0.015034 68 55 129
-0.627557 -0.131861 0.341178 68 1 84
-0.245218 0.580121 -0.001686 68 1 84
0.282604 0.205430 -0.167162 68 1 84
0.572453 -0.458641 -0.003635 68 1 84
-0.296301 0.182358 -0.176225 44 114 142
0.397898 -0.502442 -0.208713 68 1 84
-0.430343 -0.191811 -0.129606 68 1 84
-0.517025 0.309378 0.243163 68 1 84
0.618144 -0.030143 0.335277 46 108 142
0.020994 0.658812 -0.164279 53 92 140
-0.472662 0.019355 -0.070302 68 1 84
-0.567379 0.184696 0.317054 71 15 98
0.433224 0.214330 -0.023579 68 1 84
0.508476 -0.514258 -0.124767 68 1 84
-0.490703 0.034664 -0.038427 68 1 84
-0.630636 -0.141463 0.459073 68 1 84
0.348838 0.223470 -0.104098 68 1 84
-0.153780 -0.528818 -0.291444 68 1 84
-0.641829 -0.209609 0.467724 68 1 84
-0.532093 0.077625 0.063421 68 1 84
-0.603488 0.015099 0.351958 68 1 84
-0.391431 0.485698 0.171956 68 1 84
0.090236 -0.422381 -0.268545 68 1 84
0.143504 -0.039861 -0.303205 68 1 84
0.287920 0.531854 -0.000240 68 1 84
0.464359 0.343871 0.441932 47 106 141
-0.117390 0.539034 -0.214289 75 194 108
-0.074621 -0.089482 -0.355095 68 1 84
0.651055 -0.515406 0.263426 68 1 84
-0.088040 -0.521941 -0.295429 68 1 84
0.117356 0.508865 -0.231430 39 125 142
0.395938 0.432190 0.068880 68 1 84
-0.653913 -0.462642 0.393284 68 1 84
-0.621131 -0.462400 0.269154 68 1 84
-0.571783 0.087566 0.486859 68 1 84
-0.146355 0.628125 -0.116752 30 153 138
-0.536452 0.271879 0.267649 68 1 84
-0.504898 0.319106 0.370261 68 1 84
0.231679 0.154150 -0.209664 55 89 140
0.663348 -0.367437 0.384846 61 75 137
0.276595 0.195899 -0.174625 71 20 102
-0.531047 -0.453355 -0.013518 68 1 84
-0.351734 -0.356018 -0.165299 68 1 84
-0.413500 -0.347644 -0.111821 68 1 84
-0.599843 0.000700 0.277583 68 1 84
0.484330 0.299678 0.462298 42 176 126
-0.492945 0.026020 -0.039152 68 1 84
-0.578130 -0.486353 0.101391 68 1 84
0.488803 0.356300 0.316452 44 113 142
-0.333442 0.403072 -0.030778 50 98 141
-0.642324 -0.186860 0.372574 68 1 84
-0.625194 -0.106265 0.428165 71 39 119
0.628699 -0.199613 0.180535 71 37 117
0.152505 -0.188180 -0.234440 68 1 84
-0.581475 0.116611 0.395212 68 1 84
0.348924 0.498016 0.064551 68 1 84
0.569886 0.166933 0.359098 33 141 140
0.153967 0.447506 -0.197693 32 164 133
-0.225385 0.274923 -0.190806 71 44 123
-0.522055 0.167657 0.099287 68 1 84
0.169255 -0.463641 -0.263356 68 1 84
-0.251240 -0.383653 -0.184185 68 1 84
0.376800 0.124191 -0.116290 68 1 84
0.637244 -0.160075 0.235283 64 68 135
-0.592079 0.035611 0.263182 68 1 84
0.339995 -0.261090 -0.147933 68 1 84
0.269993 -0.523629 -0.276264 68 1 84
0.213317 -0.052533 -0.191837 68 1 84
-0.186053 -0.244393 -0.181639 68 1 84
0.153590 0.307736 -0.253594 68 1 84
0.517452 0.100459 0.022413 68 1 84
0.485068 -0.358226 -0.054968 68 1 84
0.479500 -0.521028 -0.157787 68 1 84
0.415425 -0.247427 -0.110827 68 1 84
-0.298611 -0.314109 -0.184169 68 1 84
0.024181 0.248120 -0.282742 40 123 142
-0.326578 0.211557 -0.141674 30 153 138
0.681160 -0.457167 0.470646 30 154 137
0.490567 0.309436 0.139560 68 1 84
0.607677 -0.042706 0.499554 30 154 137
-0.259607 0.286550 -0.171250 68 1 84
0.439484 -0.381489 -0.161028 68 1 84
0.330896 0.333169 -0.069454 68 1 84
-0.051126 -0.228618 -0.295848 68 1 84
0.612931 -0.459546 0.112341 68 1 84
0.213126 0.040851 -0.184475 68 1 84
0.154919 0.570753 -0.183266 34 139 141
-0.226075 0.529909 -0.091099 41 120 142
0.088661 -0.085189 -0.421549 68 1 84
0.415578 0.462361 0.161173 70 49 126
0.177557 -0.039026 -0.206799 68 1 84
0.117591 -0.022175 -0.366206 68 1 84
0.607550 -0.071369 0.540226 154 216 60
-0.632643 -0.159983 0.424162 68 1 84
0.112929 0.123950 -0.275218 58 82 139
-0.028475 -0.175745 -0.356721 68 1 84
0.212978 -0.526162 -0.288338 68 1 84
-0.534874 0.004206 0.022402 68 1 84
-0.628737 -0.387546 0.288156 68 1 84
0.227301 0.263723 -0.172643 69 5 88
-0.621839 -0.091826 0.455526 66 61 132
0.344672 -0.323257 -0.146184 68 1 84
-0.093599 0.461289 -0.227737 46 178 124
0.113914 0.656716 -0.105367 65 66 134
0.280859 0.258466 -0.135295 68 1 84
-0.574681 -0.059421 0.080633 68 1 84
0.271092 -0.170276 -0.164891 68 1 84
-0.209563 -0.423571 -0.222448 68 1 84
0.213404 0.401226 -0.161431 34 138 141
0.398315 0.465167 0.112700 68 1 84
0.492224 -0.542389 -0.141939 68 1 84
-0.601278 0.023098 0.333922 68 1 84
-0.644353 -0.285844 0.423770 69 6 90
0.369334 0.516127 0.176630 69 5 88
0.635265 -0.219863 0.556732 253 231 36
-0.293482 0.566412 0.131315 69 53 128
-0.644006 -0.255225 0.476793 68 1 84
-0.086090 -0.341275 -0.204840 68 1 84
0.526049 0.256579 0.190175 68 1 84
-0.573196 -0.432848 0.085603 68 1 84
-0.638318 -0.417739 0.339837 72 32 113
0.482730 0.131765 -0.012181 68 1 84
-0.639055 -0.267932 0.287159 68 1 84
0.395098 -0.227429 -0.122920 68 1 84
-0.162012 -0.134344 -0.220852 68 1 84
0.085018 -0.450449 -0.281601 68 1 84
0.175776 -0.100767 -0.216710 68 1 84
0.134434 0.180873 -0.284214 71 42 121
-0.106279 -0.007665 -0.315172 68 1 84
0.584224 0.003521 0.100352 68 1 84
0.518027 -0.438936 -0.088317 68 1 84
-0.141651 -0.096003 -0.231329 68 1 84
-0.480998 0.195266 0.032276 68 1 84
-0.554026 -0.268055 0.034075 68 1 84
0.647170 -0.479315 0.250723 68 1 84
0.123208 -0.013556 -0.350949 68 1 84
0.635659 -0.212159 0.533588 37 171 129
0.202967 0.370753 -0.190811 72 29 111
0.566948 -0.163230 0.021374 68 1 84
-0.515233 0.305414 0.361595 68 1 84
-0.348649 0.273027 -0.097401 114 207 85
0.648740 -0.410401 0.281053 68 1 84
-0.439982 0.418121 0.154167 68 1 84
0.230227 -0.196385 -0.174879 68 1 84
0.328547 -0.392640 -0.184026 68 1 84
-0.171590 0.340552 -0.223817 68 2 85
0.471183 0.101193 -0.047278 68 1 84
-0.335071 0.159769 -0.148212 42 118 142
0.083851 -0.184454 -0.338675 68 1 84
0.297558 0.180920 -0.160220 68 1 84
0.618633 -0.140901 0.151527 68 1 84
-0.231412 -0.394422 -0.202430 68 1 84
0.010975 0.043018 -0.320213 68 1 84
-0.284472 -0.466872 -0.239791 68 1 84
-0.080436 -0.329566 -0.211848 68 1 84
-0.645328 -0.244821 0.442303 68 1 84
-0.624475 -0.320523 0.212942 68 1 84
0.615947 -0.103268 0.544449 98 202 95
-0.499716 0.230843 0.092429 68 1 84
-0.125958 0.354989 -0.250247 68 1 84
0.211000 -0.342061 -0.155075 68 1 84
0.516471 0.148897 0.060722 68 1 84
0.342885 -0.244061 -0.145189 68 1 84
0.456524 0.068920 -0.076678 71 15 98
0.185417 0.248522 -0.224719 46 107 142
0.556545 0.020292 0.043598 68 1 84
0.410191 0.053809 -0.116223 71 22 105
