ply
format ascii 1.0
element vertex 1267
property float x
property float y
property float z
property uchar red
property uchar green
property uchar blue
end_header
0.151678 -0.131742 -0.344009 68 1 84
0.183067 -0.030213 -0.301087 72 35 116
-0.534296 0.162700 0.105694 68 1 84
-0.554569 -0.515152 0.127134 34 137 141
0.194110 0.114609 -0.231744 45 110 142
0.092843 0.342054 -0.251963 36 134 141
-0.509643 0.304256 0.456261 68 1 84
0.599593 0.045437 0.413697 72 35 116
0.620406 -0.319783 0.188430 32 145 140
-0.438122 0.416406 0.134787 68 1 84
-0.153137 0.397596 -0.214750 68 1 84
0.119652 0.032809 -0.275112 55 88 140
0.612733 0.020486 0.461310 70 48 125
-0.206675 -0.129090 -0.216855 68 1 84
0.095867 -0.443233 -0.271726 68 1 84
-0.311430 0.537524 0.028414 68 1 84
0.278104 0.182236 -0.151344 50 99 141
-0.296432 -0.374953 -0.155199 68 1 84
0.449081 -0.523041 -0.177307 68 1 84
-0.165511 -0.068547 -0.330263 68 1 84
-0.598291 -0.151822 0.226291 46 108 142
0.447316 0.337896 0.091485 68 1 84
-0.168022 -0.008643 -0.243860 71 20 102
-0.015454 -0.262693 -0.420879 68 1 84
-0.246458 -0.469950 -0.161430 68 1 84
0.445284 -0.192013 -0.106871 30 153 138
0.119637 -0.283585 -0.298073 68 1 84
0.649418 -0.106224 0.578686 57 84 139
-0.210455 0.119566 -0.236512 49 100 141
-0.140463 -0.088594 -0.393127 68 1 84
-0.573503 -0.168383 0.066648 48 103 141
0.558826 0.037133 0.114982 50 98 141
0.020894 -0.249116 -0.427326 68 1 84
0.074986 -0.022796 -0.440270 68 1 84
0.451701 0.408900 0.314930 68 1 84
-0.557796 -0.075674 0.038128 70 48 125
0.606641 -0.152176 0.208307 32 165 133
0.011702 -0.027871 -0.504757 68 1 84
0.000371 0.121287 -0.318088 39 124 142
-0.235441 0.579557 -0.074372 68 1 84
-0.635153 -0.110470 0.447094 55 88 140
-0.315231 0.555110 0.060438 68 1 84
-0.509258 0.254601 0.109177 68 1 84
-0.482890 0.235323 0.037911 68 1 84
0.113612 -0.199625 -0.372124 68 1 84
-0.102939 -0.406430 -0.217818 68 1 84
-0.621534 -0.084071 0.366525 49 100 141
0.676188 -0.306649 0.557149 50 181 122
0.091074 -0.149842 -0.482788 68 1 84
0.390048 0.367849 0.039481 68 1 84
-0.525981 -0.544694 0.011263 48 104 141
0.566314 0.047194 0.180431 53 93 140
-0.505950 -0.381383 0.005829 69 52 127
-0.130744 -0.341127 -0.201355 68 1 84
0.678387 -0.324998 0.555049 77 194 107
0.548230 0.212323 0.404839 68 1 84
0.521877 -0.364083 -0.001946 36 170 130
0.572683 0.136885 0.434835 68 1 84
0.293448 0.245971 -0.111449 57 85 139
-0.163030 -0.021710 -0.333628 72 30 112
-0.489082 -0.377026 -0.007649 71 24 106
-0.629503 -0.223290 0.327428 34 138 141
-0.179759 0.617181 -0.109779 68 1 84
0.222078 -0.537844 -0.263754 68 1 84
-0.023315 -0.232292 -0.447834 68 1 84
0.588560 -0.082241 0.161019 33 140 141
0.222360 0.203783 -0.176259 68 57 130
0.132394 -0.232030 -0.304054 68 1 84
-0.046754 -0.456421 -0.286299 68 1 84
-0.320080 0.565147 0.131562 68 1 84
0.237288 0.617379 0.080875 68 1 84
0.181536 0.006396 -0.230833 61 74 137
0.472667 0.206674 0.021446 65 65 134
0.610130 -0.457878 0.202272 50 181 122
0.361914 -0.355178 -0.156283 68 1 84
-0.523940 0.268812 0.468342 68 1 84
0.409000 0.454243 0.215151 68 1 84
-0.162771 -0.539975 -0.274678 68 1 84
0.612975 -0.304662 0.160275 32 145 140
0.317815 0.445749 0.003974 68 1 84
0.323415 0.082669 -0.172297 44 114 142
-0.481792 -0.552366 -0.113458 70 11 94
-0.540487 0.252864 0.309688 68 1 84
0.626091 -0.212676 0.241264 54 184 119
-0.513283 0.167784 0.053695 68 1 84
-0.540395 0.166223 0.130677 68 1 84
-0.145874 0.490790 -0.189853 68 1 84
-0.405364 0.455748 0.115830 68 1 84
-0.553054 0.155195 0.189347 68 1 84
0.459823 0.309156 0.082887 68 1 84
-0.437680 0.290997 -0.000014 68 1 84
-0.021559 -0.074144 -0.537545 68 1 84
-0.613789 -0.418851 0.395038 35 168 131
-0.629524 -0.314887 0.385123 30 159 136
-0.479639 0.206855 0.016020 68 1 84
0.532399 0.248866 0.509144 68 1 84
-0.114254 -0.044031 -0.452995 71 20 102
-0.515709 -0.536484 -0.049132 52 94 141
-0.311277 0.193859 -0.159328 70 11 94
-0.100107 0.556113 -0.200355 68 1 84
-0.486111 0.357394 0.412108 68 1 84
-0.602647 -0.431460 0.307106 31 162 134
0.485688 0.341026 0.232779 68 1 84
-0.247944 0.606616 -0.016327 68 1 84
0.120948 -0.263333 -0.307688 68 1 84
-0.324512 0.550587 0.075714 68 1 84
-0.576893 0.120733 0.471606 68 1 84
-0.013322 -0.133347 -0.528215 68 1 84
0.381083 -0.333126 -0.151629 68 1 84
0.056808 -0.023364 -0.465270 68 1 84
-0.329375 -0.220320 -0.140292 69 6 90
-0.629821 -0.226265 0.328401 34 138 141
-0.057776 0.359416 -0.256957 63 69 135
-0.244303 0.617353 0.036014 68 1 84
0.262200 0.483005 -0.064858 68 1 84
-0.313656 0.454594 -0.041849 68 1 84
-0.227126 0.500998 -0.128719 68 1 84
0.511672 -0.230968 -0.030566 32 145 140
-0.605807 -0.003725 0.549336 70 47 124
-0.485108 0.287405 0.080629 68 1 84
0.631219 -0.032715 0.502022 60 77 138
-0.475353 -0.064559 -0.091170 72 28 110
-0.495129 0.166245 0.019409 68 1 84
-0.125392 -0.270551 -0.280827 68 1 84
0.266324 0.261634 -0.124363 55 89 140
-0.428842 0.077962 -0.117079 68 1 84
-0.030401 -0.005731 -0.445099 70 49 126
-0.434072 -0.025000 -0.131535 68 1 84
-0.563692 0.178101 0.328430 68 1 84
0.428677 0.054150 -0.124828 47 105 141
-0.457044 -0.336812 -0.042813 71 21 103
0.557672 -0.486926 -0.002333 34 137 141
0.253523 0.579748 0.007532 68 1 84
0.113063 -0.418814 -0.246347 68 1 84
-0.053854 0.244449 -0.279664 51 97 141
0.606661 -0.105235 0.272336 32 145 140
0.078056 0.210778 -0.282668 35 136 141
-0.496705 0.347976 0.242922 68 1 84
0.455533 0.368411 0.158622 68 1 84
0.006518 -0.243540 -0.436273 68 1 84
-0.405389 -0.327505 -0.113862 71 22 105
0.269768 0.254022 -0.120032 57 84 139
-0.567915 -0.150196 0.050279 61 76 137
0.456942 0.404809 0.358914 68 1 84
0.032934 0.179687 -0.310844 36 134 141
-0.596669 -0.182284 0.190771 48 104 141
0.165559 0.066944 -0.246326 52 95 141
-0.208577 0.405555 -0.175448 68 1 84
0.476144 -0.432391 -0.127687 68 1 84
0.561882 -0.016734 0.077126 33 140 141
-0.529397 -0.305284 0.030626 61 75 137
-0.548368 0.212862 0.457458 68 1 84
-0.558449 0.153535 0.230751 68 1 84
-0.475262 0.389575 0.277774 68 1 84
-0.585839 -0.235416 0.118222 50 98 141
-0.575973 0.135431 0.356381 68 1 84
-0.463929 -0.181507 -0.082848 65 65 134
-0.408691 0.421763 0.077709 68 1 84
0.619938 0.001957 0.493934 67 59 131
0.612190 -0.275690 0.157861 35 168 131
0.168846 0.378950 -0.200805 69 53 128
-0.572965 0.149438 0.369068 68 1 84
0.035873 -0.375046 -0.329367 68 1 84
0.554246 0.124820 0.190918 69 8 91
-0.523235 0.002583 -0.012119 71 22 105
-0.112372 0.599431 -0.175769 68 1 84
0.316153 -0.020945 -0.201092 47 106 141
-0.572793 0.060563 0.231962 68 1 84
0.632534 -0.511960 0.285975 83 197 103
0.022523 0.000902 -0.443464 71 18 101
-0.572835 -0.129050 0.068758 59 81 138
-0.388230 0.464132 0.090635 68 1 84
0.310978 0.559337 0.139087 68 1 84
0.458531 0.349389 0.133043 68 1 84
-0.375167 0.038706 -0.165114 68 1 84
0.137023 -0.186278 -0.322043 68 1 84
0.590915 0.037407 0.345745 71 39 119
0.580271 0.007247 0.240437 57 85 139
0.266339 0.563435 0.015200 68 1 84
-0.396126 -0.405213 -0.102658 71 17 99
-0.526455 0.093182 0.038046 68 1 84
0.417419 0.309620 0.018301 68 1 84
-0.528267 0.125642 0.061919 68 1 84
0.535679 -0.156041 -0.024679 30 152 138
0.151078 -0.079286 -0.395823 70 12 95
-0.209473 -0.533717 -0.247763 68 1 84
0.573727 0.063361 0.261184 72 30 112
-0.431186 0.325274 0.015642 68 1 84
0.086470 0.545540 -0.197105 68 1 84
-0.445084 -0.386369 -0.047491 68 1 84
0.652332 -0.379529 0.343364 149 215 63
0.567211 -0.130708 0.032841 30 159 136
-0.389005 0.178006 -0.117165 68 1 84
0.619992 -0.399680 0.210126 91 200 98
0.328170 -0.114498 -0.194804 51 96 141
0.207049 -0.553575 -0.271443 68 1 84
0.236587 0.538734 -0.070963 68 1 84
0.296278 0.574126 0.150498 68 1 84
-0.592304 -0.110218 0.218700 66 61 132
0.202300 -0.523786 -0.266641 68 1 84
-0.533458 0.273180 0.319895 68 1 84
0.567783 0.146900 0.378205 68 1 84
0.478088 -0.297848 -0.044643 38 128 142
-0.143401 -0.082174 -0.389114 68 3 87
-0.508610 -0.279920 -0.002047 72 35 116
0.321026 -0.105136 -0.199746 44 112 142
-0.583359 0.083618 0.504354 68 1 84
0.601546 -0.264549 0.121713 31 150 139
-0.600230 -0.544240 0.336809 91 200 98
0.661829 -0.372493 0.397654 109 206 88
-0.640140 -0.198228 0.440094 44 114 142
-0.233416 -0.046593 -0.208370 70 9 92
0.101366 -0.464421 -0.272438 68 1 84
0.496706 0.240766 0.092248 68 3 87
-0.382804 -0.109829 -0.155507 69 5 88
-0.097162 -0.205995 -0.399612 68 1 84
0.207487 -0.129461 -0.217089 61 76 137
0.639258 -0.228884 0.281810 53 183 120
-0.164624 0.227484 -0.235033 65 65 134
0.557250 -0.451181 -0.002930 36 132 141
0.585616 -0.535119 0.144076 75 194 108
0.408591 -0.213954 -0.114759 55 88 140
0.210396 -0.183023 -0.210588 70 45 124
0.217560 0.511379 -0.111405 68 1 84
-0.524460 0.074370 0.023225 68 1 84
0.366472 0.465690 0.105842 68 1 84
0.650320 -0.365481 0.323540 151 216 62
0.173782 0.632409 -0.074567 68 1 84
-0.196594 0.545111 -0.138638 68 1 84
-0.455810 0.348143 0.078786 68 1 84
0.621812 -0.004699 0.518347 69 50 127
-0.463438 -0.317928 -0.037116 72 34 115
0.304837 0.567298 0.187716 68 1 84
-0.142651 -0.544683 -0.279744 68 1 84
0.316254 -0.076123 -0.205375 46 108 142
0.630560 -0.201371 0.268869 69 191 111
-0.198073 0.469480 -0.160541 68 1 84
-0.196496 -0.363097 -0.159473 68 1 84
0.040161 -0.054858 -0.517290 68 1 84
0.644355 -0.295970 0.282319 91 200 98
-0.104671 0.269390 -0.261261 55 88 140
0.011008 -0.003435 -0.467035 70 11 94
0.578252 0.091912 0.339010 68 2 85
-0.192843 0.582973 -0.121804 68 1 84
-0.545411 -0.282261 0.042119 53 92 140
-0.582763 -0.086318 0.162025 62 72 136
-0.614523 -0.364976 0.299438 30 159 136
-0.614706 -0.028648 0.577038 72 28 110
-0.588423 -0.545121 0.294712 35 168 131
0.535872 -0.208059 -0.012497 33 166 133
-0.057610 -0.423556 -0.284958 68 1 84
0.678622 -0.466391 0.473491 136 213 71
-0.309089 -0.159217 -0.172813 71 22 105
-0.000859 0.364296 -0.257002 59 81 138
0.549894 0.111023 0.144008 61 75 137
0.483355 0.323697 0.169099 68 1 84
-0.135158 0.397862 -0.222565 68 1 84
-0.626655 -0.510577 0.482183 114 207 85
-0.324725 0.424629 -0.047626 68 1 84
0.531879 0.254628 0.435493 68 1 84
-0.582436 -0.499492 0.265924 30 153 138
-0.545548 -0.564116 0.117410 33 141 140
-0.532387 -0.535998 0.033904 49 102 141
-0.624777 -0.579417 0.494825 85 198 102
0.658369 -0.466719 0.389424 50 181 122
0.085885 0.071163 -0.300237 51 97 141
-0.433915 0.448982 0.246480 68 1 84
-0.377608 0.285420 -0.081506 68 1 84
-0.556195 -0.058602 0.039965 71 40 120
-0.529637 0.118247 0.060730 68 1 84
0.098705 -0.180317 -0.440016 68 1 84
0.277069 0.356616 -0.107392 68 1 84
0.141021 -0.120957 -0.398652 68 1 84
0.682534 -0.528476 0.502872 205 224 29
0.368349 0.505669 0.272922 68 1 84
0.615109 -0.285751 0.167756 30 159 136
-0.234395 0.499719 -0.122660 68 1 84
-0.495607 0.347877 0.228890 68 1 84
-0.063856 0.461756 -0.212765 68 1 84
0.601098 -0.145489 0.174246 37 171 129
-0.517595 0.152892 0.053093 68 1 84
0.402027 0.354259 0.041264 68 1 84
0.332877 0.523387 0.116466 68 1 84
0.540510 0.230685 0.465663 68 1 84
-0.149135 0.337484 -0.233959 67 59 131
-0.407295 0.396697 0.046996 68 1 84
-0.058751 0.053317 -0.329406 66 61 132
0.621426 -0.003960 0.533531 70 47 124
0.102748 -0.363735 -0.279000 68 1 84
0.107398 0.405572 -0.217518 72 26 108
-0.635477 -0.104139 0.515004 58 83 139
-0.108432 -0.152745 -0.453686 68 1 84
-0.097285 0.260437 -0.262995 55 88 140
0.574273 -0.013454 0.156642 39 125 142
0.138371 -0.075737 -0.430405 68 1 84
-0.598616 -0.190407 0.197122 45 111 142
0.574469 0.016996 0.206114 50 99 141
-0.051446 -0.294914 -0.382297 68 1 84
0.337938 0.178810 -0.130173 43 116 142
-0.564413 0.159000 0.465749 68 1 84
-0.023916 -0.172740 -0.501849 68 1 84
0.398226 -0.512681 -0.215093 68 1 84
-0.379921 -0.023618 -0.168787 68 1 84
-0.112244 0.652245 -0.131447 68 1 84
-0.622832 -0.242680 0.290055 37 130 142
-0.621472 -0.357556 0.381597 39 173 128
0.540793 -0.260334 0.009153 34 138 141
0.236751 -0.454480 -0.191721 68 1 84
0.217932 0.237201 -0.172699 57 84 139
-0.620176 -0.140272 0.319848 40 122 142
0.578112 -0.035039 0.154021 35 135 141
-0.107551 0.233674 -0.264128 47 106 141
-0.069895 -0.135758 -0.510839 68 1 84
-0.184260 0.246155 -0.200426 72 30 112
0.558839 0.005869 0.081717 42 117 142
0.017925 0.679153 -0.124409 68 1 84
0.119995 -0.208243 -0.345973 68 1 84
0.579814 -0.521632 0.118927 57 185 118
-0.607616 -0.364761 0.252808 32 165 133
0.586320 -0.102161 0.116463 30 156 137
0.557980 -0.080773 0.023824 32 164 133
-0.070606 -0.290700 -0.365943 68 1 84
-0.014528 0.462106 -0.212430 68 1 84
-0.483780 -0.016136 -0.080573 70 9 92
0.550457 0.193234 0.306890 68 1 84
-0.219638 0.629223 -0.023635 68 1 84
0.603179 0.015944 0.385452 65 66 134
-0.262966 0.104267 -0.203295 71 24 106
0.434594 0.107375 -0.092688 48 103 141
-0.135053 0.358532 -0.236182 63 71 136
-0.517790 -0.435952 -0.017346 68 3 87
-0.540663 0.009887 0.028933 71 40 120
-0.367322 0.375020 -0.034174 68 1 84
0.152885 0.139988 -0.260373 35 135 141
-0.635418 -0.258814 0.407340 30 152 138
0.504617 0.315323 0.466232 68 1 84
-0.589315 -0.502973 0.300074 32 165 133
-0.370163 -0.206710 -0.126681 71 21 103
0.542128 0.227499 0.438932 68 1 84
-0.148946 0.002702 -0.283953 71 44 123
0.026116 -0.446240 -0.300289 68 1 84
0.246466 0.585997 -0.000196 68 1 84
0.585503 -0.528330 0.151859 64 189 114
-0.049351 -0.227369 -0.441029 68 1 84
-0.103797 0.073747 -0.298437 59 81 138
0.662610 -0.246001 0.397012 56 185 118
-0.302996 -0.491855 -0.198486 68 1 84
-0.503426 0.338048 0.270521 68 1 84
-0.162756 0.459547 -0.186146 68 1 84
0.328784 -0.369636 -0.156871 68 1 84
0.428337 0.340658 0.064295 68 1 84
0.203528 -0.159223 -0.219270 64 68 135
0.494944 -0.442455 -0.112738 72 25 107
-0.350405 -0.078120 -0.179408 70 9 92
0.403286 0.176471 -0.081963 55 89 140
-0.615075 -0.313128 0.255974 35 136 141
0.359411 0.044630 -0.175559 39 126 142
-0.097830 -0.485101 -0.263674 68 1 84
0.593665 -0.450876 0.142363 44 177 125
-0.563050 0.177822 0.318919 68 1 84
-0.551095 0.142994 0.162941 68 1 84
-0.529991 -0.433105 0.012485 70 47 124
-0.636377 -0.242849 0.411483 31 149 139
-0.517788 0.111594 0.028795 68 1 84
0.295821 0.052238 -0.184328 42 119 142
-0.503334 0.340875 0.300951 68 1 84
0.119794 -0.321415 -0.269922 68 1 84
-0.197013 -0.369525 -0.155385 68 1 84
0.622824 -0.007032 0.556663 71 21 103
-0.120138 -0.196844 -0.334827 68 1 84
0.075440 0.047095 -0.309322 50 99 141
0.032823 0.231358 -0.283194 37 131 141
-0.209805 -0.239961 -0.187307 68 1 84
0.548910 0.071340 0.096516 61 75 137
-0.207036 0.282321 -0.186602 68 1 84
-0.590380 -0.355853 0.167892 36 133 141
0.562605 -0.218074 0.027374 31 147 139
0.406089 0.371994 0.065375 68 1 84
-0.586844 0.067046 0.324364 68 1 84
-0.319820 -0.126428 -0.181033 68 1 84
0.125379 -0.307508 -0.269628 68 1 84
0.330796 0.119620 -0.158690 47 105 141
0.007766 0.000933 -0.460676 72 28 110
0.658013 -0.161981 0.441288 32 165 133
0.061659 0.041790 -0.321878 53 92 140
-0.225426 -0.324648 -0.163020 68 1 84
0.625680 -0.020723 0.591634 68 1 84
-0.083854 0.395125 -0.239103 71 18 101
0.169236 0.358496 -0.207519 66 64 133
-0.007557 -0.203805 -0.477429 68 1 84
0.567277 -0.245615 0.041329 35 137 141
0.198372 -0.077738 -0.238995 60 78 138
0.578226 -0.489402 0.090553 30 157 136
0.522611 -0.532310 -0.092982 66 61 132
-0.404014 0.477819 0.150711 68 1 84
0.262070 0.550988 -0.011030 68 1 84
-0.625036 -0.063827 0.430486 56 86 139
-0.380983 0.431239 0.042223 68 1 84
-0.524624 0.265186 0.473367 68 1 84
-0.110667 0.473076 -0.206376 68 1 84
-0.587907 -0.043003 0.239932 66 62 133
0.086044 0.043317 -0.301319 63 71 136
0.631754 -0.460643 0.282263 126 210 78
0.642037 -0.519968 0.321886 85 198 102
-0.139798 0.576405 -0.170436 68 1 84
-0.178506 0.428248 -0.188399 68 1 84
-0.628669 -0.320422 0.383460 30 160 135
0.229667 0.442249 -0.125182 68 1 84
0.661149 -0.266711 0.377450 34 167 132
-0.529376 -0.420402 0.017698 71 37 117
0.039092 0.042271 -0.337482 47 105 141
-0.251572 -0.530072 -0.233336 68 1 84
-0.125451 0.424417 -0.214578 68 1 84
-0.136501 0.314237 -0.244955 67 59 131
-0.354953 0.483868 0.052706 68 1 84
0.128237 0.015508 -0.285230 48 104 141
0.663288 -0.246134 0.403034 51 182 121
-0.437331 -0.113728 -0.118367 70 11 94
0.494487 0.336393 0.305320 68 1 84
0.469471 0.321814 0.118779 68 1 84
0.567257 -0.511074 0.056549 30 155 137
0.442061 0.419477 0.287369 68 1 84
-0.162799 0.336339 -0.225614 66 61 132
0.512468 0.282779 0.516798 68 1 84
-0.562730 0.122337 0.532416 68 1 84
0.370662 0.505679 0.259148 68 1 84
-0.594203 0.016883 0.311052 71 22 105
0.495989 0.316734 0.501293 68 1 84
-0.461309 -0.345888 -0.034253 72 29 111
-0.125889 -0.221483 -0.308504 68 1 84
0.417325 0.452836 0.281888 68 1 84
0.467188 -0.086344 -0.121128 35 137 141
-0.533053 -0.453666 0.012990 66 62 133
0.514743 0.133407 0.045674 58 83 139
0.173477 0.234810 -0.213330 55 88 140
-0.544079 0.227701 0.450170 68 1 84
0.515681 0.294280 0.435948 68 1 84
-0.550292 0.183207 0.500248 68 1 84
0.306948 0.043007 -0.185838 37 130 142
-0.082448 -0.392860 -0.266254 68 1 84
-0.196449 -0.141788 -0.222219 68 1 84
0.332814 0.306321 -0.079516 62 73 137
0.622951 -0.382479 0.216173 100 203 93
0.210951 -0.442755 -0.169421 68 1 84
0.462902 0.358879 0.165717 68 1 84
0.214609 -0.150260 -0.214260 64 68 135
0.139979 -0.211862 -0.299070 68 1 84
0.529246 0.261193 0.438515 68 1 84
-0.420066 0.469311 0.221150 68 1 84
-0.573640 -0.520467 0.229598 35 135 141
-0.552997 -0.443375 0.083105 34 138 141
0.299051 0.308348 -0.105420 57 85 139
-0.236614 -0.253187 -0.166142 68 1 84
-0.358475 -0.475605 -0.158976 68 1 84
0.459606 -0.146417 -0.115793 35 168 131
-0.329955 0.381748 -0.075020 68 1 84
-0.249334 -0.077727 -0.209825 70 14 97
0.219008 -0.355300 -0.158460 70 9 92
0.664062 -0.263483 0.401381 47 179 123
-0.092956 0.038652 -0.310710 61 76 137
-0.071938 -0.200314 -0.449869 68 1 84
-0.231539 0.625157 0.027280 68 1 84
0.216355 0.578677 -0.071003 68 1 84
0.046256 0.379972 -0.244054 64 67 135
-0.637656 -0.162865 0.417726 44 113 142
0.402852 -0.376420 -0.124478 68 1 84
-0.194135 0.103260 -0.245787 50 98 141
-0.473659 0.315791 0.081635 68 1 84
0.391760 0.482463 0.282078 68 1 84
-0.354464 -0.028733 -0.182134 68 1 84
-0.291290 0.275450 -0.131511 68 1 84
-0.275568 0.039311 -0.199836 71 44 123
0.010544 0.535060 -0.207451 69 8 91
0.006088 -0.193152 -0.486520 68 1 84
0.423566 0.445804 0.335649 68 1 84
-0.472668 0.388118 0.227168 68 1 84
-0.443931 0.154744 -0.067076 68 1 84
0.155043 -0.255115 -0.248998 68 1 84
-0.046180 -0.176369 -0.492416 68 1 84
0.422594 0.351101 0.067006 68 1 84
0.529639 -0.147992 -0.035233 32 144 140
-0.358657 0.525559 0.115580 68 1 84
0.475843 -0.518242 -0.153338 70 11 94
-0.197594 -0.160775 -0.221956 68 1 84
-0.529520 0.253900 0.475491 68 1 84
0.663378 -0.329855 0.409057 36 170 130
0.245091 0.391401 -0.128865 68 1 84
0.592675 -0.090147 0.194236 35 135 141
0.071972 0.063790 -0.309440 48 104 141
0.386070 0.485818 0.216506 68 1 84
0.179910 0.366111 -0.197494 55 88 140
0.609393 0.011437 0.411668 66 62 133
-0.506346 0.335964 0.347846 68 1 84
0.140943 -0.098859 -0.419807 68 1 84
0.342417 0.534418 0.232102 68 1 84
-0.429282 -0.479862 -0.181421 68 1 84
-0.634321 -0.096748 0.463073 51 97 141
-0.626534 -0.330591 0.437820 30 160 135
-0.384604 0.457115 0.075221 68 1 84
0.134153 0.660326 -0.080511 68 1 84
-0.225682 -0.512948 -0.226092 68 1 84
0.380024 -0.362134 -0.148156 68 1 84
0.208717 0.529030 -0.114432 68 1 84
0.628441 -0.134551 0.323121 34 138 141
-0.247373 0.285399 -0.149678 68 1 84
-0.634820 -0.265211 0.409721 31 149 139
0.289023 0.535694 0.033891 68 1 84
0.289183 0.489869 -0.012084 68 1 84
-0.629890 -0.087247 0.549147 58 82 139
0.572415 -0.009668 0.147479 36 134 141
-0.534718 -0.111069 -0.013483 72 33 114
0.311830 0.362740 -0.065514 69 5 88
-0.570970 -0.504825 0.196740 40 123 142
-0.120228 -0.293473 -0.273328 68 1 84
0.524741 0.168100 0.101116 70 49 126
-0.613880 -0.079079 0.330493 54 91 140
-0.585120 0.035360 0.278934 71 21 103
-0.146020 0.663496 -0.085449 68 1 84
-0.445500 0.430186 0.210089 68 1 84
0.354580 -0.275136 -0.128059 61 74 137
-0.333134 0.102949 -0.175779 68 1 84
0.166309 0.055696 -0.244611 51 97 141
0.464011 0.159794 -0.025261 57 84 139
-0.014402 0.050925 -0.342849 57 85 139
-0.053200 0.088627 -0.324038 54 91 140
0.281071 0.237039 -0.113482 62 73 137
0.465560 0.157811 -0.024596 56 86 139
0.595748 -0.305447 0.111617 30 152 138
0.544540 0.214092 0.308019 68 1 84
-0.633466 -0.335344 0.499695 30 159 136
-0.565456 0.176179 0.379963 68 1 84
0.318157 -0.121688 -0.195990 50 98 141
-0.127287 -0.165358 -0.334303 68 1 84
0.643165 -0.186800 0.329255 36 170 130
0.621269 -0.269809 0.191260 34 167 132
0.033638 0.641764 -0.165349 68 1 84
-0.418264 0.363759 0.029570 68 1 84
-0.629287 -0.310189 0.433511 41 175 127
-0.175233 -0.076489 -0.257061 70 9 92
-0.566118 -0.319415 0.088314 53 93 140
0.131608 -0.165626 -0.365010 68 1 84
-0.043413 -0.442823 -0.289975 68 1 84
-0.105554 -0.000140 -0.354617 71 40 120
-0.358212 0.428332 0.006584 68 1 84
-0.031993 0.027320 -0.360298 66 61 132
0.539701 0.234611 0.429755 68 1 84
-0.329577 0.456175 -0.012848 68 1 84
0.418111 0.446432 0.356741 68 1 84
-0.518165 -0.086344 -0.037208 72 25 107
0.516341 0.294890 0.351951 68 1 84
-0.477643 -0.311822 -0.022041 63 71 136
-0.502938 0.341784 0.302506 68 1 84
0.270188 0.160595 -0.170603 42 118 142
0.164948 0.657256 -0.015504 68 1 84
0.068944 -0.545252 -0.296856 68 1 84
-0.119036 0.528669 -0.199312 68 1 84
-0.437396 0.308029 0.011865 68 1 84
0.583339 -0.191989 0.065647 33 141 140
-0.625391 -0.332992 0.402964 53 183 120
0.219823 0.369460 -0.163233 71 24 106
0.162397 -0.113410 -0.338837 68 1 84
0.479435 0.104718 -0.044895 63 71 136
0.387529 -0.450847 -0.196574 68 1 84
0.456896 -0.181620 -0.104503 32 165 133
-0.114340 -0.369320 -0.209021 68 1 84
-0.244240 -0.177020 -0.194305 68 1 84
0.086873 0.002820 -0.335754 58 83 139
-0.558135 0.013137 0.085882 71 43 122
-0.217956 0.353959 -0.182842 68 1 84
-0.624550 -0.054093 0.445169 58 83 139
0.197376 -0.040293 -0.235893 71 44 123
0.159900 -0.339129 -0.177761 68 1 84
0.655807 -0.492738 0.375139 44 177 125
-0.396138 0.326693 -0.034783 68 1 84
-0.042654 -0.184885 -0.485223 68 1 84
0.522925 0.278033 0.423834 68 1 84
-0.244623 -0.399784 -0.142846 68 1 84
0.586958 -0.197100 0.074961 32 143 140
0.239465 0.492773 -0.091607 68 1 84
-0.575498 -0.228694 0.083553 49 101 141
-0.244348 0.615203 0.001880 68 1 84
-0.104785 0.633796 -0.154868 68 1 84
0.664856 -0.292658 0.410213 59 186 117
0.073000 0.082468 -0.308537 47 105 141
-0.204790 0.295527 -0.192499 70 9 92
0.599600 -0.028605 0.317827 60 77 138
-0.530309 0.281624 0.333325 68 1 84
-0.300992 0.573591 0.068925 68 1 84
0.462354 0.018827 -0.111331 37 130 142
-0.385792 0.396869 0.015010 68 1 84
-0.552111 0.220513 0.350021 68 1 84
0.062771 0.436098 -0.211762 72 34 115
-0.196638 0.316311 -0.202684 71 40 120
0.373740 -0.011304 -0.181827 39 125 142
-0.291083 0.448465 -0.080177 68 1 84
-0.553571 0.197767 0.453073 68 1 84
-0.109397 -0.037738 -0.451482 71 17 99
-0.332085 0.473393 0.004703 68 1 84
-0.640213 -0.269500 0.537415 30 153 138
-0.098796 0.367276 -0.246769 71 42 121
0.217334 -0.487155 -0.226864 68 1 84
-0.274550 0.468888 -0.091280 68 1 84
-0.044596 0.330883 -0.270938 53 92 140
-0.592723 -0.167253 0.173061 56 86 139
-0.211339 0.547670 -0.123787 68 1 84
-0.624248 -0.316918 0.309603 31 148 139
0.657649 -0.134711 0.512472 36 133 141
-0.400133 -0.118048 -0.142978 69 8 91
0.260806 0.164863 -0.175572 42 118 142
0.344511 0.530698 0.177285 68 1 84
-0.189298 0.541019 -0.146777 68 1 84
-0.499197 -0.127584 -0.059691 69 6 90
-0.254767 0.109001 -0.207282 72 35 116
0.336543 0.382527 -0.019457 68 1 84
-0.243218 0.077384 -0.212404 71 43 122
0.129329 -0.427717 -0.221960 68 1 84
0.464207 -0.351591 -0.062446 42 117 142
0.450293 -0.447825 -0.174787 68 1 84
0.110948 -0.284139 -0.313715 68 1 84
0.460385 0.383320 0.455236 68 1 84
-0.562344 0.161278 0.274839 68 1 84
-0.148059 0.317142 -0.237900 62 72 136
-0.339743 -0.475447 -0.154216 68 1 84
0.388141 0.247248 -0.058669 51 97 141
0.475688 0.081293 -0.065720 52 94 141
0.133055 0.439255 -0.194712 68 1 84
-0.518149 -0.190370 -0.028361 55 89 140
0.050726 0.332872 -0.267149 45 110 142
0.344154 0.534277 0.199102 68 1 84
-0.053842 0.689156 -0.097287 68 1 84
0.385449 -0.420843 -0.140340 71 18 101
-0.255316 0.235673 -0.156612 70 9 92
-0.621086 -0.034484 0.454788 60 78 138
0.617655 -0.511841 0.246453 64 189 114
-0.052220 0.116130 -0.321066 49 102 141
-0.123985 -0.331726 -0.223928 68 1 84
-0.204842 -0.038232 -0.210415 68 1 84
-0.265892 0.446549 -0.111094 68 1 84
0.394800 -0.282053 -0.112503 71 39 119
0.549260 0.018426 0.047913 38 129 142
-0.192628 -0.495682 -0.216318 68 1 84
-0.360212 0.411557 -0.007460 68 1 84
-0.112471 -0.076687 -0.474720 68 1 84
0.100376 0.098095 -0.293163 55 88 140
0.526780 -0.342321 0.010650 30 154 137
0.071652 0.680825 -0.103002 68 1 84
-0.449886 0.176909 -0.046806 68 1 84
-0.127995 -0.353837 -0.196916 68 1 84
-0.435466 0.249870 -0.028175 68 1 84
0.526421 0.202442 0.137081 70 12 95
-0.329085 0.396682 -0.064987 68 1 84
0.266348 0.382733 -0.107793 68 1 84
0.436621 0.104834 -0.092207 50 98 141
-0.163842 -0.323908 -0.177986 68 1 84
-0.184650 -0.453427 -0.168156 68 1 84
-0.126451 0.473627 -0.200629 68 1 84
-0.577051 -0.334332 0.118053 44 114 142
-0.407884 -0.020449 -0.151305 70 9 92
0.594383 -0.513874 0.181865 47 179 123
-0.275952 0.492315 -0.077192 68 1 84
-0.222023 0.280176 -0.171446 68 1 84
0.531893 0.107981 0.069225 49 100 141
0.571922 0.103637 0.303676 68 1 84
-0.126190 -0.161790 -0.339913 68 1 84
0.480556 -0.496555 -0.149765 68 1 84
0.193250 0.620715 -0.059876 68 1 84
0.129089 0.053121 -0.268285 61 74 137
0.533463 0.142253 0.104678 70 45 124
-0.394800 0.283810 -0.062328 68 1 84
0.470820 0.367197 0.235175 68 1 84
-0.571845 0.127967 0.295992 68 1 84
0.624535 -0.381461 0.220933 100 203 93
0.064536 -0.010298 -0.372130 71 39 119
-0.569593 0.106484 0.528000 68 1 84
-0.387146 0.295196 -0.065665 68 1 84
0.236294 -0.019584 -0.203174 47 106 141
0.528360 0.101442 0.052520 53 92 140
-0.111724 -0.372263 -0.212954 68 1 84
0.432260 0.386686 0.128278 68 1 84
0.495770 0.324020 0.484077 68 1 84
-0.639015 -0.124792 0.530930 66 64 133
-0.269711 0.351819 -0.139358 68 1 84
-0.573348 0.097446 0.266856 68 1 84
0.373882 0.402089 0.052886 68 1 84
-0.225304 0.502326 -0.129878 68 1 84
0.177138 -0.530970 -0.278585 68 1 84
-0.011981 0.486151 -0.211517 69 5 88
0.582914 0.108270 0.457459 68 1 84
-0.117159 -0.211833 -0.334837 68 1 84
-0.608485 0.012541 0.416387 70 47 124
0.369322 -0.319666 -0.153421 68 1 84
-0.374027 0.519859 0.179640 68 1 84
0.508776 0.049305 -0.042324 46 108 142
0.490493 -0.282603 -0.034432 37 130 142
0.545755 0.067616 0.077889 52 94 141
0.389061 0.103342 -0.135633 51 97 141
-0.170309 -0.014207 -0.241157 71 43 122
0.025622 0.663200 -0.145088 68 1 84
0.076686 -0.558676 -0.297263 68 1 84
-0.619332 -0.438785 0.424651 42 176 126
-0.017441 0.234060 -0.288488 55 88 140
0.338149 -0.421991 -0.137992 72 32 113
-0.005113 0.220444 -0.299424 38 128 142
0.018165 0.087011 -0.323701 48 104 141
0.624212 -0.015937 0.591922 69 5 88
0.660003 -0.152383 0.532764 43 115 142
-0.096825 -0.506383 -0.274186 68 1 84
-0.136172 0.255873 -0.238827 60 77 138
-0.583044 -0.058746 0.197938 65 66 134
-0.112239 -0.175063 -0.404904 68 1 84
0.315593 -0.340914 -0.165590 68 1 84
0.447595 -0.508990 -0.178916 68 1 84
-0.528977 -0.528037 0.013645 56 87 140
-0.566759 -0.036006 0.086927 66 64 133
0.219204 -0.546796 -0.266124 68 1 84
-0.150467 0.660953 -0.088014 68 1 84
0.500925 0.224976 0.088159 72 28 110
-0.640458 -0.146186 0.520826 57 85 139
0.607899 -0.389699 0.166473 43 177 125
-0.419805 0.419125 0.094969 68 1 84
0.478796 0.183482 0.014476 57 84 139
-0.617708 -0.259555 0.262043 42 119 142
0.182128 0.191115 -0.229341 45 111 142
-0.585830 -0.470341 0.250992 33 142 140
-0.459013 0.286397 0.030936 68 1 84
0.254974 -0.474265 -0.220520 68 1 84
-0.585051 0.009863 0.258853 72 28 110
-0.425039 0.013564 -0.135536 68 1 84
-0.460970 0.409080 0.238086 68 1 84
-0.163931 0.443060 -0.191505 68 1 84
-0.537770 -0.562598 0.074530 36 134 141
0.242340 -0.330882 -0.159533 69 53 128
-0.169143 0.543254 -0.162957 68 1 84
0.154144 0.644046 -0.084852 68 1 84
0.517060 -0.354339 -0.002154 30 155 137
-0.020629 0.366323 -0.256289 65 66 134
0.138541 0.002556 -0.323804 68 57 130
0.576737 0.119664 0.527771 68 1 84
0.613415 -0.224082 0.176678 41 175 127
-0.580618 -0.053507 0.182077 65 66 134
-0.108822 -0.449138 -0.225380 68 1 84
-0.639502 -0.175042 0.519477 41 120 142
0.099081 -0.186309 -0.430716 68 1 84
0.193998 0.207918 -0.203038 54 90 140
0.100590 -0.336628 -0.299420 68 1 84
-0.003893 0.290224 -0.284890 50 98 141
0.394857 -0.094253 -0.170869 46 107 142
-0.270762 0.588361 0.003724 68 1 84
0.129807 0.311643 -0.246945 35 136 141
-0.082021 0.674638 -0.118083 68 1 84
0.123985 0.445091 -0.195701 68 1 84
0.450247 -0.503142 -0.176397 68 1 84
-0.418199 0.243583 -0.054944 68 1 84
-0.600903 -0.172400 0.224905 44 114 142
0.414474 0.384392 0.092350 68 1 84
-0.607590 -0.310655 0.214937 32 145 140
0.568384 0.103275 0.271473 69 5 88
0.056472 -0.165767 -0.494302 68 1 84
0.459382 -0.117800 -0.123129 30 159 136
-0.606768 -0.232173 0.218267 43 116 142
-0.602305 -0.418482 0.283169 31 163 134
-0.207693 0.626640 -0.062619 68 1 84
0.254755 0.339957 -0.138160 71 43 122
-0.121156 0.560514 -0.189396 68 1 84
-0.581033 -0.317790 0.122149 48 104 141
-0.424350 -0.444397 -0.128087 68 3 87
0.672712 -0.506326 0.437861 159 217 56
-0.503542 -0.310778 0.004827 69 54 129
0.228185 0.105590 -0.209103 35 137 141
0.082059 -0.034771 -0.464440 68 3 87
0.581618 0.088099 0.361124 68 1 84
0.257037 0.602437 0.132905 68 1 84
0.431261 -0.504802 -0.195285 68 1 84
0.058742 0.377435 -0.243381 59 81 138
-0.373955 0.064845 -0.162079 68 1 84
0.382020 0.123196 -0.131061 51 97 141
0.609614 -0.066667 0.323304 46 107 142
0.554662 -0.002940 0.054170 35 135 141
0.216692 -0.281246 -0.163573 69 53 128
0.051545 -0.220719 -0.436974 68 1 84
0.475083 0.340404 0.171154 68 1 84
-0.229880 0.622204 -0.019264 68 1 84
-0.576456 -0.508282 0.236296 37 131 141
-0.568184 0.161828 0.416348 68 1 84
-0.301805 0.564865 0.044394 68 1 84
-0.456194 0.165587 -0.043033 68 1 84
-0.564873 0.155682 0.471006 68 1 84
-0.391343 0.280021 -0.068560 68 1 84
0.538920 -0.457816 -0.048874 41 120 142
-0.100961 0.440795 -0.213777 68 1 84
0.373966 0.257495 -0.068050 56 86 139
0.097891 -0.364246 -0.287083 68 1 84
-0.244513 0.394187 -0.147782 68 1 84
-0.472765 -0.063296 -0.094015 71 21 103
-0.243583 -0.052896 -0.208782 70 12 95
0.358711 0.517615 0.246282 68 1 84
-0.274189 -0.088412 -0.206086 68 2 85
0.661037 -0.180069 0.451641 41 175 127
0.555074 0.150909 0.241729 68 1 84
0.319411 0.554993 0.211764 68 1 84
-0.610730 -0.061424 0.327395 58 83 139
-0.626573 -0.091051 0.403761 56 87 140
-0.363087 0.111005 -0.158436 70 9 92
-0.474082 -0.528650 -0.126728 68 1 84
-0.578392 -0.298723 0.110551 50 99 141
0.197361 0.232022 -0.191979 47 106 141
0.521723 0.241265 0.169283 68 1 84
0.587331 0.022965 0.306055 70 49 126
0.314267 0.071907 -0.177135 42 117 142
-0.104122 -0.173014 -0.436499 68 1 84
0.280084 -0.364850 -0.160160 71 24 106
0.584967 0.105054 0.489664 68 1 84
0.076240 -0.498065 -0.287494 68 1 84
0.111039 0.436102 -0.201972 71 20 102
-0.074427 -0.421986 -0.269027 68 1 84
-0.096866 -0.122005 -0.492815 68 1 84
-0.187242 -0.107308 -0.220900 68 1 84
-0.206913 -0.305220 -0.165623 68 1 84
0.479055 0.108814 -0.042269 61 75 137
-0.552619 0.061217 0.097096 68 1 84
0.194493 -0.219966 -0.211238 68 2 85
0.302309 -0.199870 -0.166080 61 75 137
-0.584240 -0.353135 0.146994 42 118 142
-0.164241 -0.331691 -0.176693 68 1 84
0.281932 0.282953 -0.117658 58 83 139
0.534937 0.245214 0.458855 68 1 84
-0.302957 0.518644 -0.009181 68 1 84
-0.504270 0.175817 0.040457 68 1 84
0.631354 -0.180643 0.289504 32 164 133
-0.602678 0.037252 0.424375 71 42 121
0.655009 -0.279591 0.336358 50 181 122
-0.126216 0.012731 -0.312573 71 40 120
-0.474394 0.120284 -0.039347 68 1 84
0.115900 0.671228 -0.072694 68 1 84
0.529969 0.251209 0.277326 68 1 84
0.120787 -0.259953 -0.309941 68 1 84
-0.586282 -0.178149 0.118926 54 90 140
0.294107 0.575869 0.159382 68 1 84
-0.478505 0.376363 0.367783 68 1 84
-0.627190 -0.469185 0.466107 107 205 89
-0.223713 0.218748 -0.203497 63 71 136
-0.640484 -0.151688 0.513211 55 89 140
0.321014 0.540594 0.118239 68 1 84
-0.544535 0.191745 0.180111 68 1 84
0.124821 0.305985 -0.251134 36 134 141
-0.562114 0.146188 0.247046 68 1 84
0.628061 -0.021583 0.570458 72 35 116
-0.632143 -0.088104 0.505956 61 75 137
0.181175 0.635468 -0.056941 68 1 84
-0.033713 0.352469 -0.262388 54 90 140
-0.298522 0.423970 -0.083727 68 1 84
0.165747 -0.321965 -0.177337 68 1 84
0.658793 -0.534480 0.382142 69 191 111
0.556230 -0.002047 0.062201 42 117 142
-0.597406 -0.003819 0.309734 71 44 123
0.169155 0.282439 -0.227303 46 107 142
0.267729 0.517669 -0.031586 68 1 84
0.638284 -0.298122 0.254924 81 196 104
-0.100484 -0.439817 -0.232076 68 1 84
0.465259 0.385114 0.289935 68 1 84
0.179910 0.303545 -0.215971 60 78 138
0.410190 0.360561 0.058789 68 1 84
-0.075011 -0.543169 -0.291451 68 1 84
-0.223799 0.603733 -0.067083 68 1 84
0.108807 0.557903 -0.187059 68 1 84
0.134444 -0.313907 -0.239527 68 1 84
0.436359 -0.261820 -0.079013 42 117 142
-0.062333 0.190817 -0.307895 44 114 142
-0.567341 -0.402803 0.114890 34 138 141
0.175072 -0.548280 -0.280960 68 1 84
-0.383646 0.489663 0.116403 68 1 84
-0.223378 0.177538 -0.223992 58 82 139
0.643970 -0.072599 0.520592 52 95 141
0.088365 -0.119369 -0.500989 68 1 84
0.090818 -0.005466 -0.358208 64 67 135
-0.289185 -0.228582 -0.152452 68 1 84
-0.375982 0.283447 -0.084129 68 1 84
0.515077 -0.492147 -0.101459 64 68 135
-0.609445 -0.117515 0.294644 44 114 142
-0.546991 0.235724 0.326715 68 1 84
-0.627060 -0.565525 0.511247 91 200 98
0.588656 -0.333165 0.097760 31 163 134
0.163045 -0.448529 -0.203001 68 1 84
0.028521 0.201250 -0.307138 34 138 141
0.015346 0.629928 -0.176098 68 1 84
-0.056684 0.024732 -0.345405 72 25 107
-0.038055 -0.487652 -0.289966 68 1 84
-0.628919 -0.122724 0.387527 42 118 142
-0.549944 0.189564 0.217300 68 1 84
-0.388477 -0.369249 -0.125362 67 59 131
-0.456968 -0.483118 -0.158797 69 5 88
-0.279930 0.075303 -0.197684 70 9 92
0.653824 -0.196463 0.374772 38 172 129
0.547432 -0.456982 -0.029580 36 133 141
-0.534378 0.173857 0.114735 68 1 84
-0.638441 -0.305092 0.538119 31 149 139
0.121130 -0.174001 -0.392371 68 1 84
0.508422 -0.378655 -0.026956 37 130 142
0.461336 -0.441011 -0.162284 68 1 84
-0.588388 -0.130822 0.166042 63 69 135
0.185163 -0.374013 -0.153843 68 1 84
-0.550566 -0.550768 0.137650 35 136 141
-0.042252 0.329166 -0.272115 54 90 140
-0.195842 -0.162732 -0.222978 68 1 84
-0.124517 -0.291579 -0.266547 68 1 84
-0.288751 0.206882 -0.165821 72 32 113
-0.429728 0.451895 0.194481 68 1 84
0.156091 -0.170853 -0.284383 68 1 84
-0.638808 -0.441968 0.482209 77 194 107
-0.464700 -0.437232 -0.085099 68 1 84
-0.551749 -0.118329 0.015505 69 50 127
-0.576553 -0.003244 0.199866 72 34 115
-0.462655 -0.477204 -0.149394 68 1 84
-0.607058 0.010905 0.495801 63 69 135
-0.386728 -0.231875 -0.108509 71 39 119
0.171947 0.441043 -0.176664 68 1 84
0.472133 0.380021 0.340553 68 1 84
0.196633 0.641654 0.008731 68 1 84
0.103094 0.609718 -0.168494 68 1 84
0.088201 -0.264329 -0.361682 68 1 84
0.573212 0.133790 0.520680 68 1 84
0.381041 0.094380 -0.145578 44 113 142
0.249648 0.420989 -0.109698 68 1 84
0.316133 0.513674 0.066641 68 1 84
0.172098 0.407824 -0.187599 68 1 84
-0.001917 -0.397993 -0.318864 68 1 84
-0.606909 -0.475201 0.396939 47 179 123
-0.510383 0.326713 0.365010 68 1 84
0.000496 -0.018786 -0.497022 69 6 90
-0.391123 -0.472369 -0.170629 68 1 84
-0.630552 -0.145987 0.375904 41 120 142
0.518563 0.285232 0.304040 68 1 84
0.432655 -0.014434 -0.145644 38 128 142
0.087909 0.256253 -0.263295 39 124 142
-0.640845 -0.211201 0.488008 32 145 140
-0.248823 0.243599 -0.151601 68 1 84
0.264986 -0.297458 -0.152335 63 69 135
0.668169 -0.234991 0.467304 64 189 114
0.654725 -0.118152 0.525007 39 124 142
0.121433 -0.151820 -0.429692 68 1 84
0.519913 0.286609 0.385737 68 1 84
-0.019893 0.010572 -0.398281 72 34 115
-0.012047 0.660952 -0.153433 68 1 84
-0.357227 0.358188 -0.061860 68 1 84
0.524466 -0.102750 -0.047816 31 150 139
0.430084 -0.161262 -0.131822 30 151 138
-0.130758 -0.406596 -0.179324 68 1 84
0.543059 0.027792 0.030966 41 120 142
-0.613790 -0.020749 0.389381 70 49 126
-0.581690 -0.529181 0.274014 32 165 133
-0.574695 -0.356050 0.119265 49 102 141
-0.452337 -0.321803 -0.051848 71 24 106
0.469965 0.280064 0.073594 71 22 105
-0.527954 0.224567 0.140302 68 1 84
0.235259 -0.437177 -0.151858 69 8 91
0.105449 0.009598 -0.312026 60 78 138
-0.548593 0.200438 0.226539 68 1 84
-0.524023 -0.019293 -0.017832 71 20 102
0.489999 0.335272 0.240687 68 1 84
-0.544568 0.238303 0.400939 68 1 84
0.634785 -0.154363 0.326433 32 144 140
-0.327913 0.039941 -0.186964 68 1 84
0.635733 -0.519937 0.297487 85 198 102
0.195255 -0.055600 -0.277580 69 52 127
-0.472900 -0.352222 -0.018124 70 12 95
-0.154850 -0.245021 -0.246323 68 1 84
0.263190 -0.232262 -0.164758 70 47 124
-0.246816 0.379977 -0.150091 68 1 84
-0.557140 -0.484662 0.115860 35 137 141
-0.246576 -0.276927 -0.157468 68 1 84
-0.513445 -0.416694 -0.009635 71 22 105
0.366246 0.425701 0.065416 68 1 84
0.221708 0.463149 -0.126398 68 1 84
-0.553620 0.057024 0.098189 68 1 84
0.144589 -0.490115 -0.264557 68 1 84
-0.178080 -0.063443 -0.272815 72 26 108
-0.601097 -0.222946 0.193442 39 126 142
0.526848 -0.071443 -0.044739 36 170 130
-0.007234 0.691924 -0.101834 68 1 84
-0.603000 -0.557427 0.352741 77 194 107
-0.476378 0.182272 -0.002044 68 1 84
0.662423 -0.261783 0.388344 46 178 124
0.488731 -0.478105 -0.137329 68 1 84
-0.372747 -0.167648 -0.141767 69 5 88
-0.518966 0.308017 0.370310 68 1 84
0.637950 -0.052816 0.523124 57 85 139
-0.192642 0.501374 -0.156649 68 1 84
-0.047177 -0.209384 -0.460268 68 1 84
-0.206579 0.330734 -0.193187 71 15 98
-0.140259 0.249281 -0.235091 64 68 135
-0.141304 0.670783 -0.060290 68 1 84
0.541306 0.231986 0.381084 68 1 84
0.642507 -0.439746 0.334750 75 194 108
0.071387 0.159244 -0.304891 31 149 139
0.538672 0.198420 0.198655 68 1 84
-0.593810 0.042490 0.513407 71 40 120
-0.575781 -0.024559 0.167105 70 47 124
0.551426 -0.389821 0.021892 30 157 136
-0.588163 -0.061447 0.228880 65 66 134
0.508281 0.078567 -0.021330 46 107 142
0.441096 -0.322561 -0.102344 72 29 111
-0.561571 -0.341494 0.085386 45 111 142
-0.523801 0.297010 0.310284 68 1 84
-0.485182 -0.286301 -0.021421 69 50 127
-0.281893 0.149039 -0.188170 70 45 124
-0.459220 0.010508 -0.104716 68 1 84
-0.160343 -0.272123 -0.220002 68 1 84
0.133505 -0.346751 -0.210204 68 1 84
0.557783 0.048164 0.122019 47 106 141
0.120703 -0.196219 -0.357022 68 1 84
-0.085473 0.012287 -0.335301 71 40 120
-0.349733 0.449278 0.012363 68 1 84
-0.580721 0.058190 0.275151 68 1 84
-0.063631 -0.315271 -0.355195 68 1 84
0.638931 -0.195286 0.304832 33 166 133
-0.239193 0.507394 -0.115202 68 1 84
-0.173020 -0.062101 -0.311925 71 24 106
0.391058 -0.483918 -0.220972 68 1 84
-0.325745 0.269605 -0.125335 68 1 84
-0.431709 0.203334 -0.058904 68 1 84
-0.088441 0.212750 -0.291927 42 118 142
0.330519 0.026928 -0.188453 40 122 142
0.663368 -0.274308 0.393441 61 187 116
-0.414973 0.411511 0.076538 68 1 84
0.045396 -0.254435 -0.411064 68 1 84
0.262701 -0.459442 -0.205672 68 1 84
0.550188 0.154422 0.205194 69 5 88
-0.640827 -0.177032 0.475579 44 113 142
-0.525279 0.093151 0.035106 68 1 84
0.241063 0.450639 -0.107340 68 1 84
-0.132062 -0.295365 -0.248525 68 1 84
0.232820 0.425078 -0.127861 68 1 84
0.166154 0.560370 -0.147406 68 1 84
-0.046731 0.468167 -0.212641 68 1 84
0.390445 -0.356793 -0.143459 68 1 84
0.348799 0.320372 -0.054805 70 49 126
0.614135 -0.139086 0.267353 30 154 137
-0.546776 0.224194 0.433526 68 1 84
0.277863 0.358710 -0.105720 68 3 87
0.426248 0.424941 0.195576 68 1 84
0.691245 -0.419433 0.522355 215 226 25
0.295629 -0.438403 -0.144581 67 60 132
0.643561 -0.321784 0.280989 121 209 81
-0.201256 0.353544 -0.195405 70 9 92
-0.209876 0.203032 -0.224621 57 85 139
-0.144709 -0.136089 -0.303572 68 1 84
0.574214 0.122249 0.374169 68 1 84
0.526572 0.178256 0.114179 71 39 119
0.598448 0.051656 0.419937 71 43 122
-0.142652 0.557183 -0.177340 68 1 84
0.507734 -0.440448 -0.093411 62 72 136
0.005962 -0.236908 -0.442485 68 1 84
-0.515502 -0.399169 0.006240 71 42 121
0.030849 0.254055 -0.276131 40 122 142
0.588420 -0.247531 0.083248 30 154 137
0.647564 -0.147332 0.390369 31 161 135
-0.467824 0.399017 0.248786 68 1 84
0.287344 -0.337869 -0.163959 72 28 110
0.411376 0.362885 0.062954 68 1 84
0.251371 0.477008 -0.083708 68 1 84
0.181451 0.489874 -0.158673 68 1 84
0.444494 0.417285 0.297149 68 1 84
-0.244393 0.589020 -0.051106 68 1 84
0.168804 0.471268 -0.171609 68 1 84
-0.455419 0.420305 0.269022 68 1 84
0.664432 -0.203860 0.561129 37 130 142
-0.592343 -0.443638 0.253065 33 142 140
-0.529527 0.275416 0.265904 68 1 84
0.554459 -0.230644 0.017390 30 153 138
-0.144048 0.580231 -0.165495 68 1 84
0.306807 -0.305836 -0.152794 71 24 106
-0.532459 0.272557 0.292947 68 1 84
0.202858 -0.256201 -0.184527 71 37 117
0.068629 -0.011490 -0.374682 72 34 115
-0.276708 0.171470 -0.186917 70 49 126
0.146130 -0.215505 -0.284869 68 1 84
-0.303040 -0.485372 -0.169742 68 1 84
0.684652 -0.357307 0.508316 181 221 43
0.205154 0.158898 -0.221611 45 110 142
0.516207 0.294924 0.348420 68 1 84
-0.593767 -0.074297 0.251708 54 90 140
-0.072865 -0.062533 -0.507058 68 1 84
0.463493 0.290225 0.071249 69 5 88
0.582754 0.094798 0.387581 68 1 84
-0.639538 -0.153545 0.558595 48 104 141
-0.503925 -0.509389 -0.083676 68 57 130
-0.095617 -0.220272 -0.383812 68 1 84
0.230781 0.622232 0.071971 68 1 84
-0.263858 -0.028621 -0.206766 72 35 116
-0.393888 0.302627 -0.053082 68 1 84
0.662227 -0.521653 0.396457 124 210 79
-0.619052 -0.053883 0.379703 63 69 135
0.298320 0.435745 -0.036825 68 1 84
-0.041995 -0.159630 -0.508150 68 1 84
0.055924 -0.523174 -0.294486 68 1 84
0.575215 0.096733 0.321646 68 1 84
0.349263 -0.187647 -0.156110 49 100 141
-0.427865 0.429925 0.130926 68 1 84
0.632054 -0.187632 0.285907 68 190 112
0.141507 0.386314 -0.213355 72 28 110
-0.540762 -0.432548 0.044127 40 122 142
-0.576572 0.091878 0.521359 68 1 84
-0.518204 -0.476425 -0.044724 72 32 113
0.327397 0.326138 -0.072791 69 54 129
0.286183 -0.505874 -0.239468 69 6 90
0.479421 0.009886 -0.098909 44 114 142
0.635240 -0.045440 0.499412 61 74 137
0.598220 -0.443977 0.156336 71 192 110
-0.427855 0.457733 0.234483 68 1 84
-0.362817 0.505348 0.093501 68 1 84
0.262779 0.505218 -0.050388 68 1 84
-0.570837 -0.372986 0.114193 46 109 142
0.552121 0.199832 0.442405 68 1 84
0.541632 -0.012438 0.000713 36 133 141
-0.212544 -0.476089 -0.188302 68 1 84
0.571841 0.131047 0.374254 68 1 84
-0.021421 0.105074 -0.323754 44 113 142
0.521236 0.018582 -0.037330 44 113 142
0.553059 -0.003093 0.046898 38 129 142
0.115984 -0.318071 -0.282463 68 1 84
-0.312060 -0.482243 -0.160205 68 1 84
-0.590386 -0.291164 0.144388 49 101 141
-0.238205 0.381647 -0.157453 68 1 84
-0.575399 -0.459950 0.177239 32 143 140
-0.572545 0.027750 0.204353 70 11 94
-0.497198 0.203353 0.043945 68 1 84
-0.003002 0.585340 -0.197707 69 5 88
-0.571759 0.115835 0.278343 68 1 84
-0.255129 0.330476 -0.154416 68 1 84
0.386833 0.274932 -0.044437 55 88 140
0.375960 -0.369959 -0.146161 68 1 84
0.404091 -0.348993 -0.137680 68 1 84
0.531724 0.196483 0.151072 68 1 84
0.572735 0.109113 0.322322 68 2 85
0.016528 0.549991 -0.204125 68 1 84
0.517253 0.068224 -0.012301 48 104 141
0.378985 -0.086925 -0.179746 40 122 142
-0.498524 -0.407680 -0.018232 71 15 98
-0.210663 -0.470578 -0.179906 68 1 84
-0.191389 0.589261 -0.119256 68 1 84
-0.301670 0.344129 -0.117909 68 1 84
0.215695 -0.262141 -0.172567 68 55 129
-0.428692 -0.390896 -0.068608 68 1 84
-0.117900 -0.285906 -0.283239 68 1 84
-0.637601 -0.111290 0.493982 51 97 141
0.416502 -0.486044 -0.207797 68 1 84
-0.202166 0.440597 -0.167018 68 1 84
0.311170 0.427071 -0.021405 68 1 84
0.237645 0.305669 -0.161678 59 80 138
-0.545192 0.125590 0.117913 68 1 84
0.131149 -0.180933 -0.343718 68 1 84
-0.105106 0.141345 -0.298890 36 134 141
-0.478607 -0.270197 -0.032864 69 52 127
0.377117 0.178637 -0.105835 49 102 141
0.157719 -0.075954 -0.382667 70 12 95
-0.230943 -0.263600 -0.165726 68 1 84
0.657662 -0.477416 0.384409 51 182 121
-0.072848 -0.248054 -0.396266 68 1 84
0.132515 -0.044294 -0.429804 72 34 115
0.332330 0.155468 -0.142956 41 120 142
0.094451 -0.238086 -0.371056 68 1 84
0.648430 -0.397322 0.335581 119 208 82
-0.634159 -0.398616 0.481932 79 195 105
0.226037 -0.046427 -0.207061 53 92 140
0.137288 0.010268 -0.286405 47 106 141
0.603065 -0.262955 0.126108 30 152 138
-0.572519 0.108011 0.273113 68 1 84
-0.580644 -0.290215 0.114476 48 103 141
-0.536000 0.242292 0.214903 68 1 84
-0.177289 -0.053619 -0.241231 68 1 84
-0.185189 -0.411160 -0.145725 68 1 84
-0.622367 -0.252664 0.286890 32 144 140
0.422838 -0.270817 -0.089255 58 83 139
-0.327186 -0.154620 -0.166534 71 18 101
0.505827 0.316941 0.423278 68 1 84
0.553787 0.185292 0.322632 68 1 84
0.125816 0.390166 -0.218538 70 14 97
-0.206751 0.637690 -0.023575 68 1 84
0.552636 0.153558 0.224480 71 18 101
0.414976 0.169262 -0.074492 57 85 139
0.373875 0.365041 0.014990 68 1 84
0.000020 0.378162 -0.249279 64 67 135
0.636757 -0.121907 0.369673 33 142 140
0.555878 0.187240 0.500985 68 1 84
0.569727 -0.041484 0.092669 32 143 140
-0.230240 0.491438 -0.129290 68 1 84
0.144727 -0.233325 -0.279765 68 1 84
-0.014907 0.188529 -0.313571 31 146 140
0.579572 0.118949 0.468432 68 1 84
-0.420494 0.467550 0.204814 68 1 84
-0.320134 0.483016 -0.007856 68 1 84
0.321194 -0.201685 -0.158489 52 94 141
-0.277642 -0.506639 -0.220769 68 1 84
-0.164412 -0.011289 -0.260201 72 29 111
-0.437385 -0.203631 -0.092566 64 68 135
-0.490686 0.364022 0.294016 68 1 84
-0.020070 -0.292156 -0.395068 68 1 84
-0.573318 0.145240 0.347443 68 1 84
0.188341 0.233031 -0.200508 50 99 141
0.200954 -0.123741 -0.221437 57 85 139
-0.567676 -0.358293 0.100772 49 100 141
0.674464 -0.390375 0.445581 139 213 70
-0.349803 0.218066 -0.129604 68 1 84
0.093762 -0.451245 -0.273508 68 1 84
-0.119670 0.046056 -0.285928 66 62 133
0.118730 0.109991 -0.282035 54 90 140
-0.078974 0.185915 -0.304746 44 113 142
0.627263 -0.350664 0.223183 85 198 102
-0.607082 -0.373802 0.259783 37 171 129
0.575338 -0.460907 0.071431 30 153 138
-0.413744 0.460576 0.146993 68 1 84
0.356730 0.433681 0.057611 68 1 84
0.526391 -0.033221 -0.043095 31 146 140
0.309676 -0.101604 -0.203947 40 123 142
0.279524 0.505546 -0.018425 68 1 84
0.575538 0.128360 0.516774 68 1 84
-0.239967 0.307140 -0.163716 68 1 84
-0.316283 -0.358617 -0.158668 72 33 114
-0.145673 -0.170287 -0.285215 68 1 84
-0.189818 -0.288210 -0.175810 68 1 84
0.532202 -0.234301 -0.009338 31 149 139
0.169724 0.654397 -0.020797 68 1 84
0.611450 0.018754 0.576147 70 11 94
0.409338 0.439352 0.166130 68 1 84
0.361234 0.047326 -0.173965 40 123 142
0.456742 0.398089 0.288463 68 1 84
0.000022 -0.194867 -0.486722 68 1 84
-0.075001 -0.051449 -0.495597 68 1 84
0.434008 -0.016119 -0.145066 38 128 142
0.436903 -0.472644 -0.194182 68 1 84
-0.433657 -0.455380 -0.150692 68 1 84
-0.451031 0.384879 0.115333 68 1 84
0.189888 0.645153 0.009569 68 1 84
0.183069 0.647649 -0.016210 68 1 84
0.272688 0.135240 -0.177975 41 120 142
0.002362 0.698647 -0.075656 68 1 84
-0.158068 -0.145028 -0.263337 68 1 84
-0.642185 -0.409215 0.531851 89 199 100
0.047272 -0.003757 -0.382336 72 35 116
0.077247 -0.231806 -0.401692 68 1 84
0.418756 -0.062431 -0.160552 38 127 142
0.475457 -0.012453 -0.109795 36 132 141
-0.558153 0.103357 0.168385 68 1 84
0.566594 0.141863 0.336217 68 1 84
-0.304129 -0.526181 -0.228888 68 1 84
-0.436865 -0.423686 -0.083567 68 1 84
-0.132943 0.600627 -0.161367 68 1 84
-0.381317 0.180408 -0.122583 68 1 84
0.162418 -0.432916 -0.187040 68 1 84
-0.351508 -0.187036 -0.142657 68 1 84
-0.132594 -0.087504 -0.427007 68 1 84
0.120682 -0.069291 -0.461359 68 1 84
0.600297 -0.489767 0.190130 38 172 129
-0.545492 0.231190 0.276663 68 1 84
-0.132328 -0.306029 -0.236734 68 1 84
-0.580871 -0.271238 0.110808 59 81 138
0.651200 -0.514416 0.356779 53 183 120
-0.625445 -0.086936 0.398711 56 87 140
-0.610341 -0.042295 0.337860 59 81 138
-0.464842 0.148221 -0.038865 68 1 84
0.391736 0.274477 -0.039094 55 88 140
-0.542090 -0.300141 0.044165 49 102 141
0.166399 0.621653 -0.098437 68 1 84
-0.331677 -0.536905 -0.222038 68 1 84
0.462512 -0.465955 -0.170161 68 1 84
-0.116775 -0.265180 -0.300314 68 1 84
-0.600925 -0.540354 0.343378 75 194 108
