ply
format ascii 1.0
element vertex 1268
property float x
property float y
property float z
property uchar red
property uchar green
property uchar blue
end_header
0.249062 -0.114078 -0.211286 34 139 141
-0.536086 0.063276 0.073136 52 94 141
0.055455 -0.031779 -0.437811 68 1 84
-0.666959 -0.348631 0.492082 68 1 84
0.204502 0.069235 -0.205945 41 120 142
-0.589403 -0.167805 0.015504 68 1 84
-0.263959 -0.007851 -0.202033 65 65 134
0.487749 0.283677 0.110160 48 103 141
-0.412600 0.346480 0.043163 68 1 84
-0.587314 0.003093 0.510156 68 1 84
-0.103177 -0.228823 -0.319913 77 194 107
0.679029 -0.382549 0.447742 68 1 84
-0.486134 0.151647 0.020406 60 77 138
-0.327663 0.308478 -0.082713 62 72 136
0.038107 -0.184630 -0.365721 72 35 116
0.054369 -0.138034 -0.366582 70 11 94
0.512383 0.310529 0.379386 68 1 84
-0.321139 0.354045 -0.063897 68 1 84
0.269443 0.559639 0.026939 68 1 84
-0.118800 -0.120651 -0.329363 39 126 142
-0.502708 -0.099875 -0.100456 32 145 140
0.580655 -0.007776 0.177160 57 84 139
-0.375481 0.333970 -0.016525 53 92 140
-0.230645 0.514463 -0.056724 68 1 84
0.324942 -0.306467 -0.205511 49 102 141
0.085415 -0.383872 -0.336970 35 135 141
0.591168 0.069317 0.473294 68 1 84
0.128719 0.120319 -0.233103 68 1 84
0.079952 0.491943 -0.196516 68 1 84
-0.328590 0.320628 -0.074971 60 78 138
0.124723 -0.051160 -0.265009 65 65 134
0.550759 0.239291 0.266358 64 67 135
-0.521063 -0.287115 -0.065123 56 87 140
-0.104091 -0.211963 -0.329693 30 158 136
-0.328088 0.313018 -0.079730 67 58 131
-0.105354 -0.110683 -0.358830 37 130 142
0.339334 0.513748 0.202721 68 1 84
-0.020955 -0.415566 -0.417584 44 114 142
-0.072345 0.270397 -0.235487 68 1 84
-0.398795 0.428337 0.107382 68 1 84
-0.500150 -0.360576 -0.129865 51 97 141
0.318020 0.147253 -0.152554 38 127 142
-0.608144 -0.092399 0.155802 68 1 84
-0.630963 -0.209884 0.129359 69 8 91
0.352107 0.461650 0.038857 68 1 84
-0.464954 0.370579 0.197471 68 1 84
-0.287187 0.521817 0.043554 68 1 84
0.532575 -0.507482 -0.024170 71 17 99
0.581677 -0.131542 0.097638 71 44 123
-0.420110 0.167799 -0.056901 47 106 141
0.341611 -0.385203 -0.257969 51 97 141
0.635876 -0.417621 0.214022 68 1 84
0.551772 -0.574947 0.008186 38 127 142
0.211084 -0.284265 -0.225929 69 54 129
-0.026725 0.478179 -0.202234 68 1 84
-0.540414 -0.423717 -0.108609 52 94 141
0.512306 -0.363494 -0.052649 58 83 139
-0.343285 0.489668 0.241342 68 1 84
-0.099298 -0.431931 -0.414701 46 108 142
0.631052 -0.428523 0.198687 68 1 84
-0.442794 0.299246 0.050936 68 1 84
0.653279 -0.602822 0.280560 68 1 84
-0.225443 0.581816 0.081932 68 1 84
-0.109768 0.226641 -0.259955 68 1 84
-0.657525 -0.554890 0.305380 72 29 111
0.571970 -0.511605 0.061356 68 1 84
-0.647988 -0.154957 0.430716 68 1 84
0.495127 -0.228532 -0.089105 61 75 137
0.027970 0.060858 -0.437857 68 1 84
0.561493 -0.005042 0.135425 40 122 142
-0.460151 -0.361921 -0.169295 54 91 140
0.640938 -0.536666 0.254740 68 1 84
-0.089051 0.261780 -0.224622 68 1 84
-0.648886 -0.466745 0.242584 68 1 84
0.451524 -0.490770 -0.184444 68 1 84
0.594735 0.062993 0.256984 69 50 127
0.653709 -0.331745 0.266161 68 1 84
-0.297110 0.366849 -0.076741 68 1 84
-0.359265 -0.337428 -0.245116 33 141 140
0.538686 -0.441192 -0.012317 68 1 84
-0.258727 -0.403941 -0.308569 59 186 117
0.375961 0.005866 -0.143686 35 169 130
-0.433076 -0.384355 -0.217136 32 144 140
-0.613012 -0.356258 0.083945 68 1 84
-0.261392 0.556678 0.084985 68 1 84
-0.447658 -0.063782 -0.136021 51 97 141
-0.104528 -0.274251 -0.296853 151 216 62
0.291725 0.465362 -0.045130 68 1 84
0.344035 0.497774 0.078657 68 1 84
0.537697 -0.113197 -0.001431 50 99 141
-0.614268 -0.449686 0.095113 71 21 103
-0.122570 0.130433 -0.241903 68 1 84
-0.216902 0.138948 -0.192240 68 1 84
-0.450758 0.389147 0.263168 68 1 84
0.423002 -0.005077 -0.108359 31 148 139
-0.289132 0.529568 0.069640 68 1 84
0.010383 -0.106188 -0.432319 68 1 84
0.311099 -0.273572 -0.210044 44 114 142
-0.529481 -0.217617 -0.069508 35 135 141
-0.420438 0.394373 0.360327 68 1 84
-0.458677 0.177733 -0.005798 65 65 134
0.609033 -0.141729 0.164958 66 61 132
-0.665638 -0.290415 0.449879 68 1 84
0.651072 -0.452408 0.316949 68 1 84
-0.180338 0.555229 -0.110724 68 1 84
-0.590430 -0.277785 0.021208 68 55 129
0.577372 0.143858 0.476628 68 1 84
0.509434 -0.055628 -0.016712 31 161 135
0.313725 0.515313 0.042620 68 1 84
-0.562499 0.063118 0.171383 71 22 105
0.388529 -0.064947 -0.158474 31 146 140
-0.318679 -0.246564 -0.202779 31 148 139
-0.534744 0.036945 0.046115 57 84 139
-0.258219 -0.000158 -0.203067 69 52 127
0.295833 0.076218 -0.178522 35 135 141
-0.509232 0.071286 0.016604 43 115 142
0.273266 -0.334682 -0.245417 37 130 142
-0.488501 0.236846 0.079367 71 40 120
-0.258245 0.029855 -0.198938 68 55 129
-0.636651 -0.248584 0.131727 68 1 84
-0.598730 -0.390355 0.051029 70 11 94
0.565661 -0.193188 0.021325 68 1 84
-0.228299 0.569514 0.009775 68 1 84
0.609315 0.011523 0.276133 69 6 90
0.398231 0.052684 -0.110259 33 141 140
0.535826 0.079729 0.104191 39 126 142
0.660722 -0.271226 0.349468 68 1 84
0.363140 0.435853 0.032656 68 1 84
0.468712 -0.506265 -0.139005 34 137 141
0.593907 -0.539059 0.112665 68 1 84
-0.610640 -0.056060 0.494644 68 1 84
-0.239201 0.399609 -0.098862 68 1 84
0.493312 0.259442 0.100969 34 138 141
0.550924 -0.024923 0.104438 47 105 141
0.130253 -0.000767 -0.250087 71 37 117
-0.462145 0.374056 0.194613 68 1 84
0.320028 -0.402979 -0.284101 67 58 131
0.576221 0.170452 0.426479 68 1 84
0.437326 0.341242 0.070795 49 101 141
0.393326 0.059766 -0.112738 31 162 134
0.261667 0.467205 -0.079156 68 1 84
-0.261236 -0.005643 -0.202662 65 65 134
-0.521271 0.160849 0.107275 71 21 103
-0.605841 -0.326760 0.061708 68 1 84
-0.102069 0.151402 -0.260850 68 1 84
-0.090856 -0.102219 -0.393730 68 57 130
0.128254 0.021722 -0.287532 72 29 111
-0.595485 0.067934 0.362509 68 1 84
-0.598734 -0.535042 0.039342 33 166 133
0.170800 -0.479027 -0.403258 131 211 75
-0.642936 -0.216652 0.160088 68 1 84
0.607978 -0.106224 0.191673 71 18 101
-0.397262 -0.181789 -0.165652 31 163 134
-0.385374 -0.169783 -0.173078 30 158 136
-0.101804 0.304811 -0.235869 68 1 84
-0.616337 -0.167830 0.106031 72 26 108
0.383111 0.474556 0.205386 68 1 84
-0.444573 0.232190 0.008897 61 76 137
-0.532127 -0.461184 -0.134318 61 75 137
0.592011 0.071127 0.468243 68 1 84
-0.352762 0.489144 0.176718 68 1 84
0.438848 0.411452 0.259048 68 1 84
0.564699 0.140015 0.529530 68 1 84
0.097856 -0.034062 -0.340098 68 1 84
-0.510494 0.286707 0.374776 68 1 84
0.627254 -0.318507 0.149484 68 1 84
0.084862 0.311073 -0.254491 68 1 84
0.517782 0.307710 0.310303 72 29 111
0.648472 -0.292533 0.217608 68 1 84
0.529719 0.280721 0.244595 60 78 138
-0.568250 -0.029022 0.066574 44 113 142
0.370596 0.337258 -0.038130 50 99 141
-0.329840 -0.381238 -0.282514 39 173 128
-0.331161 -0.466359 -0.346273 32 164 133
0.121379 -0.437721 -0.404463 54 91 140
0.556879 0.225910 0.419443 68 1 84
-0.620357 -0.190406 0.107546 69 6 90
0.539848 -0.544587 -0.013834 50 99 141
0.064905 0.562432 -0.189737 68 1 84
-0.654754 -0.507068 0.295397 68 1 84
-0.324311 0.509516 0.186397 68 1 84
-0.255047 0.561459 0.085604 68 1 84
0.151711 -0.244045 -0.213960 33 142 140
-0.165732 0.060884 -0.216662 69 54 129
-0.239284 0.493276 -0.058304 68 1 84
0.539081 0.219785 0.180342 42 118 142
-0.192243 0.246356 -0.180465 68 1 84
0.603604 -0.032605 0.224836 71 40 120
0.505336 0.298524 0.173413 51 96 141
-0.147883 0.559246 -0.144531 68 1 84
0.327211 0.359405 -0.070404 71 20 102
0.563055 0.160979 0.519429 68 1 84
-0.273195 -0.371056 -0.276415 30 155 137
-0.627396 -0.122832 0.523435 68 1 84
-0.452888 0.287722 0.057844 72 30 112
-0.631172 -0.061686 0.402857 68 1 84
-0.016909 0.650296 -0.107991 68 1 84
0.418833 -0.000027 -0.110166 30 159 136
0.528850 0.170796 0.121327 38 127 142
0.258391 -0.057284 -0.208335 31 149 139
0.552126 0.188489 0.531058 68 1 84
-0.658716 -0.164041 0.318522 68 1 84
0.585066 0.044917 0.210339 66 61 132
0.398291 -0.410292 -0.236435 70 12 95
0.058963 0.454934 -0.197901 68 1 84
0.244382 0.469296 -0.095017 68 1 84
-0.162568 0.375141 -0.160163 68 1 84
0.657198 -0.344322 0.359065 68 1 84
0.552709 -0.451013 0.013650 68 1 84
0.108236 -0.182932 -0.258904 31 162 134
0.676542 -0.363683 0.445444 68 1 84
-0.667174 -0.226569 0.368785 68 1 84
0.019509 0.402163 -0.194526 68 1 84
0.546172 0.143124 0.150346 40 122 142
0.092012 0.252539 -0.228097 68 1 84
-0.196477 0.444467 -0.113937 68 1 84
-0.625415 -0.212824 0.112233 69 6 90
-0.622300 -0.026860 0.346397 68 1 84
-0.645648 -0.544600 0.238550 56 87 140
-0.639782 -0.144436 0.452693 68 1 84
0.601520 -0.175172 0.118440 68 1 84
0.539275 0.212415 0.174760 47 106 141
-0.552750 0.173244 0.440605 68 1 84
0.558928 0.230626 0.332156 72 25 107
-0.165355 0.619616 -0.033116 68 1 84
0.394761 0.462766 0.162750 68 1 84
-0.121793 -0.077538 -0.340925 30 155 137
-0.424092 0.295921 0.022605 70 45 124
-0.596474 -0.012221 0.495692 68 1 84
-0.376393 0.388768 0.027358 68 1 84
-0.303393 0.175954 -0.155018 72 26 108
-0.589503 0.047603 0.263950 68 1 84
0.520137 0.288907 0.211625 50 98 141
0.619133 -0.030158 0.510211 68 1 84
-0.672035 -0.254484 0.312445 68 1 84
0.646150 -0.531614 0.275034 68 1 84
0.638666 -0.376213 0.204766 68 1 84
-0.231406 0.309715 -0.127369 68 1 84
-0.269119 0.534022 0.028299 68 1 84
0.584778 0.053447 0.213323 65 66 134
0.222392 -0.471784 -0.382530 33 166 133
0.169442 0.044269 -0.216078 38 127 142
0.608150 -0.587083 0.149346 68 1 84
-0.584797 -0.345894 0.019237 72 29 111
0.320759 0.145479 -0.151227 32 143 140
0.179448 -0.261051 -0.218195 31 148 139
-0.303796 0.115323 -0.168246 70 48 125
0.650774 -0.230158 0.248658 68 1 84
0.263554 0.207278 -0.170707 72 25 107
-0.672457 -0.269395 0.299355 68 1 84
-0.531405 0.205695 0.180220 68 1 84
-0.371123 0.460925 0.279377 68 1 84
-0.657318 -0.389245 0.255799 68 1 84
0.543203 0.258665 0.395358 68 1 84
-0.197038 -0.107017 -0.232272 51 182 121
-0.009323 0.627168 -0.148606 68 1 84
-0.653547 -0.168598 0.237992 68 1 84
-0.536442 -0.406191 -0.109292 51 96 141
-0.634768 -0.142630 0.477755 68 1 84
-0.436494 0.405553 0.178235 68 1 84
0.667815 -0.592229 0.346381 68 1 84
-0.188322 -0.007570 -0.224799 60 77 138
0.352528 0.332668 -0.060629 50 99 141
-0.501876 0.310326 0.334549 68 1 84
-0.044599 0.145458 -0.290456 68 1 84
-0.584669 -0.008234 0.179790 72 25 107
-0.667097 -0.291438 0.473081 68 1 84
0.423607 -0.432185 -0.229177 71 39 119
-0.640480 -0.138148 0.217257 68 1 84
-0.165620 -0.056658 -0.255737 35 136 141
0.241711 -0.442816 -0.354631 48 104 141
0.658260 -0.233876 0.315118 68 1 84
0.628773 -0.340137 0.157704 68 1 84
-0.371148 -0.294322 -0.192641 30 151 138
0.671091 -0.303432 0.474095 68 1 84
-0.344696 0.494133 0.193041 68 1 84
0.479471 0.057480 -0.005912 46 178 124
-0.022102 0.654855 -0.093650 68 1 84
0.656209 -0.334738 0.331203 68 1 84
-0.530264 0.156685 0.134454 68 1 84
0.027392 0.343744 -0.240611 68 1 84
-0.474239 0.025523 -0.071949 38 128 142
-0.282114 -0.307833 -0.217070 91 200 98
-0.674629 -0.599151 0.431151 42 118 142
-0.205700 -0.309370 -0.207293 85 198 102
0.307523 0.522834 0.042679 68 1 84
0.080658 0.361082 -0.203496 68 1 84
0.480468 -0.063192 -0.074045 31 161 135
0.623380 -0.494379 0.189413 68 1 84
-0.632900 -0.114846 0.217713 71 15 98
-0.156295 0.040676 -0.307276 68 1 84
-0.245634 -0.138146 -0.203833 47 179 123
-0.053655 0.061173 -0.366704 68 1 84
-0.046316 -0.002866 -0.481728 68 1 84
-0.477917 -0.415150 -0.215083 53 93 140
0.309417 -0.151185 -0.199939 30 157 136
0.076846 0.390871 -0.190094 68 1 84
-0.369616 0.237820 -0.077665 40 123 142
-0.626226 -0.072131 0.259043 68 1 84
0.085278 0.286604 -0.247221 68 1 84
-0.144503 0.586557 -0.134158 68 1 84
-0.573624 -0.184630 -0.016466 69 52 127
0.254779 0.005173 -0.205530 47 105 141
0.122444 0.018140 -0.319510 68 1 84
-0.143544 0.507576 -0.156176 68 1 84
-0.672084 -0.278741 0.282967 68 1 84
-0.003144 0.001505 -0.484917 68 1 84
-0.280960 0.445732 -0.041101 68 1 84
0.150778 0.445050 -0.156811 68 1 84
-0.185582 -0.370136 -0.288050 119 208 82
0.630313 -0.051121 0.355159 68 1 84
-0.629041 -0.078633 0.263088 68 1 84
0.403604 0.340144 0.013009 50 98 141
0.480140 0.333062 0.149941 49 101 141
-0.581333 0.081873 0.448799 68 1 84
0.594049 -0.437071 0.102822 68 1 84
0.039121 0.343094 -0.240138 68 1 84
0.659506 -0.483330 0.352384 68 1 84
-0.036982 0.091031 -0.348221 68 1 84
-0.268003 -0.294863 -0.213151 136 213 71
-0.586067 0.005910 0.511234 68 1 84
0.230926 -0.277844 -0.226536 44 114 142
0.631479 -0.159312 0.219135 68 1 84
0.607648 0.000588 0.460352 68 1 84
-0.505070 0.310669 0.281696 68 1 84
-0.335656 0.502817 0.166287 68 1 84
-0.055296 0.071085 -0.397072 68 1 84
-0.584541 0.020103 0.211244 72 34 115
0.231363 0.234448 -0.161003 69 54 129
-0.058771 -0.059708 -0.450195 71 38 118
0.618032 -0.403454 0.148546 68 1 84
0.162066 -0.453817 -0.396838 32 164 133
0.012432 0.190498 -0.294093 68 1 84
0.541931 -0.470173 -0.007012 68 1 84
0.430852 -0.172409 -0.147329 40 122 142
0.457322 0.178701 -0.002276 32 165 133
0.169085 0.622555 -0.075121 68 1 84
-0.363282 0.210565 -0.097437 46 107 142
0.585064 0.123735 0.266499 72 26 108
0.339762 0.418526 -0.013062 68 1 84
-0.554539 0.189717 0.391088 68 1 84
-0.632764 -0.124894 0.462440 68 1 84
-0.646769 -0.182982 0.482591 68 1 84
0.202617 -0.177899 -0.214302 31 147 139
-0.174738 0.609773 -0.044984 68 1 84
0.326224 0.280774 -0.108088 47 105 141
0.393391 0.423513 0.071532 68 1 84
-0.059535 0.536309 -0.194960 68 1 84
-0.489975 0.079834 -0.016620 55 89 140
-0.532391 0.168136 0.516610 68 1 84
-0.377511 0.306228 -0.031392 59 80 138
-0.393784 0.050751 -0.129385 30 155 137
0.444260 0.389847 0.143448 71 22 105
0.260741 -0.098681 -0.208902 36 170 130
0.228408 -0.365795 -0.292037 54 90 140
0.340793 0.334543 -0.072276 60 78 138
-0.101189 -0.063449 -0.405497 68 1 84
0.232823 -0.236668 -0.214572 69 52 127
-0.622226 -0.052098 0.431715 68 1 84
-0.088893 0.461068 -0.184743 68 1 84
-0.315860 -0.224884 -0.195983 42 176 126
0.562487 -0.386210 0.031753 68 1 84
0.544448 0.251615 0.421242 68 1 84
-0.668522 -0.449179 0.460115 68 1 84
-0.067676 0.113747 -0.289330 68 1 84
-0.621805 -0.089184 0.209441 68 1 84
-0.537951 0.224630 0.238619 68 1 84
-0.149818 0.289748 -0.189864 68 1 84
0.130393 0.063820 -0.227934 68 1 84
-0.094700 0.311991 -0.240234 68 1 84
0.551615 -0.276843 -0.008209 70 47 124
-0.565538 0.157262 0.296892 68 1 84
-0.189769 0.483865 -0.113973 68 1 84
-0.392634 -0.182787 -0.167539 32 144 140
0.587996 0.128268 0.289958 72 28 110
0.564066 -0.478951 0.041179 68 1 84
-0.418156 0.371257 0.073037 68 1 84
0.042386 0.592883 -0.175717 68 1 84
0.575005 -0.278691 0.037980 69 8 91
0.647695 -0.386348 0.264779 68 1 84
0.668866 -0.332475 0.406434 68 1 84
0.441934 -0.270364 -0.121506 38 128 142
-0.571503 -0.048868 0.052636 63 69 135
0.240451 -0.347786 -0.267365 51 97 141
0.563150 -0.534149 0.039837 68 1 84
0.663771 -0.485359 0.369487 68 1 84
0.653450 -0.192126 0.374014 68 1 84
0.645305 -0.160895 0.282057 68 1 84
-0.593527 -0.000450 0.221777 68 1 84
0.573874 -0.489281 0.065676 68 1 84
0.196809 -0.287762 -0.224222 30 159 136
0.485481 0.234118 0.068313 35 168 131
0.658553 -0.296766 0.318599 68 1 84
0.297928 0.547286 0.087111 68 1 84
0.530211 0.006354 0.068269 38 129 142
-0.561138 0.023414 0.130342 69 50 127
0.047343 -0.371341 -0.357679 71 42 121
-0.081037 0.291228 -0.241866 68 1 84
0.266094 0.570414 0.058260 68 1 84
0.153479 0.481484 -0.155479 68 1 84
0.391462 0.467485 0.177581 68 1 84
-0.211768 0.438068 -0.103355 68 1 84
-0.190351 -0.350666 -0.247023 165 218 53
0.094412 -0.102026 -0.308503 53 92 140
0.230965 -0.363935 -0.291087 49 102 141
0.099917 -0.049808 -0.316778 68 1 84
0.344760 0.511517 0.184269 68 1 84
-0.185719 -0.076222 -0.240574 47 179 123
0.348886 -0.176735 -0.186130 50 99 141
0.389827 -0.512503 -0.276302 68 55 129
-0.420714 -0.106316 -0.159464 42 119 142
0.354363 0.070180 -0.143116 31 163 134
0.317147 -0.129859 -0.197451 35 168 131
-0.607263 -0.014568 0.452722 68 1 84
0.286757 0.333012 -0.110266 68 1 84
0.630887 -0.076925 0.381643 68 1 84
0.652254 -0.396678 0.338071 68 1 84
-0.649249 -0.132589 0.294329 68 1 84
0.494359 0.230951 0.083196 33 141 140
0.540166 -0.237147 -0.029859 72 25 107
0.501890 0.017486 0.018670 30 156 137
0.521336 0.082779 0.073937 35 136 141
-0.673032 -0.500817 0.460803 68 1 84
0.224562 -0.048863 -0.218358 35 137 141
-0.659451 -0.308046 0.203897 68 1 84
-0.532421 -0.070814 -0.051410 54 91 140
-0.261301 -0.398621 -0.296657 100 203 93
0.633419 -0.079338 0.370031 68 1 84
-0.182611 -0.369671 -0.291475 114 207 85
-0.511605 0.213142 0.525645 68 1 84
0.649705 -0.166369 0.401594 68 1 84
-0.199192 0.448779 -0.111206 68 1 84
-0.090798 0.398091 -0.181426 68 1 84
0.049959 -0.049192 -0.434512 68 1 84
-0.647142 -0.124884 0.296070 68 1 84
0.276183 -0.087463 -0.205245 51 182 121
-0.025206 0.633318 -0.141025 68 1 84
-0.658782 -0.320559 0.205899 71 18 101
0.465235 -0.542105 -0.147385 37 171 129
-0.262926 -0.310119 -0.218943 154 216 60
0.168567 -0.311642 -0.220582 35 168 131
-0.103274 -0.224311 -0.323454 42 176 126
-0.659769 -0.380855 0.263746 68 1 84
0.606914 0.009584 0.448545 68 1 84
0.327778 0.382906 -0.053258 68 1 84
0.278319 -0.373665 -0.291109 60 78 138
0.381844 0.115991 -0.112026 33 142 140
0.564460 -0.270581 0.015621 68 1 84
0.237599 -0.439590 -0.352815 44 112 142
0.448886 0.301964 0.053026 34 138 141
0.442955 0.327984 0.068174 36 132 141
-0.388426 -0.090127 -0.170706 49 100 141
-0.585280 0.066318 0.267761 68 1 84
-0.252851 -0.047848 -0.207421 40 122 142
0.335815 -0.419574 -0.293275 70 47 124
-0.024990 0.373508 -0.198036 68 1 84
-0.617492 -0.010091 0.388549 68 1 84
0.349579 0.377652 -0.034724 68 1 84
0.009047 -0.133641 -0.418988 68 2 85
-0.347577 0.001266 -0.171253 52 94 141
0.648084 -0.284410 0.215813 68 1 84
-0.433611 -0.268351 -0.131552 48 104 141
-0.422150 0.408435 0.302826 68 1 84
0.509742 0.257998 0.135992 46 108 142
0.370654 -0.463830 -0.295370 72 30 112
-0.383290 0.452989 0.257919 68 1 84
-0.057617 -0.363403 -0.386110 61 76 137
0.259510 0.125798 -0.184341 69 54 129
-0.492895 0.298881 0.416192 68 1 84
-0.070707 0.340121 -0.239537 68 1 84
-0.655662 -0.150921 0.320477 68 1 84
-0.667464 -0.262939 0.386087 68 1 84
0.081193 -0.114244 -0.329782 70 9 92
0.590408 0.123155 0.300901 71 17 99
-0.532970 -0.020150 -0.005519 55 89 140
0.446279 -0.472121 -0.202330 68 1 84
-0.605664 -0.190471 0.053556 68 1 84
-0.255401 -0.355811 -0.267621 30 157 136
0.114437 -0.426935 -0.398867 61 75 137
-0.581458 -0.516793 -0.007185 32 164 133
0.422178 0.240828 -0.020035 30 156 137
-0.659989 -0.300183 0.203718 68 1 84
0.171948 -0.092923 -0.234044 36 170 130
-0.619511 -0.487537 0.121214 67 59 131
-0.521475 0.257289 0.405869 68 1 84
0.341278 0.165131 -0.133583 40 122 142
-0.502766 -0.115759 -0.103183 38 128 142
-0.160800 0.002333 -0.248841 65 66 134
-0.460282 0.252690 0.043124 70 48 125
-0.534054 -0.388544 -0.100018 55 88 140
-0.154984 0.625822 -0.008973 68 1 84
0.266266 0.245642 -0.153578 52 95 141
-0.167264 0.124152 -0.214672 71 43 122
0.469593 -0.103427 -0.102901 30 158 136
-0.388682 -0.340521 -0.227353 35 135 141
-0.446790 0.226846 0.008323 57 84 139
0.288156 0.180562 -0.164119 72 25 107
0.465249 0.012229 -0.049484 31 147 139
-0.060174 -0.185495 -0.401303 51 97 141
0.248560 0.484973 -0.086630 68 1 84
-0.139781 0.351455 -0.183986 68 1 84
0.451722 -0.094177 -0.120000 45 110 142
-0.058716 0.622956 -0.150849 68 1 84
0.186996 0.059793 -0.209675 49 102 141
0.562574 -0.294112 0.013321 70 11 94
-0.639958 -0.458639 0.200657 68 1 84
-0.667678 -0.224461 0.267284 68 1 84
0.590410 -0.311205 0.069122 68 1 84
0.405137 -0.202578 -0.156272 39 126 142
-0.056596 0.003050 -0.478747 68 1 84
-0.059901 0.526011 -0.196890 68 1 84
0.115854 0.611299 -0.141225 68 1 84
-0.432287 0.401692 0.146402 68 1 84
-0.413495 -0.190977 -0.155657 31 163 134
-0.636048 -0.079058 0.325110 68 1 84
-0.383456 -0.316952 -0.195758 43 116 142
-0.483678 -0.472757 -0.226267 35 168 131
0.515761 0.075977 0.061408 31 148 139
-0.328813 0.325668 -0.071921 71 40 120
-0.146601 0.051867 -0.330852 68 1 84
-0.212053 0.175016 -0.193253 68 1 84
0.499421 0.334053 0.319464 72 26 108
0.063934 -0.070451 -0.394655 68 1 84
-0.270426 -0.060774 -0.202147 46 108 142
0.555794 -0.034441 0.109707 40 122 142
-0.421467 0.397945 0.337282 68 1 84
0.034862 0.497702 -0.202807 68 1 84
-0.195472 0.004853 -0.218392 72 26 108
-0.329782 0.263955 -0.103850 61 76 137
0.659722 -0.360509 0.376348 68 1 84
0.255770 0.278189 -0.134744 56 87 140
-0.545591 -0.235092 -0.048725 40 122 142
-0.636413 -0.508608 0.196131 61 75 137
0.647229 -0.430258 0.287475 68 1 84
-0.522203 -0.259926 -0.067218 42 119 142
-0.611740 -0.489038 0.092482 72 35 116
0.543493 0.192888 0.171726 43 115 142
0.656853 -0.464094 0.349781 68 1 84
0.075794 -0.405608 -0.391809 72 34 115
0.482318 0.234285 0.062977 33 140 141
0.253375 0.554642 -0.020539 68 1 84
0.095886 0.445763 -0.184848 68 1 84
-0.634686 -0.524435 0.190154 69 54 129
0.008451 -0.280464 -0.346986 47 105 141
-0.152938 -0.080990 -0.276215 48 104 141
0.179713 0.301121 -0.172000 68 1 84
0.473052 -0.283892 -0.098096 62 72 136
-0.381857 -0.218098 -0.167801 34 137 141
-0.404117 -0.443069 -0.291005 30 156 137
0.374176 0.222925 -0.082624 35 137 141
0.411453 -0.127554 -0.159832 38 128 142
0.034025 0.091098 -0.334056 68 1 84
-0.647182 -0.558714 0.244856 61 74 137
0.573558 -0.411315 0.056258 68 1 84
0.628852 -0.172150 0.197687 68 1 84
0.404373 -0.098096 -0.158228 41 121 142
0.048052 0.341420 -0.241080 68 1 84
-0.571855 0.143273 0.327962 68 1 84
-0.194723 0.347818 -0.146923 68 1 84
0.424592 0.431767 0.207158 71 38 118
0.121841 0.597435 -0.148978 68 1 84
0.646545 -0.396320 0.264209 68 1 84
0.449007 -0.467862 -0.197541 68 1 84
-0.514667 -0.365712 -0.113795 71 37 117
-0.167693 -0.406231 -0.385564 30 156 137
-0.596889 0.053350 0.311983 68 1 84
-0.666141 -0.295252 0.481761 68 1 84
-0.198581 0.598326 0.067217 68 1 84
-0.372643 -0.129720 -0.179375 30 153 138
0.530892 0.284204 0.274558 68 57 130
0.385670 0.050678 -0.122085 30 151 138
0.263773 0.564979 0.024714 68 1 84
-0.353641 0.482741 0.115481 68 1 84
0.655903 -0.487881 0.329937 68 1 84
-0.233121 -0.382454 -0.277076 124 210 79
-0.664476 -0.403089 0.410129 68 1 84
-0.646716 -0.272345 0.157497 68 1 84
0.191892 0.569329 -0.109453 68 1 84
0.180453 0.468080 -0.138536 68 1 84
0.602063 -0.442878 0.121345 68 1 84
-0.275019 0.497242 -0.011288 68 1 84
-0.528387 0.140583 0.112157 71 42 121
-0.038778 -0.104456 -0.437631 71 24 106
0.249201 -0.309951 -0.230681 41 121 142
0.021529 -0.247364 -0.345858 43 115 142
0.519426 0.197674 0.115271 42 118 142
-0.243457 0.569833 0.085578 68 1 84
-0.191924 0.534754 -0.102711 68 1 84
0.576440 -0.449789 0.068038 68 1 84
-0.515619 0.144555 0.078175 61 74 137
0.011011 -0.326564 -0.346422 58 83 139
-0.276214 0.275796 -0.136863 72 34 115
0.592754 -0.460274 0.104650 68 1 84
0.312773 -0.232788 -0.192113 43 116 142
-0.671761 -0.262567 0.338707 68 1 84
0.046082 0.092964 -0.319403 68 1 84
0.659962 -0.255149 0.337886 68 1 84
0.175918 -0.429147 -0.368636 38 127 142
0.492217 -0.371270 -0.079055 57 84 139
-0.461290 -0.157958 -0.135938 42 118 142
-0.096541 0.370935 -0.190581 68 1 84
-0.161807 0.502583 -0.139859 68 1 84
0.600643 0.084263 0.400966 68 1 84
-0.657845 -0.175942 0.396572 68 1 84
0.182561 0.566231 -0.121578 68 1 84
0.554028 -0.555416 0.016013 70 12 95
0.367755 0.314315 -0.052259 47 105 141
-0.522277 0.163188 0.112432 72 30 112
-0.598320 0.037280 0.293112 68 1 84
-0.369849 -0.297670 -0.194367 34 139 141
-0.302986 -0.166749 -0.193826 33 167 132
0.679214 -0.371927 0.432302 68 1 84
-0.665031 -0.410913 0.417698 68 1 84
-0.625240 -0.446755 0.137891 68 1 84
0.428903 0.425131 0.185278 70 9 92
0.266635 -0.390328 -0.299885 61 75 137
0.200094 0.488622 -0.126146 68 1 84
-0.542248 0.207072 0.233490 68 1 84
0.429930 0.420256 0.267579 68 1 84
-0.511168 -0.489794 -0.177946 33 142 140
0.394149 -0.342900 -0.156933 48 103 141
-0.515157 0.201181 0.122146 69 50 127
0.527679 -0.307564 -0.039017 67 59 131
0.067394 0.620370 -0.151534 68 1 84
0.047300 -0.190086 -0.349481 61 76 137
0.624739 -0.064150 0.276814 68 1 84
-0.175537 0.284075 -0.159554 68 1 84
0.382482 -0.461225 -0.284767 70 12 95
-0.611572 -0.215601 0.066699 68 1 84
0.558467 0.229838 0.303904 68 1 84
0.290720 0.270413 -0.135960 69 54 129
-0.161318 0.170612 -0.222262 68 1 84
0.621588 -0.007013 0.348290 68 1 84
-0.666717 -0.342207 0.487736 68 1 84
-0.233923 -0.313976 -0.215040 51 182 121
-0.429079 -0.230446 -0.138077 33 141 140
0.504989 0.308222 0.190711 51 97 141
0.593426 -0.236215 0.075460 68 1 84
-0.582211 0.076076 0.451896 68 1 84
0.334794 -0.504241 -0.325153 52 94 141
0.599406 0.094291 0.329800 68 1 84
0.061343 0.620947 -0.151238 68 1 84
-0.561690 -0.511904 -0.058591 32 165 133
-0.005681 0.265153 -0.244836 68 1 84
-0.589736 0.076140 0.305834 68 1 84
-0.154574 0.375384 -0.164679 68 1 84
0.039054 0.054496 -0.430787 68 1 84
-0.656953 -0.454632 0.294234 68 1 84
0.438516 -0.321562 -0.118268 33 142 140
-0.475161 0.008167 -0.081264 44 114 142
0.238924 0.585217 0.007778 68 1 84
-0.168634 0.618189 -0.002868 68 1 84
0.229738 -0.204477 -0.210594 35 137 141
0.573992 0.165751 0.464971 68 1 84
0.475965 0.235902 0.052815 31 146 140
0.616424 -0.244004 0.123798 68 1 84
0.396946 0.331001 -0.004785 47 105 141
-0.509820 0.301909 0.256924 68 1 84
0.015159 0.371364 -0.200679 68 1 84
-0.565689 0.081480 0.200974 68 1 84
0.639585 -0.421127 0.235031 68 1 84
-0.156381 -0.006450 -0.275429 72 35 116
0.603961 -0.539781 0.137069 68 1 84
-0.448587 0.345752 0.438562 68 1 84
-0.220647 0.373500 -0.122397 68 1 84
0.201582 -0.431904 -0.359434 61 74 137
-0.607620 -0.105437 0.137631 68 1 84
0.034056 0.191778 -0.295277 68 1 84
0.576877 0.164686 0.435833 68 1 84
-0.655802 -0.150713 0.337419 68 1 84
-0.609420 -0.030819 0.246488 68 1 84
0.287435 0.474441 -0.046160 68 1 84
0.624941 -0.430305 0.177709 68 1 84
-0.050825 0.205470 -0.296149 68 1 84
-0.671806 -0.487849 0.453584 68 1 84
-0.606294 -0.055889 0.536891 68 1 84
-0.672276 -0.260070 0.305980 68 1 84
-0.163708 0.110801 -0.216010 68 1 84
0.653742 -0.505632 0.311009 68 1 84
-0.315585 0.348364 -0.072126 68 1 84
0.084312 -0.385400 -0.342147 35 137 141
-0.358820 -0.107414 -0.181116 41 120 142
0.245640 0.236187 -0.160585 55 88 140
-0.600473 -0.183272 0.039932 70 9 92
-0.160563 0.025873 -0.268673 69 8 91
-0.067857 0.557380 -0.188047 68 1 84
-0.348584 0.229044 -0.101900 64 68 135
0.015456 -0.148605 -0.406342 51 97 141
-0.604864 0.008482 0.283202 68 1 84
0.163088 -0.374966 -0.276322 36 133 141
0.260653 0.418603 -0.091010 68 1 84
0.360877 0.305079 -0.063292 35 137 141
0.007081 0.245152 -0.270316 68 1 84
0.508315 -0.055177 -0.018799 42 176 126
-0.008745 0.390033 -0.194206 68 1 84
-0.544351 0.077548 0.118306 66 64 133
-0.636073 -0.407867 0.167934 68 1 84
0.470257 0.286763 0.078170 39 125 142
0.396830 -0.511566 -0.268061 69 53 128
0.161203 0.035327 -0.219710 70 45 124
-0.576136 0.122837 0.406053 68 1 84
-0.463615 0.371600 0.271636 68 1 84
0.480588 0.191784 0.040005 30 152 138
-0.174123 0.583623 -0.099461 68 1 84
-0.005523 -0.196430 -0.398440 47 106 141
0.255379 -0.213235 -0.207053 37 131 141
0.196598 0.107824 -0.201504 48 104 141
0.616939 0.016673 0.355267 68 1 84
-0.076009 0.097305 -0.290622 69 5 88
-0.402337 0.366733 0.045474 68 1 84
0.189246 0.619660 -0.019741 68 1 84
-0.592229 -0.083756 0.083578 69 50 127
-0.182235 0.200670 -0.206732 68 1 84
-0.225560 -0.110659 -0.216771 31 147 139
-0.416633 0.404333 0.108573 68 1 84
0.138566 0.203107 -0.232879 68 1 84
-0.385832 0.382246 0.035436 68 1 84
0.035535 0.296888 -0.255166 68 1 84
-0.334864 0.500952 0.194527 68 1 84
0.409297 0.445361 0.239544 68 1 84
-0.667566 -0.372790 0.466553 68 1 84
0.547601 0.010721 0.110751 39 125 142
0.373334 0.387745 0.005928 70 47 124
-0.167026 -0.401126 -0.380713 32 143 140
-0.556286 -0.008122 0.054895 51 97 141
0.589618 -0.243410 0.067049 68 1 84
-0.493767 0.270427 0.121176 68 1 84
-0.615921 -0.003509 0.378573 68 1 84
-0.010736 -0.170727 -0.410091 43 116 142
-0.672068 -0.301240 0.299885 68 1 84
0.082444 0.653583 -0.068025 68 1 84
-0.668176 -0.224065 0.351739 68 1 84
0.004348 0.435030 -0.198235 68 1 84
0.548465 -0.466694 0.005278 68 1 84
-0.195689 0.428175 -0.118223 68 1 84
-0.515429 -0.012811 -0.040566 30 160 135
-0.091774 -0.297119 -0.333697 66 190 113
-0.384503 0.458896 0.224418 68 1 84
-0.541464 -0.035578 -0.001160 51 96 141
-0.605774 -0.552756 0.054086 31 162 134
-0.354366 -0.400663 -0.277182 51 97 141
0.143090 -0.166358 -0.234896 53 93 140
0.626655 -0.450766 0.190295 68 1 84
0.341418 -0.210140 -0.181764 65 65 134
-0.521074 -0.048867 -0.056960 48 104 141
0.273243 -0.305695 -0.230916 49 101 141
0.134051 0.620851 -0.118390 68 1 84
-0.622249 -0.094988 0.513705 68 1 84
0.641808 -0.403550 0.237112 68 1 84
0.190811 0.449405 -0.133283 68 1 84
-0.521995 -0.471801 -0.156183 44 112 142
-0.020780 0.509791 -0.202175 68 1 84
0.627837 -0.577434 0.204855 68 1 84
0.255035 0.075735 -0.193907 37 131 141
0.349609 -0.483487 -0.313716 40 122 142
-0.163368 0.286842 -0.173644 68 1 84
-0.626691 -0.112918 0.196828 68 1 84
0.668969 -0.568892 0.362554 68 1 84
-0.121963 -0.107268 -0.326553 34 138 141
0.018756 0.059072 -0.451627 68 1 84
0.390763 0.334691 -0.011555 44 112 142
-0.396513 0.435714 0.293618 68 1 84
0.494079 0.341985 0.278395 68 1 84
0.623682 -0.538608 0.193302 68 1 84
0.478407 0.076438 0.000290 30 160 135
-0.653336 -0.254658 0.179013 68 1 84
-0.108669 0.009934 -0.423584 68 1 84
-0.623654 -0.102922 0.514776 68 1 84
0.528577 -0.064038 0.015652 34 139 141
0.648950 -0.091658 0.516656 68 1 84
-0.278857 -0.230286 -0.203141 38 172 129
0.321759 -0.279611 -0.204272 47 106 141
-0.450623 0.292726 0.058194 71 22 105
-0.068763 0.326974 -0.251227 68 1 84
0.525533 -0.423202 -0.032879 68 1 84
-0.223528 0.541719 -0.046631 68 1 84
0.155327 0.314821 -0.195204 68 1 84
0.051990 -0.220465 -0.311432 36 132 141
-0.664625 -0.270761 0.221007 68 1 84
0.384550 0.469191 0.244747 68 1 84
-0.590066 0.017054 0.483119 68 1 84
-0.651775 -0.468129 0.262245 68 1 84
-0.414052 0.404590 0.342678 68 1 84
-0.154511 0.370878 -0.166495 68 1 84
-0.522094 0.270266 0.359039 68 1 84
0.630499 -0.130144 0.240293 68 1 84
-0.486211 0.332292 0.331688 68 1 84
-0.466124 0.325043 0.439127 68 1 84
0.141866 -0.278815 -0.213157 30 159 136
0.534784 0.007677 0.079032 45 110 142
0.109108 -0.246325 -0.223524 49 101 141
0.642524 -0.119994 0.359226 68 1 84
-0.013894 0.105932 -0.349411 68 1 84
0.063149 -0.322563 -0.260516 36 132 141
-0.595802 0.066856 0.368389 68 1 84
-0.207517 0.585855 -0.010522 68 1 84
-0.464405 -0.445816 -0.245758 36 133 141
0.659065 -0.282345 0.318434 68 1 84
0.388538 -0.476253 -0.280964 68 55 129
-0.301808 0.410885 -0.042860 68 1 84
-0.361694 -0.344311 -0.250574 33 140 141
0.351002 0.507033 0.152920 68 1 84
-0.308493 0.299762 -0.106223 71 38 118
0.142727 0.293128 -0.209310 68 1 84
-0.120409 -0.410707 -0.405404 52 94 141
0.483722 0.064205 0.004908 33 167 132
0.619032 -0.421762 0.157041 68 1 84
-0.447300 0.190486 -0.012157 66 62 133
0.599566 0.093633 0.390008 68 1 84
0.517720 0.188604 0.106537 33 142 140
-0.016072 -0.196736 -0.401991 65 65 134
0.615897 0.012632 0.384656 68 1 84
-0.056727 -0.069296 -0.445794 72 34 115
0.523021 0.158374 0.103569 34 138 141
-0.146622 0.349598 -0.181229 68 1 84
-0.670599 -0.281043 0.360944 68 1 84
0.547379 -0.219414 -0.017585 68 1 84
0.611928 -0.310496 0.111899 68 1 84
-0.143774 -0.347859 -0.293471 87 198 101
-0.670359 -0.282325 0.363748 68 1 84
-0.657740 -0.414972 0.278834 68 1 84
-0.032130 0.369731 -0.199784 68 1 84
0.034998 0.285230 -0.251225 68 1 84
0.485565 0.075564 0.012232 34 167 132
-0.546187 0.075299 0.123929 71 39 119
0.566703 0.040837 0.161847 37 130 142
-0.519503 -0.343595 -0.085560 70 48 125
-0.109577 0.643267 -0.072804 68 1 84
-0.145323 -0.068670 -0.288220 51 97 141
0.659819 -0.220090 0.459717 68 1 84
0.077121 -0.380660 -0.339128 32 143 140
0.286339 0.465656 -0.051531 68 1 84
0.381383 -0.121414 -0.174943 53 93 140
-0.593609 -0.457171 0.035632 68 55 129
0.625862 -0.064446 0.282395 68 1 84
0.624920 -0.096490 0.247736 68 1 84
0.074198 0.620197 -0.149717 68 1 84
0.647660 -0.359549 0.240101 68 1 84
-0.294131 0.399427 -0.058188 68 1 84
0.282939 0.255815 -0.144820 72 34 115
-0.674926 -0.577775 0.406121 71 44 123
0.672042 -0.402414 0.395291 68 1 84
-0.317825 0.091165 -0.166620 72 33 114
0.381175 0.434374 0.060727 68 1 84
0.016592 0.371895 -0.200481 68 1 84
-0.171211 -0.401717 -0.379006 30 160 135
-0.675708 -0.544828 0.429415 64 68 135
-0.210122 -0.425599 -0.384286 31 150 139
0.080250 0.074084 -0.310444 68 1 84
0.461159 0.032323 -0.046934 56 185 118
-0.514776 0.257729 0.435020 68 1 84
0.320575 -0.345482 -0.252306 63 69 135
-0.647617 -0.168560 0.209311 71 17 99
-0.664351 -0.276401 0.502329 68 1 84
-0.570040 -0.332703 -0.007946 54 91 140
-0.451904 0.105465 -0.053323 43 115 142
-0.427934 -0.105246 -0.156078 49 102 141
0.609561 -0.378826 0.120969 68 1 84
0.611167 -0.359255 0.119526 68 1 84
-0.518844 -0.232554 -0.075846 30 153 138
0.524688 0.275876 0.453917 68 1 84
0.105130 -0.100107 -0.290168 55 88 140
0.274814 0.556664 0.034771 68 1 84
-0.591077 -0.510599 0.020603 56 87 140
-0.433514 -0.439049 -0.269589 36 134 141
-0.514994 -0.429903 -0.174031 57 84 139
0.655595 -0.201014 0.365000 68 1 84
0.311570 -0.283537 -0.212437 61 76 137
-0.629703 -0.088535 0.436627 68 1 84
0.537757 0.251341 0.217898 53 92 140
-0.443851 -0.254881 -0.124700 30 160 135
-0.270540 0.367456 -0.094855 68 1 84
0.630967 -0.343540 0.164732 68 1 84
0.631210 -0.029540 0.469739 68 1 84
0.542644 0.234094 0.211284 45 110 142
-0.558855 -0.050642 0.022097 56 86 139
-0.128052 0.318363 -0.213919 68 1 84
0.074058 0.118590 -0.269141 68 1 84
-0.289229 -0.039538 -0.195717 44 114 142
0.544335 0.243762 0.235807 59 81 138
0.605750 0.004798 0.255328 72 30 112
-0.173826 0.607697 -0.055106 68 1 84
0.397268 0.112242 -0.097359 44 114 142
0.351062 0.117306 -0.137979 31 163 134
-0.450043 0.100352 -0.058147 50 98 141
0.440022 -0.157126 -0.141942 34 138 141
-0.287912 0.438440 -0.039079 68 1 84
0.186971 -0.465681 -0.394121 157 217 58
0.582966 -0.485052 0.086356 68 1 84
0.576641 -0.489270 0.072185 68 1 84
0.286550 0.503527 -0.024610 68 1 84
0.068413 0.471644 -0.197886 68 1 84
0.142802 0.173389 -0.228309 68 1 84
-0.083421 0.343899 -0.226334 68 1 84
0.653794 -0.099348 0.472041 68 1 84
0.127336 0.589204 -0.151239 68 1 84
0.596941 0.044324 0.251468 69 50 127
0.092295 0.390585 -0.187180 68 1 84
0.289995 -0.204275 -0.199693 34 138 141
-0.632208 -0.087318 0.265110 68 1 84
0.042714 0.607213 -0.164938 68 1 84
-0.398365 0.130345 -0.098408 51 96 141
-0.594562 -0.533919 0.026186 30 157 136
0.066609 0.063582 -0.348285 68 1 84
0.206240 0.395557 -0.133634 68 1 84
0.655632 -0.438209 0.354011 68 1 84
-0.289839 0.313264 -0.113239 68 1 84
0.538028 -0.070981 0.029682 35 135 141
-0.665871 -0.293931 0.450700 68 1 84
-0.301541 0.178721 -0.155418 72 30 112
-0.415941 0.297830 0.013228 68 55 129
-0.464515 0.272195 0.064616 68 57 130
-0.460866 0.322687 0.465970 68 1 84
0.412488 -0.029269 -0.127552 30 160 135
0.120943 0.476442 -0.176201 68 1 84
0.030551 -0.309377 -0.310093 44 113 142
-0.448894 -0.141300 -0.145492 44 113 142
-0.495976 0.325450 0.288728 68 1 84
-0.400753 -0.377005 -0.233920 30 158 136
0.485882 0.112944 0.022562 32 164 133
-0.402410 0.431867 0.282105 68 1 84
0.616538 -0.608361 0.174436 65 66 134
0.477222 0.357452 0.347248 68 1 84
-0.414572 0.073994 -0.104674 43 116 142
0.652784 -0.221410 0.269871 68 1 84
0.103746 0.189381 -0.262371 68 1 84
-0.535527 0.172105 0.164632 68 1 84
0.296694 0.525132 0.021913 68 1 84
0.575938 0.136570 0.240548 63 71 136
0.100637 0.420445 -0.180695 68 1 84
0.524550 -0.170270 -0.046524 68 1 84
-0.096714 -0.371737 -0.382215 60 78 138
-0.368975 0.046645 -0.147222 33 142 140
0.207252 -0.452050 -0.379283 42 176 126
0.346889 0.305930 -0.077072 52 94 141
0.649833 -0.355387 0.251823 68 1 84
-0.236008 0.388079 -0.106533 68 1 84
-0.491914 0.162611 0.036756 61 76 137
-0.516749 0.067760 0.031824 42 117 142
0.337433 0.491269 0.050623 68 1 84
0.107479 0.233372 -0.238499 68 1 84
0.477572 0.263568 0.073463 30 155 137
-0.540370 0.056737 0.079639 53 92 140
0.062078 -0.377222 -0.351883 64 67 135
-0.374007 0.407168 0.041093 68 1 84
-0.516128 0.200608 0.124987 71 42 121
0.615614 0.022020 0.367579 68 1 84
0.141024 0.401151 -0.169164 68 1 84
0.197906 0.533498 -0.118923 68 1 84
0.589367 -0.573499 0.101592 68 1 84
0.580001 -0.057558 0.151703 64 68 135
-0.536357 -0.260347 -0.053866 49 101 141
0.385569 0.458413 0.105520 68 1 84
0.643754 -0.386736 0.236668 68 1 84
-0.378760 0.293221 -0.038097 55 89 140
-0.181391 -0.080833 -0.243654 43 177 125
0.348588 -0.296580 -0.181743 31 147 139
-0.538506 -0.051405 -0.025800 43 116 142
-0.403911 0.145703 -0.086164 60 77 138
-0.386952 -0.118123 -0.174017 30 154 137
-0.084385 0.230690 -0.269203 68 1 84
0.515622 0.311068 0.294526 71 20 102
-0.294790 0.531678 0.099445 68 1 84
0.208603 0.465111 -0.123062 68 1 84
-0.512580 -0.008847 -0.042136 31 147 139
-0.644478 -0.117595 0.291307 68 1 84
0.584565 0.054181 0.513728 68 1 84
0.569656 0.056602 0.175983 44 112 142
-0.335839 0.069098 -0.161154 39 125 142
-0.383709 0.299566 -0.028159 58 83 139
0.490122 0.301628 0.133550 54 90 140
-0.243334 -0.025176 -0.209860 50 98 141
-0.095586 -0.125738 -0.372512 67 58 131
0.564774 0.155575 0.517743 68 1 84
0.434168 0.126165 -0.050308 57 185 118
0.591581 0.082523 0.258078 68 55 129
-0.663648 -0.255614 0.432684 68 1 84
0.389999 -0.510009 -0.276350 63 71 136
-0.170669 0.217308 -0.215274 68 1 84
0.110745 0.545166 -0.181216 68 1 84
-0.540328 0.229184 0.268802 68 1 84
0.660645 -0.464573 0.364475 68 1 84
0.617228 -0.493278 0.169867 68 1 84
-0.200432 0.458503 -0.108038 68 1 84
0.494888 0.333857 0.374485 68 1 84
-0.628598 -0.118488 0.490442 68 1 84
-0.227672 -0.397372 -0.321205 46 178 124
-0.571471 0.042546 0.517666 68 1 84
-0.607420 0.005163 0.430419 68 1 84
0.174196 0.303354 -0.178152 68 1 84
-0.651829 -0.146908 0.400360 68 1 84
-0.315945 0.415091 -0.025468 68 1 84
0.636898 -0.038711 0.452350 68 1 84
0.598812 0.100023 0.376093 68 1 84
-0.503956 -0.474473 -0.191675 59 80 138
0.488374 -0.124993 -0.085135 40 122 142
-0.200413 0.418276 -0.118026 68 1 84
-0.655819 -0.157181 0.290709 68 1 84
-0.514325 0.251352 0.452298 68 1 84
0.070230 -0.254975 -0.256747 51 96 141
0.300449 0.491317 -0.013690 68 1 84
0.424998 0.426047 0.164461 68 1 84
0.515749 -0.083398 -0.027380 44 114 142
-0.531804 0.256568 0.308147 68 1 84
-0.147142 -0.270703 -0.231263 253 231 36
0.653592 -0.348700 0.286509 68 1 84
0.615393 -0.008954 0.411852 68 1 84
-0.100401 -0.057294 -0.412918 68 2 85
0.504894 -0.202638 -0.081161 67 58 131
-0.187056 -0.403543 -0.371382 43 115 142
0.550025 0.048064 0.126756 40 122 142
-0.626562 -0.395298 0.130971 68 1 84
0.062945 0.300254 -0.257773 68 1 84
-0.516074 0.181375 0.548237 68 1 84
0.339200 0.280568 -0.095461 41 120 142
-0.671992 -0.577026 0.377043 59 80 138
0.027778 -0.393951 -0.396444 66 61 132
0.450019 -0.183613 -0.133549 59 80 138
-0.640478 -0.197161 0.163600 68 1 84
0.489068 -0.269619 -0.087065 60 77 138
0.097444 0.341873 -0.222145 68 1 84
0.542799 -0.230797 -0.025694 68 1 84
0.587952 0.071390 0.485702 68 1 84
0.230845 0.361696 -0.128650 68 1 84
-0.359454 -0.467720 -0.330888 61 187 116
0.586746 -0.488259 0.094893 68 1 84
-0.161083 -0.197913 -0.240239 124 210 79
-0.566082 0.164932 0.351773 68 1 84
0.546487 -0.009307 0.100832 46 109 142
-0.516977 -0.074467 -0.074869 38 129 142
-0.048390 -0.059600 -0.454718 72 35 116
-0.566601 -0.002657 0.108249 59 81 138
0.506409 0.067860 0.042980 36 134 141
0.592911 0.125241 0.354030 68 1 84
-0.042964 -0.414602 -0.417317 50 99 141
-0.600211 -0.424584 0.053944 68 1 84
-0.656632 -0.341183 0.208742 68 1 84
-0.118259 -0.347423 -0.337318 56 185 118
0.640371 -0.579680 0.241279 68 1 84
-0.354896 -0.005902 -0.169481 49 102 141
0.223600 -0.308819 -0.230037 34 138 141
-0.118196 0.327183 -0.218644 68 1 84
0.388875 -0.101859 -0.167946 44 113 142
-0.628648 -0.359687 0.130002 68 1 84
-0.430130 0.361174 0.083295 68 1 84
0.634258 -0.443487 0.218465 68 1 84
0.421709 0.079042 -0.079835 31 148 139
-0.456058 -0.495746 -0.258329 30 160 135
0.563251 0.165523 0.514630 68 1 84
-0.430163 0.129627 -0.064456 59 81 138
-0.661552 -0.182820 0.365493 71 21 103
-0.627292 -0.531024 0.153630 68 55 129
0.616769 -0.063341 0.245291 68 1 84
0.047882 0.352170 -0.218864 68 1 84
0.585287 -0.398689 0.076934 68 1 84
-0.208008 -0.190838 -0.208595 139 213 70
0.020048 -0.261449 -0.339210 33 140 141
0.525992 0.201636 0.132618 38 129 142
0.655703 -0.128848 0.434347 68 1 84
-0.602929 0.000400 0.262329 68 1 84
0.483257 0.012797 -0.018451 50 181 122
-0.199214 -0.404585 -0.365514 31 147 139
-0.306152 0.279245 -0.118555 69 5 88
-0.627167 -0.042019 0.381269 68 1 84
-0.375627 0.462147 0.244446 68 1 84
-0.018390 0.628665 -0.146480 68 1 84
-0.007748 0.305836 -0.255164 68 1 84
0.253323 0.124969 -0.186424 62 73 137
-0.395179 -0.347645 -0.225572 31 147 139
-0.601692 0.020694 0.437203 68 1 84
-0.478800 0.220455 0.049548 67 59 131
-0.155093 0.012822 -0.310640 68 1 84
-0.581493 0.113765 0.353323 68 1 84
-0.630011 -0.060228 0.317186 68 1 84
0.478091 0.352409 0.375667 68 1 84
0.660149 -0.230911 0.427132 68 1 84
0.205427 0.548742 -0.105282 68 1 84
0.136200 0.233515 -0.221353 68 1 84
0.331392 0.493103 0.041908 68 1 84
0.007091 0.080750 -0.416945 68 1 84
0.320731 0.220319 -0.134480 49 100 141
-0.158718 -0.150047 -0.261401 35 169 130
0.558274 0.213813 0.466498 68 1 84
-0.648612 -0.121518 0.355573 68 1 84
-0.648199 -0.445680 0.231351 68 1 84
0.411630 -0.149523 -0.160548 54 91 140
0.145082 0.105383 -0.222277 68 1 84
-0.000153 -0.265285 -0.364187 60 77 138
-0.380703 0.451792 0.284188 68 1 84
0.667212 -0.577512 0.348710 68 1 84
-0.156917 0.509223 -0.144231 68 1 84
-0.279647 0.517049 0.018579 68 1 84
-0.194230 -0.162047 -0.223565 47 179 123
0.239984 -0.065073 -0.213644 32 143 140
0.430198 0.026705 -0.088510 34 138 141
0.617178 -0.427280 0.153677 68 1 84
0.468106 -0.488335 -0.144619 38 127 142
0.544269 -0.266141 -0.021434 72 34 115
-0.661810 -0.178137 0.321476 68 1 84
-0.672135 -0.304274 0.314555 68 1 84
-0.523050 0.034118 0.019996 49 100 141
-0.645308 -0.221060 0.164888 68 1 84
0.447377 -0.145174 -0.135676 41 121 142
-0.235219 -0.221532 -0.203239 68 190 112
-0.673529 -0.573092 0.386763 65 66 134
-0.495574 0.273744 0.129022 68 1 84
-0.081744 -0.068901 -0.427864 51 96 141
0.634135 -0.096396 0.380407 68 1 84
0.595983 0.110754 0.387282 68 1 84
0.513549 0.314116 0.318297 72 29 111
0.579912 0.098565 0.225401 58 82 139
-0.533494 -0.453564 -0.132521 72 30 112
0.013778 0.047468 -0.465062 68 1 84
-0.423232 0.318509 0.037092 68 1 84
-0.152746 -0.206317 -0.246526 103 204 92
0.684270 -0.406258 0.420165 68 1 84
0.615266 0.022265 0.373391 68 1 84
-0.601396 0.047336 0.353531 68 1 84
-0.499754 0.145936 0.042138 65 66 134
0.661656 -0.584993 0.318137 68 1 84
0.652410 -0.363291 0.289101 68 1 84
-0.592872 -0.345601 0.035493 70 45 124
0.441585 -0.087741 -0.127489 49 102 141
-0.137738 0.079222 -0.281986 72 32 113
0.600658 -0.483024 0.125516 68 1 84
0.531454 -0.047886 0.036492 37 131 141
0.675011 -0.425899 0.396987 68 1 84
-0.152239 0.603041 -0.110029 68 1 84
-0.078111 0.291161 -0.243026 68 1 84
0.183065 -0.197645 -0.213591 47 105 141
0.003501 0.351027 -0.225978 68 1 84
0.442406 0.405045 0.280608 68 1 84
0.520419 0.275884 0.189260 44 113 142
0.357219 0.241134 -0.092356 40 122 142
0.399541 -0.501678 -0.265975 66 61 132
-0.468865 0.364679 0.272657 68 1 84
0.413428 -0.242363 -0.142513 59 81 138
-0.623586 -0.205609 0.110522 68 1 84
0.460483 -0.422891 -0.158692 49 102 141
-0.569267 -0.009899 0.108356 65 66 134
0.657908 -0.201733 0.443837 68 1 84
-0.203396 0.518212 -0.092152 68 1 84
0.089643 0.071441 -0.328334 68 1 84
0.235530 0.579570 -0.016908 68 1 84
-0.280863 -0.348300 -0.267436 32 145 140
-0.041992 0.153266 -0.290241 68 1 84
-0.185515 -0.188369 -0.221273 131 211 75
0.642299 -0.155335 0.270638 68 1 84
-0.653639 -0.446313 0.265232 68 1 84
-0.146649 0.285469 -0.191426 68 1 84
-0.454124 0.034324 -0.089261 46 109 142
0.613478 -0.075908 0.226801 68 1 84
-0.645067 -0.336159 0.169031 68 1 84
-0.659017 -0.166218 0.354271 71 15 98
-0.369935 0.032833 -0.151218 50 98 141
0.554130 -0.073653 0.069089 53 93 140
-0.001665 -0.095743 -0.441952 68 1 84
-0.373783 -0.368865 -0.255032 30 159 136
-0.144057 0.631479 -0.043115 68 1 84
-0.393443 -0.170212 -0.169554 31 163 134
0.498656 -0.175254 -0.085835 62 72 136
0.273878 0.322697 -0.119115 68 3 87
-0.119910 0.123411 -0.242025 68 1 84
0.260082 0.549464 -0.015544 68 1 84
0.016119 0.072152 -0.410095 68 1 84
-0.333807 0.305872 -0.078060 71 40 120
-0.493008 -0.320037 -0.096717 58 82 139
-0.162147 0.588304 -0.113085 68 1 84
0.196570 -0.147973 -0.219182 37 130 142
0.118860 0.599814 -0.148952 68 1 84
-0.396591 0.311429 -0.003855 68 1 84
0.546753 -0.187994 -0.014187 68 1 84
0.178610 0.022369 -0.220115 59 80 138
0.547274 0.232169 0.228794 46 109 142
-0.614102 -0.069528 0.206405 68 1 84
-0.414229 0.172179 -0.061986 46 107 142
-0.542749 0.105313 0.134818 71 42 121
-0.592270 -0.298727 0.028040 71 38 118
0.432550 -0.071052 -0.128592 60 77 138
0.147025 0.465156 -0.159162 68 1 84
0.264342 0.572653 0.071670 68 1 84
0.039180 0.465867 -0.201427 68 1 84
0.005251 -0.072970 -0.451747 68 1 84
0.396387 0.179563 -0.077921 32 143 140
0.177215 0.131446 -0.207732 68 1 84
-0.560335 -0.338158 -0.022979 65 66 134
-0.451182 0.391371 0.214357 68 1 84
0.597561 0.056033 0.262748 68 57 130
0.458322 0.378667 0.337570 68 1 84
-0.529321 -0.426334 -0.141575 71 24 106
-0.185345 0.368475 -0.147968 68 1 84
-0.335339 0.502482 0.135440 68 1 84
0.529830 0.165609 0.121353 33 141 140
-0.663877 -0.350727 0.421367 68 1 84
0.213686 0.282499 -0.138553 55 89 140
0.619934 -0.066388 0.254269 68 1 84
0.154480 0.317662 -0.194852 68 1 84
0.612949 -0.070285 0.228979 71 22 105
0.143225 0.610832 -0.123157 68 1 84
-0.002536 0.079149 -0.440312 68 1 84
-0.596590 -0.501141 0.039896 49 100 141
0.536772 0.217772 0.171766 40 122 142
0.126123 -0.138553 -0.255560 40 123 142
0.431662 0.012674 -0.092553 35 169 130
0.023249 -0.178790 -0.386248 71 44 123
0.142960 -0.198543 -0.223236 53 93 140
0.121175 -0.416484 -0.381702 56 86 139
0.539183 0.038932 0.098848 45 111 142
-0.069194 -0.044393 -0.453213 71 21 103
-0.473693 -0.184346 -0.122263 49 101 141
0.658601 -0.145187 0.500241 68 1 84
-0.455174 0.138650 -0.031275 46 108 142
-0.488012 0.132423 0.012308 63 71 136
-0.568562 0.069867 0.499904 68 1 84
-0.560918 -0.325059 -0.021533 52 94 141
-0.080001 -0.262211 -0.355772 35 135 141
-0.509679 0.302335 0.266177 68 1 84
-0.120806 0.262947 -0.207179 68 1 84
0.363310 -0.294264 -0.169040 35 137 141
0.040365 -0.438668 -0.417049 43 116 142
0.377083 0.352998 -0.019408 68 55 129
0.422472 -0.329296 -0.130021 53 93 140
0.649641 -0.093108 0.505823 68 1 84
0.276951 0.272446 -0.138833 61 74 137
-0.079709 0.052214 -0.369091 68 1 84
-0.663848 -0.263968 0.217468 68 1 84
-0.217277 -0.362816 -0.256551 50 181 122
0.494386 0.151306 0.048197 30 154 137
0.651362 -0.059111 0.459385 68 1 84
-0.109422 -0.142282 -0.338861 67 60 132
-0.143136 0.437703 -0.153891 68 1 84
-0.011059 0.351588 -0.226582 68 1 84
-0.346739 -0.441191 -0.322132 31 148 139
-0.582295 -0.069994 0.060927 66 64 133
0.275757 0.027984 -0.194821 44 112 142
0.389223 0.279726 -0.042595 32 144 140
0.380248 0.362531 -0.006612 61 74 137
-0.305254 0.186779 -0.151195 72 32 113
-0.554431 0.005316 0.064033 53 93 140
0.027659 -0.293045 -0.312271 52 94 141
-0.268619 -0.160685 -0.196912 83 197 103
0.562699 -0.452731 0.036129 68 1 84
0.003704 0.101292 -0.357089 68 1 84
0.540619 -0.273684 -0.026700 72 33 114
0.464536 0.127809 -0.008358 51 182 121
-0.463694 -0.110192 -0.135894 49 101 141
0.177434 0.224108 -0.191126 68 1 84
-0.400588 0.309493 0.000188 72 28 110
-0.130151 0.088519 -0.236401 69 8 91
0.119187 0.056488 -0.247002 68 1 84
0.648504 -0.318129 0.221832 68 1 84
-0.382974 -0.381761 -0.252226 40 123 142
0.319350 -0.257012 -0.196977 49 102 141
-0.042668 0.557674 -0.191475 68 1 84
0.477536 0.341275 0.155858 72 32 113
-0.471332 -0.057056 -0.115705 61 74 137
-0.136147 0.618605 -0.108157 68 1 84
0.590090 0.048001 0.495841 68 1 84
0.314366 -0.317870 -0.217220 61 74 137
-0.522966 0.237305 0.180299 68 1 84
0.322825 -0.279777 -0.203468 44 114 142
0.579569 -0.308735 0.046631 68 1 84
0.347355 0.286916 -0.084701 39 126 142
0.589951 0.033522 0.219799 66 62 133
-0.472922 -0.351106 -0.144422 69 52 127
-0.376686 -0.278092 -0.187393 32 143 140
0.014440 0.052031 -0.461050 68 1 84
-0.432066 -0.465234 -0.278259 46 109 142
