ply
format ascii 1.0
element vertex 1289
property float x
property float y
property float z
property uchar red
property uchar green
property uchar blue
end_header
0.719383 -0.576503 0.375869 68 1 84
-0.573444 -0.521051 0.001493 44 113 142
-0.401552 0.409076 0.067416 68 1 84
-0.677517 -0.558562 0.318308 197 223 33
0.666564 -0.428143 0.205809 49 100 141
-0.217828 -0.244040 -0.169293 68 1 84
0.658478 -0.407521 0.180010 46 109 142
-0.627489 -0.420348 0.155580 33 142 140
-0.203947 0.218007 -0.204262 68 1 84
-0.332777 0.271101 -0.127977 68 1 84
-0.609041 -0.049197 0.246917 68 1 84
0.308687 0.101862 -0.204171 68 1 84
-0.620507 -0.388408 0.120646 48 103 141
0.455403 0.325034 0.081849 68 1 84
0.462575 0.320899 0.400968 68 1 84
0.066472 0.181995 -0.283613 68 1 84
0.606948 0.007114 0.253942 68 1 84
0.389345 -0.306154 -0.170241 68 1 84
0.040355 0.433547 -0.158752 68 1 84
0.554753 -0.314452 -0.032217 72 29 111
-0.502635 0.212817 0.443372 68 1 84
-0.098952 0.593613 -0.068392 68 1 84
0.596311 -0.052066 0.084855 68 1 84
0.592422 -0.021594 0.095774 68 1 84
0.533859 -0.234899 -0.030967 71 17 99
-0.633489 -0.152264 0.371631 68 1 84
0.090874 -0.197592 -0.247138 68 1 84
0.456714 -0.196330 -0.084207 71 15 98
0.615127 -0.059464 0.168527 68 1 84
0.370073 0.473322 0.217042 68 1 84
0.617869 -0.053837 0.423848 68 1 84
-0.217449 -0.274731 -0.165389 68 1 84
-0.571714 -0.026200 0.027740 68 1 84
-0.048230 0.584258 -0.099178 66 62 133
-0.124575 0.147649 -0.242177 68 1 84
-0.540562 0.132167 0.439874 68 1 84
0.099061 -0.044546 -0.334364 68 1 84
-0.307751 0.175080 -0.185256 68 1 84
-0.536745 0.144055 0.058329 68 1 84
0.418881 0.417470 0.227404 68 1 84
-0.505209 0.273861 0.223932 68 1 84
0.181246 -0.422887 -0.314740 68 1 84
-0.554283 -0.171903 -0.011394 70 47 124
-0.406263 -0.174593 -0.118344 69 8 91
-0.509619 0.266283 0.249222 68 1 84
-0.144209 0.187050 -0.240825 68 1 84
-0.512846 -0.336389 -0.057090 68 1 84
-0.586836 -0.006187 0.101510 68 1 84
-0.224818 -0.268253 -0.167267 68 1 84
0.353495 -0.365368 -0.245271 68 1 84
-0.081976 -0.255572 -0.281137 68 1 84
0.183010 -0.447797 -0.326493 68 1 84
0.460320 0.241573 -0.019034 68 1 84
0.519859 0.204106 0.102064 68 1 84
-0.272068 0.499756 0.021067 68 1 84
0.687863 -0.425441 0.289042 44 113 142
0.060049 0.598005 -0.078499 50 99 141
0.213054 -0.351380 -0.254450 68 1 84
0.511703 0.217096 0.087632 68 1 84
0.444327 -0.422285 -0.211048 68 1 84
-0.405123 -0.225418 -0.100745 72 32 113
0.356157 -0.009039 -0.185867 68 1 84
-0.504549 0.260169 0.139920 68 1 84
-0.174092 -0.388749 -0.256808 68 1 84
0.079675 -0.054005 -0.372976 68 1 84
0.297001 -0.197435 -0.166514 68 1 84
-0.553434 0.057200 0.027935 68 1 84
0.421904 0.135284 -0.132860 68 1 84
0.124951 -0.392760 -0.299298 68 1 84
-0.488775 -0.153403 -0.083304 59 81 138
-0.344696 0.498612 0.190924 68 1 84
-0.272625 -0.148466 -0.164841 68 1 84
0.527405 0.020600 -0.038938 68 1 84
-0.398741 -0.016120 -0.163494 68 1 84
-0.513476 0.254117 0.293305 68 1 84
0.578259 -0.029061 0.044919 68 1 84
-0.417268 0.199550 -0.110200 68 1 84
0.498642 -0.090396 -0.089809 70 14 97
0.576710 0.072315 0.413924 68 1 84
-0.089650 0.169198 -0.277269 68 1 84
0.719872 -0.499908 0.393717 70 47 124
0.538037 -0.139429 -0.041249 72 35 116
-0.546277 0.051471 0.005504 68 1 84
-0.603813 -0.138681 0.520475 68 1 84
-0.633087 -0.253047 0.427156 71 38 118
-0.376134 -0.456535 -0.250195 68 1 84
-0.700981 -0.589953 0.400724 253 231 36
0.386400 0.414192 0.065546 68 1 84
0.517526 -0.370307 -0.110902 68 1 84
0.154063 0.558308 -0.061154 61 74 137
-0.002115 -0.370998 -0.325214 68 1 84
-0.421349 0.405400 0.104446 68 1 84
0.538579 0.154679 0.104674 68 1 84
0.576201 0.106535 0.296505 68 1 84
0.094544 0.580922 -0.083802 31 147 139
0.592465 0.009929 0.448504 68 1 84
-0.087333 -0.128449 -0.332237 68 1 84
0.564395 -0.359121 -0.034824 69 53 128
0.007024 0.359893 -0.226960 68 1 84
0.355971 -0.310810 -0.211638 68 1 84
0.528358 0.146595 0.478876 68 1 84
-0.091322 -0.241368 -0.267277 68 1 84
0.533963 0.121159 0.497624 68 1 84
0.102833 0.525980 -0.120470 36 170 130
0.567668 0.128281 0.291761 68 1 84
-0.131479 -0.313767 -0.182381 68 1 84
-0.361398 0.362482 -0.044598 68 1 84
-0.581609 0.044630 0.393692 68 1 84
-0.543440 0.138902 0.080487 68 1 84
-0.321019 0.325859 -0.096632 68 1 84
0.101552 0.031873 -0.357419 68 1 84
0.082025 -0.009723 -0.406879 68 1 84
-0.638219 -0.313885 0.178647 68 55 129
0.319198 -0.416509 -0.276283 68 1 84
-0.136344 -0.332351 -0.198879 68 1 84
0.091366 -0.353384 -0.277803 68 1 84
-0.501815 0.279906 0.212656 68 1 84
-0.637679 -0.321381 0.437222 34 167 132
-0.485783 0.220058 0.000455 68 1 84
-0.202340 0.345960 -0.127157 72 26 108
-0.608631 -0.032625 0.372905 68 1 84
-0.171606 0.277433 -0.157317 68 1 84
0.617111 -0.035785 0.405969 68 1 84
-0.250837 0.551046 0.117215 68 1 84
-0.461210 0.178155 -0.072855 68 1 84
0.643000 -0.347198 0.121489 57 85 139
0.230205 0.183387 -0.202819 68 1 84
-0.615935 -0.144895 0.157433 71 24 106
-0.614299 -0.186182 0.125890 38 127 142
0.492823 0.290163 0.296082 68 1 84
0.700892 -0.421381 0.355258 66 61 132
0.644193 -0.438873 0.117630 66 64 133
0.489854 -0.207018 -0.063245 68 1 84
-0.424147 0.167425 -0.118840 68 1 84
0.517021 -0.377268 -0.114211 68 1 84
0.514920 0.247619 0.218540 68 1 84
-0.653910 -0.436093 0.303006 40 122 142
0.689806 -0.440410 0.288779 39 125 142
0.443884 -0.332287 -0.161193 68 1 84
-0.413822 0.419212 0.112809 68 1 84
-0.640778 -0.314286 0.196530 67 58 131
-0.226105 0.552547 0.050348 68 1 84
-0.547257 0.156524 0.163334 68 1 84
0.412480 0.418436 0.285284 68 1 84
-0.371905 -0.266886 -0.120257 68 1 84
-0.279881 -0.203825 -0.159370 68 1 84
-0.151660 0.003621 -0.230832 68 1 84
-0.468776 0.213063 -0.038697 68 1 84
-0.121458 -0.137001 -0.269993 68 1 84
-0.645577 -0.391831 0.240766 31 147 139
0.602199 0.003870 0.412131 68 1 84
-0.110188 -0.077703 -0.323461 68 1 84
0.097915 -0.248517 -0.198504 68 1 84
-0.138635 0.169151 -0.239643 68 1 84
-0.166341 0.116570 -0.218826 68 1 84
-0.181328 0.150648 -0.219373 68 1 84
-0.009087 0.211274 -0.302280 68 1 84
0.106799 -0.027481 -0.328326 68 1 84
-0.176555 -0.043216 -0.226276 68 1 84
-0.581672 0.050378 0.218095 68 1 84
0.395776 0.368943 0.015771 68 1 84
0.419950 0.401617 0.134519 68 1 84
0.608871 -0.001994 0.243509 68 1 84
-0.124368 0.388983 -0.156357 70 14 97
0.461484 0.307783 0.070942 68 1 84
-0.644576 -0.385565 0.221367 35 135 141
0.566289 -0.043297 0.006847 68 1 84
-0.044512 0.360271 -0.221596 71 18 101
0.652749 -0.325806 0.175069 51 96 141
-0.261944 -0.292010 -0.160832 68 1 84
0.183251 -0.415417 -0.306888 68 1 84
-0.361678 0.348340 -0.057423 68 1 84
-0.444657 0.385921 0.198438 68 1 84
-0.609297 -0.375407 0.085182 53 92 140
-0.133656 -0.226066 -0.186997 68 1 84
0.571613 -0.022987 0.029343 68 1 84
0.681654 -0.297218 0.390178 68 1 84
0.695133 -0.435374 0.314363 46 108 142
0.710425 -0.472269 0.356653 64 68 135
-0.208860 0.080717 -0.212291 68 1 84
-0.089743 0.492688 -0.135415 68 2 85
-0.528914 -0.496831 -0.095667 69 50 127
-0.067508 -0.385078 -0.316110 68 1 84
-0.126819 -0.041935 -0.312123 68 1 84
-0.168415 -0.180623 -0.192006 68 1 84
0.498094 0.251711 0.094810 68 1 84
0.180593 0.383767 -0.123451 68 1 84
-0.224330 0.424415 -0.076782 68 1 84
-0.646535 -0.228896 0.301118 68 1 84
0.556125 0.072998 0.489092 68 1 84
-0.591701 -0.344694 0.047266 71 40 120
-0.629693 -0.299040 0.486846 54 90 140
0.646569 -0.231071 0.449762 69 6 90
0.308429 0.498556 0.084920 68 1 84
-0.643459 -0.309960 0.361525 38 128 142
-0.557337 -0.189169 -0.002937 62 72 136
0.262027 -0.054733 -0.203567 68 1 84
-0.215714 -0.406484 -0.260975 68 1 84
0.195345 -0.384923 -0.267489 68 1 84
-0.431990 0.055906 -0.140727 68 1 84
0.229803 -0.283622 -0.178775 68 1 84
-0.534441 0.122567 0.471425 68 1 84
0.505086 0.097928 -0.046668 68 1 84
0.192806 -0.132639 -0.196748 68 1 84
-0.106922 -0.079405 -0.330022 68 1 84
0.526966 0.211293 0.178944 68 1 84
0.177322 -0.411706 -0.305294 68 1 84
0.184053 0.435353 -0.098422 68 1 84
-0.577813 -0.294123 0.031624 33 140 141
-0.645910 -0.324298 0.295064 47 105 141
-0.579016 -0.017563 0.499584 68 1 84
0.537258 -0.446997 -0.094408 72 29 111
0.129912 0.521154 -0.106410 35 136 141
0.064229 0.158231 -0.277557 68 1 84
-0.313250 0.165201 -0.185997 68 1 84
-0.033126 -0.125894 -0.372396 68 1 84
-0.207968 0.028762 -0.217463 68 1 84
-0.629330 -0.428005 0.164778 30 154 137
0.271369 0.526523 0.090000 68 1 84
-0.524257 0.160926 0.453502 68 1 84
0.631241 -0.149729 0.470336 68 1 84
0.016429 0.564322 -0.119823 33 166 133
0.641551 -0.197812 0.489856 68 1 84
0.606302 -0.164227 0.072457 70 9 92
-0.005850 0.573599 -0.113956 42 118 142
0.151385 0.099105 -0.215074 68 1 84
0.263140 0.518663 0.055040 68 1 84
-0.544857 0.174605 0.202349 68 1 84
0.302759 -0.443083 -0.293108 68 1 84
0.193098 0.427801 -0.095980 68 1 84
-0.493924 -0.502506 -0.147420 71 43 122
-0.699465 -0.485265 0.381933 38 127 142
-0.557311 -0.069560 -0.015761 62 73 137
0.219713 -0.167898 -0.179615 68 1 84
-0.488493 0.291594 0.122882 68 1 84
0.115103 -0.114249 -0.252792 68 1 84
0.198870 -0.319989 -0.214924 68 1 84
-0.309975 0.481667 0.040656 68 1 84
-0.431141 0.038154 -0.142742 68 1 84
-0.505334 -0.315052 -0.046879 68 1 84
-0.379439 -0.106917 -0.152543 68 1 84
-0.444088 0.046352 -0.132043 68 1 84
0.122209 0.272100 -0.192243 68 1 84
0.675582 -0.301653 0.341983 68 1 84
0.353226 0.089775 -0.188002 68 1 84
0.003160 0.124956 -0.299347 68 1 84
-0.043233 0.504150 -0.149050 57 85 139
0.546376 -0.440739 -0.079414 71 43 122
-0.644599 -0.335624 0.232083 54 91 140
-0.470876 -0.387483 -0.156779 68 1 84
-0.550269 -0.483130 -0.050143 67 60 132
0.612015 -0.021899 0.218080 68 1 84
0.102344 -0.054333 -0.288127 68 1 84
-0.319681 0.515695 0.174291 68 1 84
-0.354442 0.058786 -0.187369 68 1 84
-0.506320 -0.464298 -0.132295 68 1 84
-0.300656 0.195149 -0.181169 68 1 84
-0.108165 -0.162914 -0.280213 68 1 84
0.660142 -0.243243 0.258587 68 1 84
-0.454891 0.245776 -0.033601 68 1 84
0.627236 -0.493315 0.058599 59 80 138
-0.417192 -0.252298 -0.087785 64 68 135
-0.645997 -0.388035 0.250298 37 130 142
-0.551152 -0.169572 -0.016312 70 45 124
0.010998 -0.211589 -0.327872 68 1 84
0.298531 0.160047 -0.195187 68 1 84
-0.526820 0.202424 0.376365 68 1 84
0.688722 -0.404662 0.306436 58 82 139
0.418654 0.168858 -0.122367 68 1 84
0.582378 -0.368433 -0.009418 69 53 128
0.607318 -0.056445 0.120246 68 1 84
0.316300 0.350073 -0.084725 68 1 84
-0.581968 -0.469930 0.023974 46 109 142
0.061790 -0.195316 -0.292218 68 1 84
0.110224 0.440932 -0.137857 41 121 142
0.131572 0.363380 -0.171191 68 1 84
0.205127 0.283384 -0.139874 68 1 84
0.568917 -0.141622 0.000451 71 39 119
-0.488319 -0.164460 -0.079253 60 77 138
0.253440 0.022854 -0.218275 68 1 84
0.673552 -0.279524 0.388595 68 1 84
0.298173 0.228780 -0.167132 68 1 84
0.161315 0.541453 -0.069386 57 84 139
0.259768 0.538245 0.103535 68 1 84
0.712620 -0.541019 0.330989 35 136 141
-0.075624 -0.366778 -0.305774 68 1 84
0.648968 -0.243422 0.446137 71 21 103
-0.167391 0.131275 -0.220706 68 1 84
0.415044 0.409225 0.309377 68 1 84
0.329850 -0.400316 -0.267123 68 1 84
0.529813 0.140455 0.042135 68 1 84
-0.555858 0.154096 0.311477 68 1 84
-0.133436 0.237237 -0.243801 68 1 84
0.322361 0.208736 -0.168503 68 1 84
0.352017 0.093229 -0.188128 68 1 84
0.359187 -0.214926 -0.134435 68 1 84
0.181601 0.577383 0.075619 68 1 84
-0.385844 -0.096304 -0.153670 68 1 84
0.025167 0.017319 -0.453480 68 1 84
0.092636 -0.243699 -0.207827 68 1 84
-0.146777 -0.368341 -0.249041 68 1 84
0.490371 0.212722 0.012213 68 1 84
0.521380 -0.365002 -0.103071 68 1 84
-0.429380 -0.123340 -0.127528 68 1 84
0.552007 0.094637 0.069302 68 1 84
0.693881 -0.445552 0.302414 36 132 141
0.079683 -0.094275 -0.328173 68 1 84
-0.380133 0.269197 -0.099819 68 1 84
0.478163 0.267711 0.054033 68 1 84
0.292048 0.059846 -0.211612 68 1 84
0.632040 -0.259645 0.107351 66 61 132
0.476561 -0.056764 -0.112600 70 11 94
-0.150081 0.327964 -0.183466 68 1 84
0.522472 -0.295244 -0.054411 68 1 84
-0.442806 -0.073097 -0.133212 68 1 84
-0.509817 0.056162 -0.059492 68 2 85
-0.172840 -0.360050 -0.221277 68 1 84
0.686502 -0.344312 0.367212 72 30 112
-0.432851 0.050535 -0.140609 68 1 84
-0.406448 0.367698 0.019712 68 1 84
0.168921 0.550917 -0.052583 66 62 133
-0.349136 -0.277999 -0.130884 68 1 84
-0.561529 0.055269 0.052785 68 1 84
0.349972 -0.245622 -0.138678 68 1 84
-0.137245 0.302823 -0.195126 68 1 84
0.033174 0.061774 -0.404076 68 1 84
-0.207928 0.390731 -0.103184 68 1 84
-0.603719 -0.134584 0.497683 68 1 84
0.046925 -0.362039 -0.309286 68 1 84
-0.473957 0.224001 -0.019388 68 1 84
0.461820 -0.446133 -0.194783 68 1 84
-0.281274 -0.327690 -0.168609 68 1 84
-0.551101 0.100479 0.059524 68 1 84
0.269333 0.346328 -0.103378 68 1 84
0.033212 -0.065774 -0.403892 68 1 84
0.011635 0.303277 -0.243107 72 35 116
0.551865 -0.007712 -0.008460 68 1 84
0.534328 -0.123738 -0.048081 68 1 84
0.398575 0.369191 0.020849 68 1 84
0.093463 -0.123443 -0.278163 68 1 84
0.393299 0.429569 0.114944 68 1 84
-0.455190 -0.063615 -0.126668 68 1 84
-0.146250 0.044590 -0.278034 68 1 84
-0.256747 -0.031933 -0.211585 68 1 84
0.533612 0.198941 0.196982 68 1 84
-0.523853 0.214214 0.366740 68 1 84
-0.481868 0.297065 0.345803 68 1 84
0.657268 -0.266802 0.220689 69 50 127
0.065261 0.305811 -0.239781 68 1 84
-0.558851 0.084454 0.073055 68 1 84
0.658159 -0.264322 0.227711 69 50 127
-0.444119 0.384676 0.226550 68 1 84
-0.429056 0.394256 0.287687 68 1 84
0.198861 -0.206986 -0.181874 68 1 84
0.125076 -0.404700 -0.310145 68 1 84
-0.397034 0.443677 0.245573 68 1 84
-0.537631 -0.185101 -0.028211 70 48 125
0.641550 -0.171212 0.429688 68 1 84
-0.385433 0.368781 -0.011320 68 1 84
-0.379057 -0.428050 -0.239134 68 1 84
-0.680053 -0.372927 0.369006 72 34 115
-0.582632 0.038838 0.185558 68 1 84
0.294677 -0.242432 -0.170197 68 1 84
0.694455 -0.496834 0.278788 54 91 140
-0.637627 -0.410681 0.192785 66 190 113
0.169411 -0.160325 -0.195188 68 1 84
-0.630553 -0.330730 0.143996 72 28 110
-0.558381 0.077881 0.449096 68 1 84
0.676548 -0.545850 0.213738 67 60 132
-0.066094 -0.230824 -0.310236 68 1 84
0.623632 -0.033112 0.355442 68 1 84
-0.364956 0.289854 -0.098129 68 1 84
0.444869 -0.290118 -0.101996 68 1 84
-0.170325 -0.011342 -0.222956 68 1 84
-0.679836 -0.557644 0.324131 194 223 34
0.377496 0.328569 -0.053639 68 1 84
-0.406330 0.378821 0.033870 68 1 84
-0.065443 0.436523 -0.150622 36 133 141
-0.623808 -0.129756 0.414317 68 1 84
-0.059328 -0.036834 -0.430322 68 1 84
-0.450558 0.362830 0.287406 68 1 84
0.120883 0.575619 -0.071585 37 131 141
-0.590387 -0.334649 0.045892 58 83 139
0.501342 -0.228977 -0.052410 68 1 84
-0.606933 -0.128235 0.479198 68 1 84
-0.586061 -0.002387 0.101917 68 1 84
0.113265 0.604932 -0.011778 68 1 84
0.513838 -0.193507 -0.051549 70 12 95
-0.243443 0.256077 -0.163055 68 1 84
0.109571 0.521693 -0.118453 35 168 131
-0.051977 0.070068 -0.304250 68 1 84
0.679355 -0.323608 0.337130 72 30 112
-0.069250 0.227202 -0.281539 68 1 84
0.322489 0.318061 -0.104118 68 1 84
0.436305 0.389334 0.181832 68 1 84
-0.278900 -0.482384 -0.293200 68 1 84
-0.517350 0.248008 0.281047 68 1 84
0.166504 0.174951 -0.217432 68 1 84
0.088792 0.066444 -0.297441 68 1 84
-0.263873 -0.040886 -0.208272 68 1 84
-0.588856 -0.084435 0.057540 63 71 136
0.513326 0.253691 0.248233 68 1 84
-0.168932 -0.205656 -0.176179 68 1 84
-0.593436 -0.531242 0.061477 40 123 142
-0.414968 0.124617 -0.141030 68 1 84
-0.292780 0.186279 -0.187358 68 1 84
-0.523420 0.234612 0.287135 68 1 84
0.042836 0.613371 -0.049133 66 62 133
-0.215797 0.549192 0.017850 68 1 84
-0.048187 -0.385816 -0.322336 68 1 84
-0.421694 -0.367562 -0.175717 68 1 84
0.581733 -0.205755 0.019510 71 40 120
0.506021 -0.198569 -0.055681 68 1 84
-0.500850 0.210016 0.025385 68 1 84
0.444045 0.379041 0.206368 68 1 84
-0.631712 -0.287530 0.445269 42 117 142
0.021565 -0.440571 -0.340830 68 1 84
-0.305712 -0.012330 -0.201768 68 1 84
-0.649815 -0.328726 0.378377 31 149 139
0.192956 0.506246 -0.061657 71 39 119
0.164993 0.400348 -0.125923 68 1 84
-0.547881 -0.036324 -0.026199 68 2 85
-0.033818 0.365228 -0.216204 68 1 84
0.637977 -0.116479 0.238228 68 1 84
-0.507577 0.130051 -0.030003 68 1 84
-0.181928 0.570605 -0.007511 68 1 84
0.274490 -0.454055 -0.306798 68 1 84
0.484467 0.274191 0.430742 68 1 84
0.003654 -0.443190 -0.342056 68 1 84
0.296843 0.234327 -0.164990 68 1 84
0.547185 0.175798 0.257697 68 1 84
0.430935 0.342133 0.047642 68 1 84
-0.517507 0.249761 0.261090 68 1 84
0.121294 -0.321391 -0.203329 68 1 84
-0.585894 -0.247321 0.046456 41 120 142
0.630116 -0.093282 0.414784 68 1 84
0.171502 -0.438129 -0.324546 68 1 84
-0.532716 -0.366608 -0.054913 63 69 135
-0.151674 0.264240 -0.189555 68 1 84
0.384993 -0.303861 -0.168937 68 1 84
0.019929 0.581407 -0.102868 36 132 141
0.409405 -0.022327 -0.159840 68 1 84
-0.123791 0.601167 -0.024230 68 1 84
0.417324 0.099952 -0.146310 68 1 84
0.589195 -0.332272 0.007375 62 73 137
-0.000850 0.082740 -0.342334 68 1 84
0.718168 -0.573594 0.363266 68 1 84
-0.604357 -0.042544 0.430028 68 1 84
-0.550501 0.170894 0.281983 68 1 84
0.019374 0.406931 -0.166210 68 1 84
0.079390 0.565721 -0.107792 35 168 131
0.574567 -0.383127 -0.024537 66 61 132
0.171406 -0.168204 -0.190955 68 1 84
-0.124570 -0.068950 -0.285378 68 1 84
-0.317196 0.412805 -0.030623 68 1 84
-0.529305 0.187806 0.105969 68 1 84
-0.709017 -0.531995 0.445801 47 179 123
-0.644654 -0.338418 0.489638 57 85 139
-0.500418 -0.503852 -0.138681 71 39 119
0.442476 0.380943 0.230701 68 1 84
0.401786 0.389259 0.056582 68 1 84
0.374791 0.091558 -0.176786 68 1 84
-0.531307 0.163575 0.067711 68 1 84
0.254411 0.516707 0.036111 68 1 84
-0.485275 0.298959 0.322727 68 1 84
-0.326527 0.138381 -0.188212 68 1 84
-0.645771 -0.337263 0.435173 31 148 139
0.569992 -0.154336 0.002646 70 14 97
0.388696 0.408218 0.060119 68 1 84
0.084479 0.446001 -0.146613 53 92 140
-0.590405 0.005844 0.169253 68 1 84
-0.551532 -0.438700 -0.048225 64 68 135
-0.561157 -0.325274 0.004124 66 64 133
0.642612 -0.247721 0.158732 70 47 124
0.129217 0.262881 -0.190756 68 1 84
0.657511 -0.297995 0.210364 71 43 122
-0.513896 -0.360012 -0.077166 68 1 84
-0.448441 -0.341372 -0.123932 68 1 84
0.376438 -0.041945 -0.173756 68 1 84
-0.392512 0.448534 0.131166 68 1 84
0.271661 -0.424172 -0.290412 68 1 84
-0.061537 0.259602 -0.234201 68 1 84
0.683401 -0.404119 0.281695 49 101 141
0.004536 -0.232657 -0.322073 68 1 84
-0.614210 -0.077023 0.235408 68 1 84
0.425064 0.001187 -0.149861 68 1 84
0.039200 0.359547 -0.222949 68 1 84
0.615160 -0.007010 0.309707 68 1 84
0.044886 0.293891 -0.240267 68 1 84
-0.617440 -0.486793 0.132020 35 137 141
-0.088262 -0.300211 -0.271570 68 1 84
-0.072122 0.516820 -0.137593 66 64 133
0.040913 0.591771 -0.090832 44 114 142
-0.599005 -0.090807 0.093128 64 67 135
0.280154 0.496995 0.039751 68 1 84
0.124404 -0.065062 -0.242628 68 1 84
0.240729 0.389961 -0.086452 68 1 84
-0.369051 0.141543 -0.167083 68 1 84
-0.248497 0.274129 -0.142233 68 1 84
-0.124988 0.383141 -0.160786 69 8 91
-0.415427 0.073931 -0.150804 68 1 84
0.399062 0.443616 0.222877 68 1 84
-0.635040 -0.163747 0.309165 68 1 84
-0.482626 -0.337822 -0.091165 68 1 84
0.323575 -0.064584 -0.184899 68 1 84
0.661455 -0.230585 0.346976 68 1 84
0.556993 0.110737 0.147257 68 1 84
-0.645129 -0.210256 0.313806 68 1 84
0.651881 -0.308677 0.176383 59 81 138
-0.101887 0.057038 -0.318502 68 1 84
0.614735 -0.204583 0.079286 62 72 136
-0.502033 -0.422468 -0.135822 68 1 84
0.109762 0.051868 -0.314534 68 1 84
0.536869 -0.338376 -0.065342 68 1 84
0.569004 -0.313424 -0.015688 70 14 97
0.150024 0.161411 -0.222648 68 1 84
-0.105637 0.035169 -0.395491 68 1 84
0.705146 -0.404619 0.437559 68 1 84
-0.623726 -0.243203 0.452481 70 12 95
0.107443 0.042105 -0.330917 68 1 84
0.557338 0.149588 0.247334 68 1 84
-0.480708 0.313617 0.295772 68 1 84
0.639346 -0.097253 0.347248 68 1 84
-0.335530 0.502494 0.145575 68 1 84
-0.296701 0.163239 -0.192324 68 1 84
-0.706772 -0.521117 0.416972 30 153 138
0.621372 -0.109601 0.445046 68 1 84
0.458755 0.353812 0.179430 68 1 84
-0.428411 0.290038 -0.033021 68 1 84
0.066945 -0.275259 -0.261856 68 1 84
0.126236 0.596038 -0.028879 69 5 88
0.099539 -0.295384 -0.195388 68 1 84
-0.659783 -0.369407 0.335675 42 119 142
-0.019262 -0.034034 -0.445296 68 1 84
-0.169701 -0.070514 -0.230830 68 1 84
-0.276087 -0.283530 -0.160835 68 1 84
0.509961 0.249661 0.348459 68 1 84
-0.602383 -0.414372 0.072093 50 99 141
0.584800 0.035052 0.158155 68 1 84
-0.497822 0.013447 -0.083907 68 1 84
0.554510 0.091236 0.471768 68 1 84
-0.179933 0.582200 0.046782 68 1 84
0.670820 -0.299690 0.293801 72 26 108
0.645263 -0.294981 0.143354 44 114 142
0.400695 -0.200239 -0.112551 68 1 84
0.078652 0.243684 -0.246596 68 1 84
0.488888 -0.060416 -0.101433 71 42 121
-0.592343 -0.095426 0.535389 68 1 84
0.473449 0.322037 0.306677 68 1 84
-0.263578 0.510083 0.025867 68 1 84
0.164886 0.409284 -0.122026 68 1 84
-0.267433 0.200333 -0.191154 68 1 84
0.574974 0.040759 0.473243 68 1 84
-0.073462 0.571467 -0.108802 68 1 84
-0.544908 0.022763 -0.012978 68 2 85
0.704454 -0.405717 0.418751 68 2 85
-0.446061 -0.315804 -0.092335 68 1 84
0.368308 -0.458263 -0.268328 68 1 84
0.515923 0.041189 -0.049084 68 1 84
-0.601349 -0.229834 0.076029 45 110 142
-0.141101 0.447682 -0.119987 49 102 141
0.646814 -0.278936 0.161702 58 82 139
0.627410 -0.252726 0.096490 61 76 137
-0.111357 -0.191266 -0.258772 68 1 84
-0.421327 0.396813 0.087703 68 1 84
-0.588900 -0.074629 0.534259 68 1 84
-0.456155 0.178257 -0.079581 68 1 84
-0.059811 0.310426 -0.241680 68 1 84
0.458208 -0.387946 -0.190460 68 1 84
-0.405352 0.270378 -0.076788 68 1 84
0.033337 -0.397514 -0.327415 68 1 84
-0.306812 -0.112405 -0.169803 68 1 84
0.032090 0.285079 -0.237921 68 1 84
-0.554530 0.087043 0.451584 68 1 84
-0.343305 -0.045482 -0.182551 68 1 84
-0.298900 0.266259 -0.142707 68 1 84
-0.085078 -0.122338 -0.338960 68 1 84
0.700680 -0.389938 0.410151 68 1 84
-0.352734 0.383148 -0.032955 68 1 84
0.108165 -0.306267 -0.194630 68 1 84
0.676316 -0.368286 0.272997 58 83 139
0.586898 -0.486256 -0.014257 71 18 101
0.591606 0.003532 0.461278 68 1 84
0.709787 -0.478925 0.347541 56 86 139
-0.402344 0.037175 -0.162536 68 1 84
-0.119143 0.082724 -0.250846 68 1 84
-0.609207 -0.223275 0.095439 33 141 140
0.637013 -0.431036 0.094396 61 74 137
0.070357 -0.239555 -0.256408 68 1 84
0.028385 0.620911 -0.021287 68 1 84
-0.490314 -0.381223 -0.129332 68 1 84
-0.082171 -0.355316 -0.297284 68 1 84
0.625643 -0.122782 0.444104 68 1 84
-0.227615 0.250742 -0.171653 68 1 84
0.300082 -0.353615 -0.252988 68 1 84
0.133604 -0.137842 -0.230558 68 1 84
0.513012 -0.363104 -0.114189 68 1 84
0.566353 -0.461016 -0.047501 61 76 137
-0.329869 0.056273 -0.196703 68 1 84
-0.525036 0.231752 0.229056 68 1 84
0.575397 0.090495 0.372862 68 1 84
-0.557398 0.118583 0.136407 68 1 84
-0.484740 0.072986 -0.086707 68 1 84
-0.339274 0.030544 -0.194150 68 1 84
-0.616711 -0.231185 0.473528 68 1 84
0.170526 0.482561 -0.090845 58 82 139
-0.620546 -0.195872 0.149543 67 59 131
0.388248 0.183937 -0.141370 68 1 84
-0.430383 0.390901 0.293325 68 1 84
0.174001 0.394985 -0.122701 68 1 84
-0.532139 -0.177856 -0.036271 70 45 124
0.558060 0.119839 0.172779 68 1 84
0.351377 0.476040 0.120215 68 1 84
-0.624799 -0.280245 0.495637 58 83 139
-0.700962 -0.553962 0.387693 149 215 63
0.422052 0.374088 0.078001 68 1 84
-0.549020 0.138165 0.119460 68 1 84
-0.105385 -0.299688 -0.212166 68 1 84
0.380510 0.295193 -0.079102 68 1 84
-0.144027 0.579627 -0.051973 68 1 84
0.521117 0.161229 0.485413 68 1 84
-0.595931 -0.144582 0.067446 43 115 142
0.227559 -0.353124 -0.259261 68 1 84
0.209420 -0.045468 -0.217320 68 1 84
-0.643261 -0.301043 0.343022 38 129 142
-0.330794 0.463854 0.039892 68 1 84
-0.195433 0.418045 -0.098547 72 26 108
-0.534088 -0.089112 -0.053877 68 1 84
-0.183529 -0.067853 -0.225178 68 1 84
-0.533251 0.212785 0.232800 68 1 84
-0.551293 0.161398 0.230543 68 1 84
0.056077 -0.333085 -0.294333 68 1 84
0.638890 -0.198595 0.169001 71 42 121
0.568822 -0.317996 -0.017125 70 14 97
-0.663870 -0.546534 0.285261 121 209 81
0.423337 -0.476687 -0.229751 68 1 84
0.698660 -0.398248 0.369458 68 57 130
-0.669285 -0.354935 0.367995 56 87 140
0.610327 -0.034679 0.434039 68 1 84
0.627824 -0.109808 0.183241 68 1 84
-0.259448 -0.342194 -0.226983 68 1 84
-0.085799 -0.350867 -0.293002 68 1 84
0.303064 0.450093 0.000093 68 1 84
0.050567 -0.082354 -0.379489 68 1 84
0.060977 -0.261052 -0.270096 68 1 84
-0.225871 -0.224093 -0.168725 68 1 84
-0.387028 -0.469270 -0.246852 68 1 84
0.634907 -0.243440 0.124750 59 80 138
-0.689393 -0.577993 0.347105 248 230 33
0.475972 0.286414 0.077193 68 1 84
0.515739 0.127081 -0.013430 68 1 84
-0.407440 0.423205 0.279339 68 1 84
0.694798 -0.361988 0.418041 68 1 84
0.685787 -0.435596 0.275138 39 125 142
0.014400 -0.306740 -0.309839 68 1 84
-0.365342 0.471096 0.119403 68 1 84
-0.318774 0.136565 -0.191827 68 1 84
-0.223594 -0.462501 -0.302809 68 1 84
0.461643 0.335005 0.350153 68 1 84
0.625227 -0.205079 0.110868 60 78 138
-0.536741 -0.435876 -0.080444 68 2 85
0.578101 -0.436581 -0.026479 63 71 136
-0.509572 0.173824 0.477737 68 1 84
-0.091701 -0.047553 -0.391522 68 1 84
0.643787 -0.209384 0.461294 68 1 84
-0.388992 0.250607 -0.104604 68 1 84
0.094755 0.101636 -0.231945 68 1 84
0.507915 -0.278468 -0.056002 68 1 84
-0.627791 -0.309028 0.134164 65 66 134
-0.426984 -0.463984 -0.219610 68 1 84
-0.493074 0.221714 0.460760 68 1 84
-0.356171 0.418462 0.009273 68 1 84
-0.417769 0.395965 0.327169 68 1 84
-0.157084 0.370789 -0.147174 60 77 138
-0.125334 -0.125775 -0.268426 68 1 84
0.572398 -0.375076 -0.026350 72 33 114
-0.137057 -0.005189 -0.328198 68 1 84
-0.029901 0.013988 -0.461325 68 1 84
0.545445 0.180704 0.271154 68 1 84
0.211477 -0.140696 -0.186456 68 1 84
0.586183 -0.050187 0.055588 68 1 84
0.605694 -0.076024 0.101099 68 1 84
-0.644133 -0.296417 0.249723 70 49 126
0.566040 0.017371 0.038131 68 1 84
-0.074359 -0.284301 -0.288547 68 1 84
-0.013442 0.444948 -0.161574 54 91 140
-0.183229 -0.293424 -0.155456 68 1 84
0.638626 -0.115492 0.243418 68 1 84
0.705889 -0.409951 0.438201 68 1 84
-0.353913 -0.208827 -0.131606 68 1 84
-0.639299 -0.257961 0.409309 66 64 133
0.603124 -0.037135 0.474840 68 1 84
-0.129884 -0.028202 -0.326784 68 1 84
0.021995 0.063244 -0.358989 68 1 84
-0.360879 -0.136831 -0.147565 68 1 84
0.612689 -0.153109 0.095752 71 21 103
0.556922 0.119950 0.165994 68 1 84
-0.672726 -0.550181 0.307003 141 214 68
0.439644 0.385990 0.222543 68 1 84
0.412220 0.119694 -0.145280 68 1 84
0.003393 -0.169060 -0.349623 68 1 84
0.310499 -0.322055 -0.233023 68 1 84
-0.227016 0.435796 -0.069196 68 1 84
0.664696 -0.392682 0.204376 38 127 142
-0.420224 0.416344 0.238692 68 1 84
-0.048687 -0.124505 -0.368140 68 1 84
0.654237 -0.231844 0.226181 72 25 107
0.264501 0.497144 0.019128 68 1 84
-0.056792 -0.352186 -0.311136 68 1 84
-0.571289 0.079904 0.178112 68 1 84
-0.021297 0.306093 -0.243541 68 1 84
-0.093562 0.360322 -0.206709 68 1 84
0.644173 -0.516682 0.106146 49 101 141
0.446226 0.372908 0.251607 68 1 84
-0.580401 -0.032408 0.052162 69 6 90
0.643131 -0.170413 0.414343 68 1 84
-0.589790 0.040610 0.287954 68 1 84
-0.439862 0.311374 0.007667 68 1 84
-0.637392 -0.209738 0.229603 68 1 84
0.440840 0.350023 0.084339 68 1 84
0.011392 0.059078 -0.421562 68 1 84
0.270311 -0.003042 -0.212054 68 1 84
0.068311 0.049449 -0.372662 68 1 84
-0.065590 -0.025805 -0.436799 68 1 84
0.157453 0.153966 -0.219611 68 1 84
0.649383 -0.165516 0.371694 68 1 84
0.095250 0.091850 -0.232470 68 1 84
0.322735 0.078141 -0.201429 68 1 84
-0.571192 0.081864 0.186397 68 1 84
0.112425 0.227133 -0.246617 68 1 84
-0.367694 0.479652 0.183805 68 1 84
0.536411 0.160778 0.424406 68 1 84
-0.368994 0.079206 -0.178952 68 1 84
0.540185 0.182818 0.196407 68 1 84
0.472944 0.322706 0.308224 68 1 84
-0.624496 -0.280864 0.500124 61 76 137
-0.369425 0.470835 0.247332 68 1 84
-0.646397 -0.357101 0.249369 55 88 140
0.481786 0.274112 0.441051 68 1 84
0.117257 -0.003323 -0.301484 68 1 84
-0.604221 -0.199393 0.086039 46 108 142
0.052069 -0.129099 -0.343992 68 1 84
-0.137769 -0.014008 -0.312267 68 1 84
-0.618949 -0.495569 0.140324 39 126 142
-0.588724 -0.051069 0.072043 69 8 91
-0.173903 0.422261 -0.110699 69 50 127
-0.548546 -0.258846 -0.000375 51 96 141
0.253789 -0.159502 -0.175366 68 1 84
0.499436 -0.110029 -0.086088 68 1 84
-0.543454 0.116353 0.451492 68 1 84
0.395482 0.446465 0.243647 68 1 84
0.452741 -0.310340 -0.123612 68 1 84
0.072263 -0.205913 -0.270541 68 1 84
-0.553305 0.158285 0.319420 68 1 84
-0.184644 -0.315586 -0.166435 68 1 84
-0.086125 0.052941 -0.344612 68 1 84
0.186000 -0.153003 -0.190801 68 1 84
0.580426 -0.455599 -0.022990 55 89 140
-0.632917 -0.557793 0.193585 47 179 123
0.649966 -0.241186 0.480505 68 1 84
-0.589726 -0.189028 0.050562 38 127 142
-0.128135 0.202434 -0.255580 68 1 84
0.518362 0.233403 0.344248 68 1 84
0.597567 -0.011864 0.459311 68 1 84
0.392779 0.421005 0.093763 68 1 84
-0.655498 -0.438726 0.304929 43 115 142
-0.152282 0.351278 -0.166376 71 24 106
0.598578 -0.191482 0.048798 71 38 118
-0.136443 -0.186727 -0.221164 68 1 84
0.518234 0.084396 -0.029447 68 1 84
0.298556 0.524839 0.184655 68 1 84
-0.512078 0.255489 0.196976 68 1 84
0.688554 -0.431433 0.288653 41 120 142
0.039954 0.048784 -0.423787 68 1 84
-0.535830 0.124592 0.464723 68 1 84
0.209055 -0.419296 -0.301134 68 1 84
-0.455886 -0.060456 -0.126297 68 1 84
0.143153 0.011980 -0.220341 68 1 84
0.543835 -0.042233 -0.033801 68 1 84
0.246472 0.025832 -0.219553 68 1 84
0.626984 -0.369676 0.074317 66 64 133
0.144516 0.082235 -0.214016 68 1 84
0.087982 0.089017 -0.243522 68 1 84
-0.109159 -0.337702 -0.257884 68 1 84
0.158944 -0.296188 -0.170973 68 1 84
0.082736 0.567214 -0.104726 42 176 126
0.516276 0.178174 0.045979 68 1 84
0.110494 -0.350023 -0.257291 68 1 84
0.550068 -0.388931 -0.065099 71 17 99
-0.594062 -0.054422 0.483027 68 1 84
0.508925 0.261694 0.272988 68 1 84
-0.111840 0.421099 -0.142507 59 81 138
-0.547884 0.171558 0.319559 68 1 84
0.514445 0.171071 0.029774 68 1 84
0.387722 0.169098 -0.147533 68 1 84
0.670488 -0.387268 0.227200 37 131 141
-0.629641 -0.227729 0.175165 69 5 88
0.039055 -0.310510 -0.300088 68 1 84
-0.298833 0.431768 -0.025362 68 1 84
-0.395774 -0.260672 -0.104909 71 17 99
-0.446902 -0.452918 -0.202317 68 1 84
-0.624041 -0.101020 0.296447 68 1 84
-0.458018 0.294668 0.439125 68 1 84
0.243998 -0.120523 -0.184399 68 1 84
0.716539 -0.573533 0.348632 68 1 84
0.378307 -0.389303 -0.246055 68 1 84
-0.068633 -0.055135 -0.405187 68 1 84
-0.580486 0.013582 0.089685 68 1 84
-0.436568 0.199428 -0.091492 68 1 84
0.069380 0.203540 -0.283320 68 1 84
-0.124090 -0.053720 -0.300565 68 1 84
-0.625796 -0.272191 0.464502 67 59 131
0.406865 0.420803 0.299369 68 1 84
-0.060576 -0.106414 -0.372351 68 1 84
0.672833 -0.383599 0.240435 47 105 141
0.601040 -0.345565 0.023898 69 52 127
-0.557797 -0.103848 -0.017854 70 48 125
0.375032 0.198598 -0.144475 68 1 84
0.066390 -0.288852 -0.268688 68 1 84
0.473690 0.320355 0.140973 68 1 84
0.629707 -0.438081 0.072857 71 44 123
-0.133109 -0.375314 -0.269797 68 1 84
-0.442401 0.201462 -0.084157 68 1 84
0.012651 0.516085 -0.148718 35 135 141
0.188461 0.230911 -0.196480 68 1 84
0.680519 -0.446219 0.250839 39 126 142
-0.536350 0.156558 0.078580 68 1 84
-0.399950 0.363388 0.003820 68 1 84
-0.116998 0.013065 -0.391860 68 1 84
0.273795 0.291513 -0.139154 68 1 84
0.138653 -0.304160 -0.180357 68 1 84
0.666152 -0.404791 0.206833 39 124 142
-0.496927 0.289838 0.258646 68 1 84
0.608415 -0.013317 0.211355 68 1 84
-0.477740 -0.021094 -0.109038 68 1 84
-0.502332 0.155609 -0.022566 68 1 84
0.289164 0.393489 -0.062433 68 1 84
0.073530 -0.280120 -0.247434 68 1 84
0.190197 0.313824 -0.140236 68 1 84
0.539074 -0.100825 -0.044242 72 28 110
0.470771 -0.048808 -0.117502 68 1 84
-0.069414 0.375176 -0.194221 68 1 84
0.263409 0.300307 -0.134393 68 1 84
0.123093 0.022378 -0.268030 68 1 84
-0.594239 -0.132935 0.063363 47 106 141
-0.195458 0.472431 -0.076162 68 1 84
0.642765 -0.167100 0.414030 68 1 84
-0.182035 -0.323047 -0.177520 68 1 84
-0.604184 -0.051426 0.177102 68 1 84
-0.696232 -0.494448 0.373740 38 127 142
-0.077338 0.101837 -0.272824 68 1 84
0.613669 -0.447603 0.038492 71 43 122
-0.549487 -0.391017 -0.039843 72 29 111
0.384517 0.363328 -0.009204 68 1 84
-0.259063 0.091514 -0.211894 68 1 84
-0.477816 0.102996 -0.086206 68 1 84
0.038494 0.256185 -0.243269 68 1 84
0.599797 -0.273026 0.035787 71 17 99
-0.386118 -0.257619 -0.112509 68 1 84
-0.593906 -0.117788 0.064548 66 62 133
0.258499 -0.159173 -0.174941 68 1 84
-0.459435 0.354343 0.131325 68 1 84
-0.580075 -0.533098 0.017870 39 124 142
0.711499 -0.448549 0.417066 71 24 106
0.227491 -0.070578 -0.208293 68 1 84
0.257316 0.165825 -0.203139 68 1 84
-0.276726 -0.234414 -0.166240 68 1 84
0.093568 -0.244066 -0.206306 68 1 84
-0.028114 -0.440329 -0.340503 68 1 84
0.653974 -0.190082 0.274961 68 1 84
-0.272201 0.513338 0.043415 68 1 84
0.675527 -0.396842 0.248861 50 98 141
0.090842 0.235892 -0.252601 68 1 84
-0.405446 0.249105 -0.091745 68 1 84
0.651472 -0.205818 0.378578 68 1 84
-0.638599 -0.174808 0.337351 68 1 84
-0.487903 0.305390 0.180279 68 1 84
-0.624758 -0.371449 0.130070 35 136 141
-0.242632 0.428052 -0.062874 68 1 84
0.526253 0.211305 0.173377 68 1 84
-0.461708 0.244055 -0.023777 68 1 84
-0.173449 0.220778 -0.220517 68 1 84
0.080660 0.608232 -0.042539 70 48 125
0.337508 0.284682 -0.117475 68 1 84
-0.284429 -0.341973 -0.208429 68 1 84
0.692222 -0.347470 0.427879 68 1 84
-0.636625 -0.244814 0.415918 70 45 124
-0.325932 0.511758 0.176514 68 1 84
-0.594241 -0.006063 0.181544 68 1 84
0.612990 -0.243391 0.064028 67 58 131
0.594352 0.010539 0.440141 68 1 84
0.208578 0.190765 -0.205087 68 1 84
0.048676 -0.306617 -0.293790 68 1 84
-0.577051 0.091884 0.332447 68 1 84
-0.040508 -0.269351 -0.311702 68 1 84
0.382595 0.399999 0.035287 68 1 84
0.246238 -0.322064 -0.195911 68 1 84
-0.044177 0.493215 -0.151549 47 106 141
0.117713 -0.119279 -0.249167 68 1 84
-0.687445 -0.546662 0.344399 129 211 76
0.433796 -0.344107 -0.181825 68 1 84
-0.548278 0.106781 0.055833 68 1 84
0.300136 0.444205 -0.008768 68 1 84
-0.169472 0.096808 -0.214850 68 1 84
0.107571 0.599513 -0.041520 71 21 103
-0.058668 0.197158 -0.297063 68 1 84
0.533733 0.183683 0.143772 68 1 84
0.211046 0.150956 -0.210712 68 1 84
-0.665951 -0.483238 0.303908 36 133 141
0.123197 0.019699 -0.252583 68 1 84
0.557571 -0.081906 -0.018016 68 1 84
0.522918 0.181161 0.446825 68 1 84
0.157000 -0.349337 -0.235415 68 1 84
0.501548 -0.196870 -0.059120 68 1 84
-0.347514 0.150867 -0.175216 68 1 84
0.354217 0.231176 -0.141624 68 1 84
-0.475972 -0.453119 -0.171310 68 1 84
-0.614059 -0.120255 0.165710 71 18 101
0.353440 0.132319 -0.180355 68 1 84
-0.477814 -0.012961 -0.108213 68 1 84
-0.078376 0.252700 -0.237668 68 1 84
-0.433656 0.075364 -0.136950 68 1 84
-0.002332 0.117837 -0.303867 68 1 84
0.567498 0.127280 0.322633 68 1 84
0.431617 -0.021683 -0.146063 68 1 84
-0.638342 -0.456755 0.219118 30 156 137
-0.642595 -0.349445 0.204578 43 115 142
-0.516947 0.156039 0.480222 68 1 84
0.607759 -0.221871 0.059422 58 83 139
-0.452041 0.356361 0.103925 68 1 84
0.525221 -0.437115 -0.112617 72 32 113
-0.322646 0.414575 -0.025219 68 1 84
0.072772 0.602545 -0.062379 52 95 141
-0.082123 -0.153861 -0.327041 68 1 84
-0.077702 -0.260025 -0.286738 68 1 84
0.056002 -0.157828 -0.319417 68 1 84
0.431723 0.063997 -0.140467 68 1 84
-0.329184 -0.405839 -0.244177 68 1 84
0.629706 -0.083445 0.222933 68 1 84
-0.605476 -0.128499 0.107622 69 52 127
-0.257764 0.535950 0.068579 68 1 84
-0.283644 0.155645 -0.198285 68 1 84
0.324549 0.340733 -0.087314 68 1 84
0.713078 -0.566241 0.329671 72 25 107
0.512679 0.169339 0.022366 68 1 84
-0.065252 -0.227438 -0.312582 68 1 84
0.194361 -0.284304 -0.177392 68 1 84
0.078754 0.073199 -0.273940 68 1 84
0.281370 -0.285204 -0.171555 68 1 84
-0.471206 -0.240024 -0.057116 38 128 142
0.604105 -0.004059 0.199414 68 1 84
-0.120498 -0.380290 -0.283623 68 1 84
-0.134385 0.058839 -0.309648 68 1 84
-0.290025 -0.385406 -0.246943 68 1 84
-0.355060 0.490229 0.200483 68 1 84
-0.114662 -0.271000 -0.187249 68 1 84
-0.656574 -0.562420 0.265154 134 212 73
0.641365 -0.169354 0.428598 68 1 84
-0.551867 0.033524 0.008004 68 1 84
-0.348270 -0.124066 -0.154987 68 1 84
-0.329769 0.501218 0.119673 68 1 84
-0.645990 -0.255299 0.300849 71 18 101
-0.245481 -0.083463 -0.201384 68 1 84
-0.448873 -0.114591 -0.120789 68 1 84
0.345271 0.493368 0.187987 68 1 84
0.374570 0.461291 0.154804 68 1 84
0.637564 -0.175829 0.178331 70 14 97
0.248657 0.301755 -0.132917 68 1 84
0.443945 0.215172 -0.066887 68 1 84
0.077215 -0.272047 -0.233686 68 1 84
0.688992 -0.410983 0.303066 49 100 141
-0.311928 -0.276699 -0.154356 68 1 84
0.564082 0.086785 0.138317 68 1 84
-0.094365 0.054323 -0.343843 68 1 84
-0.557201 0.148866 0.321749 68 1 84
0.511224 0.243835 0.363273 68 1 84
0.285142 -0.473071 -0.308364 68 1 84
0.522874 -0.372770 -0.104031 68 1 84
-0.365654 0.477625 0.229192 68 1 84
0.081990 0.473002 -0.143665 42 176 126
-0.616929 -0.059432 0.333881 68 1 84
-0.526998 0.195790 0.111941 68 1 84
-0.389462 0.455285 0.225837 68 1 84
0.379461 -0.169563 -0.134889 68 1 84
0.573178 0.113389 0.314117 68 1 84
0.284247 -0.191720 -0.169483 68 1 84
0.536673 -0.004362 -0.034388 68 1 84
0.076528 0.065072 -0.286210 68 1 84
-0.490976 -0.122189 -0.091688 70 48 125
-0.204984 0.426121 -0.088072 68 1 84
-0.659453 -0.552455 0.273552 165 218 53
-0.503166 0.278005 0.228031 68 1 84
0.004420 0.336683 -0.242627 68 1 84
-0.496144 0.270598 0.352628 68 1 84
-0.109820 0.176545 -0.263530 68 1 84
-0.625007 -0.143891 0.416947 68 1 84
-0.563862 0.066711 0.073962 68 1 84
0.217842 -0.400612 -0.279042 68 1 84
0.643678 -0.115464 0.359393 68 1 84
0.404828 -0.470964 -0.244815 68 1 84
0.343511 0.159944 -0.176858 68 1 84
-0.414869 0.221478 -0.100733 68 1 84
0.573097 0.110934 0.331734 68 1 84
-0.644510 -0.420532 0.268820 33 167 132
-0.060346 0.553803 -0.124931 65 65 134
0.622856 -0.377155 0.062966 66 62 133
0.669543 -0.272533 0.333071 68 1 84
-0.662421 -0.462862 0.302064 40 122 142
-0.608666 -0.051005 0.411447 68 1 84
0.382417 0.320908 -0.054888 68 1 84
0.243974 0.362535 -0.099536 68 1 84
-0.250193 -0.062948 -0.206123 68 1 84
0.267645 0.466903 -0.011008 68 1 84
-0.024740 0.415514 -0.160998 69 50 127
0.334983 0.038630 -0.197833 68 1 84
0.603767 -0.031847 0.461317 68 1 84
-0.608896 -0.164720 0.521097 68 1 84
-0.551165 0.061130 0.491819 68 1 84
-0.170535 0.130158 -0.219618 68 1 84
0.507116 0.208722 0.055794 68 1 84
-0.006799 0.371715 -0.205302 68 1 84
0.654478 -0.256699 0.465087 68 1 84
-0.008650 -0.244234 -0.321128 68 1 84
0.310407 0.478133 0.046518 68 1 84
0.512258 -0.393953 -0.126508 68 2 85
-0.227640 0.366354 -0.103844 68 1 84
0.303055 -0.419665 -0.281401 68 1 84
-0.357473 0.368722 -0.042820 68 1 84
0.204487 -0.086618 -0.211124 68 1 84
-0.476958 0.270696 0.424985 68 1 84
0.441350 -0.174825 -0.100481 68 1 84
-0.561568 0.044088 0.483793 68 1 84
0.597482 -0.021166 0.476387 68 1 84
0.526576 -0.286019 -0.047007 68 1 84
-0.517622 0.208224 0.403197 68 1 84
-0.092143 0.144824 -0.267776 68 1 84
-0.170931 -0.155204 -0.207615 68 1 84
0.085925 -0.432418 -0.332928 68 1 84
-0.639804 -0.444605 0.225603 31 146 140
-0.275083 -0.461895 -0.287121 68 1 84
-0.626246 -0.232526 0.152727 70 14 97
0.286309 -0.439514 -0.296193 68 1 84
-0.164788 0.270645 -0.167288 68 1 84
-0.492605 -0.082390 -0.098076 68 1 84
-0.709842 -0.497395 0.434624 49 102 141
0.254983 0.525462 0.055779 68 1 84
0.324688 0.203383 -0.169866 68 1 84
-0.497503 0.289467 0.226637 68 1 84
-0.382699 -0.322665 -0.155136 68 1 84
-0.431536 -0.214450 -0.088602 68 1 84
0.024797 0.237964 -0.278670 68 1 84
0.590375 0.036955 0.206590 68 1 84
-0.156164 -0.057892 -0.238101 68 1 84
0.549262 0.169966 0.253108 68 1 84
0.464805 -0.090140 -0.117981 68 1 84
-0.602403 -0.145278 0.089931 46 107 142
-0.085796 -0.006615 -0.432232 68 1 84
-0.480182 0.309379 0.316231 68 1 84
0.326809 -0.289351 -0.151139 68 1 84
0.683744 -0.300922 0.403253 68 1 84
-0.535250 0.197652 0.337903 68 1 84
0.295155 0.092384 -0.209137 68 1 84
0.652100 -0.525724 0.133469 66 64 133
0.199049 -0.188763 -0.179346 68 1 84
-0.563366 -0.472256 -0.020783 49 101 141
-0.239769 0.272454 -0.142806 68 1 84
-0.495250 -0.350209 -0.092075 68 1 84
-0.203571 -0.122875 -0.202619 68 1 84
0.410384 0.006082 -0.159160 68 1 84
0.337133 0.490965 0.128916 68 1 84
0.464052 0.310144 0.423026 68 1 84
0.180032 0.342110 -0.141740 68 1 84
0.569663 0.111716 0.356899 68 1 84
0.419564 -0.381020 -0.217841 68 1 84
0.493283 0.291825 0.212317 68 1 84
-0.036989 0.093508 -0.312452 68 1 84
-0.419046 -0.096972 -0.140326 68 3 87
0.528784 0.045813 -0.026543 68 1 84
0.332471 -0.311517 -0.214077 68 1 84
-0.108501 -0.116511 -0.299871 68 1 84
-0.452128 -0.285021 -0.064167 69 8 91
-0.429453 -0.426576 -0.211110 68 1 84
0.517515 -0.376115 -0.113046 68 1 84
-0.292764 -0.358161 -0.242349 68 1 84
0.598736 -0.003891 0.152205 68 1 84
0.667554 -0.288245 0.296033 70 14 97
0.092834 0.102634 -0.233067 68 1 84
0.544843 0.025139 -0.007343 68 1 84
0.172926 -0.033224 -0.222354 68 1 84
0.544353 0.019629 -0.011175 68 1 84
-0.564537 0.131834 0.309350 68 1 84
0.489013 -0.438886 -0.165238 68 1 84
0.292881 -0.210188 -0.169118 68 1 84
0.028903 0.153760 -0.294535 68 1 84
0.450530 0.368579 0.202778 68 1 84
0.402453 -0.355737 -0.213041 68 1 84
0.012809 -0.049229 -0.429122 68 1 84
0.468786 -0.256827 -0.069031 68 1 84
-0.254252 -0.118071 -0.182453 68 1 84
-0.562443 0.138285 0.280849 68 1 84
-0.035872 -0.168202 -0.349624 68 1 84
-0.221070 0.462942 -0.059628 68 1 84
-0.247318 0.299124 -0.121366 68 1 84
-0.564352 0.044563 0.474908 68 1 84
-0.692754 -0.513925 0.363138 32 165 133
-0.345673 0.217925 -0.150572 68 1 84
-0.688281 -0.397768 0.475336 68 1 84
-0.231736 -0.217316 -0.167752 68 1 84
0.450935 0.219389 -0.053847 68 1 84
0.628982 -0.064525 0.289876 68 1 84
0.490140 0.256716 0.074975 68 1 84
0.160481 0.587120 0.058871 68 1 84
0.044393 0.618949 -0.027120 68 1 84
0.110726 -0.005415 -0.339384 68 1 84
-0.523661 0.232589 0.213975 68 1 84
-0.630911 -0.315529 0.145088 69 54 129
-0.257118 0.372266 -0.086331 68 1 84
0.412068 0.385879 0.074388 68 1 84
0.201502 0.331024 -0.129453 68 1 84
-0.319457 -0.321856 -0.161878 68 1 84
-0.157696 0.545210 -0.073690 68 1 84
-0.019300 0.371625 -0.206319 68 1 84
-0.052283 0.466957 -0.153530 49 102 141
-0.545504 0.174755 0.330298 68 1 84
0.367396 -0.362042 -0.237276 68 1 84
0.376243 0.440281 0.091817 68 1 84
0.185707 0.449093 -0.091912 70 47 124
-0.507299 0.173352 0.486271 68 1 84
-0.622542 -0.115924 0.245382 68 1 84
0.513959 0.209847 0.433275 68 1 84
-0.540656 -0.408663 -0.065315 68 3 87
0.534189 -0.424305 -0.097920 70 45 124
0.028342 0.099095 -0.298297 68 1 84
0.081352 0.055354 -0.320017 68 1 84
0.394777 0.273838 -0.081712 68 1 84
-0.488423 0.279931 0.098975 68 1 84
0.585488 0.079232 0.310547 68 1 84
-0.377351 -0.441000 -0.244545 68 1 84
-0.230354 0.059710 -0.215911 68 1 84
0.394634 -0.027564 -0.167244 68 1 84
0.293210 0.067883 -0.211084 68 1 84
-0.567755 0.042100 0.464880 68 1 84
0.555425 -0.371079 -0.051808 69 52 127
-0.135884 0.043072 -0.330016 68 1 84
0.473660 0.024612 -0.105725 68 1 84
-0.231044 0.464917 -0.050423 68 1 84
-0.640119 -0.190777 0.292312 68 1 84
0.617973 -0.467367 0.044925 66 64 133
0.139343 0.539425 -0.089295 40 122 142
-0.284670 0.181287 -0.191576 68 1 84
0.446439 0.246161 -0.037182 68 1 84
0.258137 -0.128666 -0.179854 68 1 84
0.511238 0.155766 0.000666 68 1 84
0.505686 -0.319771 -0.087846 68 1 84
-0.646229 -0.385447 0.258081 36 134 141
-0.275064 -0.186877 -0.158989 68 1 84
0.574642 0.106997 0.331563 68 1 84
-0.446485 0.236560 -0.053861 68 1 84
0.658753 -0.300799 0.215933 67 60 132
0.498139 0.283458 0.256051 68 1 84
-0.633547 -0.497174 0.199415 39 173 128
-0.699739 -0.400740 0.424412 71 15 98
0.578236 0.081474 0.225180 68 1 84
0.120905 0.046035 -0.279788 68 1 84
-0.381747 0.464533 0.159096 68 1 84
-0.360748 -0.368049 -0.217701 68 1 84
0.652464 -0.498682 0.139453 48 103 141
0.476219 0.302699 0.108484 68 1 84
-0.646086 -0.231581 0.287596 68 1 84
0.028474 0.463171 -0.159422 33 142 140
0.130278 0.056181 -0.216887 68 1 84
0.218889 -0.414014 -0.292276 68 1 84
0.179504 0.435046 -0.101656 68 1 84
0.209054 0.553024 0.030318 68 1 84
-0.164719 -0.396467 -0.271404 68 1 84
-0.080750 0.156165 -0.281010 68 1 84
-0.607223 -0.293665 0.081543 46 108 142
-0.400311 0.422306 0.306716 68 1 84
0.665203 -0.245448 0.325237 68 1 84
0.632539 -0.102535 0.218606 68 1 84
-0.258526 -0.390288 -0.250558 68 1 84
0.475262 0.323838 0.177259 68 1 84
-0.603924 -0.490417 0.086234 34 138 141
-0.359959 -0.217089 -0.127883 68 1 84
0.589839 0.067397 0.295309 68 1 84
0.662236 -0.471105 0.178170 46 109 142
0.359146 -0.009967 -0.184512 68 1 84
0.661328 -0.540029 0.163786 71 37 117
0.671754 -0.428089 0.226866 47 106 141
0.493338 0.277401 0.130097 68 1 84
-0.608560 -0.134342 0.477763 68 1 84
-0.065178 0.604233 -0.067071 68 1 84
-0.496357 0.264253 0.368741 68 1 84
0.265635 -0.159768 -0.173943 68 1 84
0.202240 0.453936 -0.077055 65 66 134
0.583515 0.071812 0.239940 68 1 84
0.035560 0.037715 -0.440903 68 1 84
-0.608378 -0.082708 0.163921 68 1 84
0.193995 0.559996 0.010666 68 1 84
0.317354 0.313438 -0.109804 68 1 84
-0.103225 -0.283524 -0.208036 68 1 84
0.543866 0.049814 0.005311 68 1 84
0.655586 -0.193994 0.352928 68 1 84
0.111240 0.119175 -0.227557 68 1 84
-0.485431 0.031708 -0.094590 70 14 97
-0.642335 -0.196737 0.380976 68 1 84
0.489014 -0.186765 -0.070364 71 18 101
-0.550221 0.171293 0.264446 68 1 84
-0.109864 0.381149 -0.170943 68 1 84
-0.343863 -0.491712 -0.270683 68 1 84
0.112878 -0.018730 -0.304164 68 1 84
0.693765 -0.496297 0.276649 59 80 138
-0.105695 -0.367981 -0.285682 68 1 84
0.126394 -0.192388 -0.207486 68 1 84
-0.529987 0.119059 0.488944 68 1 84
-0.596297 -0.548583 0.062568 30 153 138
0.560432 -0.048818 -0.006840 68 1 84
-0.644299 -0.405495 0.238289 39 173 128
-0.636026 -0.182536 0.254237 68 1 84
-0.080570 0.021233 -0.438654 68 1 84
0.628980 -0.108336 0.422729 68 1 84
-0.510829 0.165785 0.003843 68 1 84
-0.577703 -0.440530 0.012464 68 57 130
-0.223759 -0.051850 -0.215339 68 1 84
-0.047824 -0.156932 -0.351223 68 1 84
-0.636025 -0.228442 0.413954 69 5 88
0.083277 0.483103 -0.141554 47 179 123
0.427526 0.114885 -0.133880 68 1 84
0.234572 -0.054953 -0.210770 68 1 84
-0.291359 0.164051 -0.193911 68 1 84
-0.466261 -0.179683 -0.085972 65 65 134
-0.386831 0.041487 -0.171789 68 1 84
0.372159 0.471499 0.222978 68 1 84
-0.277563 -0.277398 -0.161791 68 1 84
-0.541426 0.182270 0.337897 68 1 84
0.627637 -0.126110 0.440649 68 1 84
-0.420836 -0.221931 -0.091781 68 1 84
-0.634140 -0.291516 0.431390 38 127 142
-0.518609 0.093257 -0.030619 68 1 84
0.276495 0.494598 0.031398 68 1 84
-0.201699 -0.179616 -0.174563 68 1 84
-0.077266 0.243284 -0.258625 68 1 84
-0.559432 0.097197 0.417948 68 1 84
-0.263807 0.312628 -0.113287 68 1 84
-0.012199 0.247217 -0.263170 68 1 84
0.680387 -0.415685 0.262261 49 100 141
-0.460558 0.054708 -0.116293 68 1 84
0.438672 0.357916 0.376549 68 1 84
-0.386322 0.460459 0.211184 68 1 84
0.290426 0.133591 -0.204525 68 1 84
0.017125 0.609070 -0.064893 56 86 139
-0.068286 0.052460 -0.421563 68 1 84
0.501250 -0.393474 -0.142007 68 1 84
-0.562839 0.026782 0.034089 69 5 88
0.216127 0.360915 -0.112021 68 1 84
-0.421161 0.386550 0.340885 68 1 84
-0.197893 0.524672 -0.047398 68 1 84
0.424532 0.408248 0.193923 68 1 84
-0.037285 -0.058820 -0.420318 68 1 84
0.569321 0.027334 0.055597 68 1 84
-0.594575 0.009001 0.377392 68 1 84
-0.553614 -0.136861 -0.020670 67 59 131
-0.599440 0.007961 0.311670 68 1 84
0.656161 -0.527007 0.148470 64 67 135
0.234476 -0.011813 -0.217619 68 1 84
-0.403280 -0.121634 -0.138743 68 1 84
-0.559725 -0.222629 0.007895 56 87 140
0.306110 0.514340 0.126392 68 1 84
0.579345 0.035505 0.121207 68 1 84
0.118751 -0.339271 -0.233056 68 1 84
-0.607079 -0.109137 0.127171 72 29 111
0.437433 0.157727 -0.109196 68 1 84
0.331723 0.474555 0.071449 68 1 84
-0.482493 0.258923 0.429928 68 1 84
0.320974 0.196427 -0.174304 68 1 84
-0.332303 0.416882 -0.015502 68 1 84
0.588335 0.036000 0.190702 68 1 84
-0.179105 -0.426909 -0.296179 68 1 84
-0.092428 -0.163293 -0.307451 68 1 84
-0.273797 0.396916 -0.064838 68 1 84
0.094909 0.221450 -0.261005 68 1 84
-0.293906 -0.019288 -0.204031 68 1 84
-0.340860 -0.314576 -0.149279 68 1 84
0.062877 -0.169710 -0.303977 68 1 84
0.443471 -0.217865 -0.083834 71 24 106
0.545180 0.174956 0.220616 68 1 84
-0.123434 -0.369408 -0.271960 68 1 84
-0.452535 0.359557 0.288615 68 1 84
-0.216030 0.351686 -0.116328 72 26 108
