ply
format ascii 1.0
element vertex 1270
property float x
property float y
property float z
property uchar red
property uchar green
property uchar blue
end_header
0.633579 -0.212665 0.138042 68 1 84
0.151750 -0.344822 -0.172391 54 90 140
-0.544800 -0.255600 -0.021011 68 1 84
-0.125234 0.439596 -0.162945 68 3 87
-0.591559 0.023455 0.513031 46 109 142
0.263774 -0.283741 -0.164873 71 39 119
0.155970 0.390873 -0.158453 66 61 132
0.651309 -0.250267 0.181635 68 1 84
-0.643213 -0.103739 0.276261 68 1 84
-0.356913 0.522931 0.155198 70 47 124
-0.195810 0.021916 -0.177485 38 128 142
-0.709183 -0.395897 0.374084 68 1 84
0.680482 -0.252849 0.304217 68 1 84
-0.116519 0.649378 -0.118449 68 1 84
0.487792 0.371000 0.350215 38 172 129
0.704172 -0.497141 0.432699 68 1 84
0.534015 0.329965 0.230337 46 107 142
0.288427 -0.007133 -0.164574 68 1 84
0.617630 0.077487 0.250827 68 1 84
0.073438 0.066294 -0.363128 46 108 142
0.215090 -0.109145 -0.170134 62 73 137
-0.427373 0.142685 -0.076262 68 1 84
0.586530 0.237341 0.286573 66 61 132
0.239512 0.206019 -0.176196 45 110 142
-0.373253 0.256237 -0.084094 68 1 84
-0.118755 -0.072092 -0.259611 31 149 139
-0.561487 0.210047 0.198349 68 1 84
0.098205 -0.149064 -0.299261 71 24 106
-0.235512 0.540528 -0.088615 68 1 84
0.604274 -0.403255 0.071739 68 1 84
0.404061 0.293793 -0.041426 44 113 142
-0.706138 -0.319440 0.487145 72 32 113
-0.484609 0.380400 0.338205 34 138 141
-0.608459 -0.532284 0.061054 68 1 84
-0.603896 0.036953 0.204345 71 18 101
-0.621732 -0.084643 0.138042 68 1 84
0.449418 0.411973 0.143047 36 133 141
0.617078 -0.452389 0.081306 68 1 84
0.315220 -0.388884 -0.226083 71 15 98
0.635435 -0.255476 0.147513 68 1 84
-0.034653 -0.444233 -0.316321 69 5 88
0.053655 0.654267 -0.129695 68 1 84
-0.672311 -0.340534 0.246265 68 1 84
-0.113946 -0.173136 -0.217583 46 107 142
-0.092592 0.649188 -0.129110 68 1 84
0.240748 -0.490060 -0.301900 72 32 113
0.063790 -0.326361 -0.247046 66 62 133
-0.684975 -0.151566 0.469364 68 1 84
-0.374339 0.056998 -0.135075 71 39 119
-0.092182 -0.197173 -0.235746 46 107 142
-0.441601 -0.359446 -0.133813 71 43 122
-0.247457 -0.212919 -0.164435 40 122 142
0.614322 -0.011084 0.158062 68 1 84
-0.017017 0.107185 -0.317261 81 196 104
0.614854 -0.195442 0.080035 68 1 84
-0.481276 0.378842 0.207428 68 1 84
-0.218528 0.506764 -0.107133 68 1 84
-0.583843 0.068538 0.138754 68 1 84
-0.008375 0.387951 -0.203100 31 146 140
0.438684 0.236927 -0.031573 39 126 142
-0.434684 0.377152 0.076666 68 1 84
0.696319 -0.543959 0.352562 68 1 84
0.013380 0.313295 -0.251184 33 142 140
0.476159 0.400385 0.220946 49 102 141
0.450758 0.426342 0.212294 34 138 141
0.061103 0.657683 -0.120797 68 1 84
-0.563599 0.052401 0.054297 68 1 84
0.343874 -0.375826 -0.197736 68 1 84
0.532782 0.335963 0.284980 47 106 141
0.689223 -0.371601 0.400485 68 1 84
0.186830 0.581271 -0.092298 68 1 84
0.656357 -0.518273 0.184170 68 1 84
-0.651261 -0.166259 0.217893 68 1 84
0.151947 0.055183 -0.306332 63 71 136
0.239675 -0.259829 -0.160580 68 55 129
0.142852 0.611362 -0.112471 68 1 84
0.068753 0.642393 -0.136538 68 1 84
0.497350 0.337489 0.424874 181 221 43
0.068391 0.075326 -0.445197 68 1 84
-0.242561 -0.484180 -0.289431 71 24 106
0.214838 0.619888 -0.000236 70 45 124
-0.642665 -0.256380 0.140241 68 1 84
0.416512 0.455430 0.257669 35 136 141
0.472691 0.160395 -0.029870 68 1 84
0.690999 -0.387478 0.414193 68 1 84
-0.259082 -0.183822 -0.160721 52 94 141
-0.271018 -0.390791 -0.232982 47 106 141
0.613090 -0.482281 0.049392 68 1 84
0.312117 -0.387776 -0.225635 71 15 98
0.502013 -0.325444 -0.055812 68 1 84
0.452373 0.416484 0.303300 170 219 50
-0.194288 0.646477 -0.048761 68 1 84
0.099426 0.515237 -0.170324 68 1 84
0.427461 -0.462752 -0.209972 68 1 84
-0.414192 -0.152378 -0.127823 70 14 97
0.372669 0.496645 0.186106 32 165 133
0.674854 -0.267704 0.273161 68 1 84
-0.434064 -0.117835 -0.125785 68 1 84
0.590122 -0.130182 0.029918 68 1 84
0.653670 -0.368794 0.216807 68 1 84
0.631729 -0.134287 0.143941 68 1 84
-0.674273 -0.267363 0.282841 71 42 121
0.513830 0.271707 0.095205 38 129 142
0.024589 0.040047 -0.482915 68 1 84
0.601995 -0.442898 0.005101 68 1 84
0.141436 -0.058727 -0.256136 54 90 140
-0.164975 -0.005473 -0.191484 39 126 142
0.626041 -0.514846 0.093694 68 1 84
-0.629577 -0.502629 0.135030 68 1 84
-0.641131 -0.140443 0.197152 68 1 84
-0.357573 -0.506336 -0.260084 71 43 122
0.051952 0.272857 -0.232403 31 146 140
-0.682432 -0.245413 0.450098 68 1 84
-0.064643 0.192572 -0.263541 30 155 137
0.159591 0.474187 -0.127865 68 1 84
-0.122417 0.307860 -0.223031 44 113 142
-0.075110 -0.340387 -0.210064 64 67 135
0.415626 0.415464 0.070779 50 98 141
-0.676382 -0.231770 0.413569 68 1 84
0.683965 -0.291135 0.309216 68 1 84
-0.567687 0.158269 0.474541 68 1 84
-0.682958 -0.241775 0.470831 68 1 84
0.099741 -0.370497 -0.226102 61 75 137
-0.552979 0.007191 -0.006220 68 1 84
0.197310 -0.283336 -0.153000 57 85 139
-0.437054 0.423596 0.150236 68 1 84
-0.667784 -0.347301 0.222970 68 1 84
0.437395 0.394774 0.086239 51 97 141
0.591977 0.212697 0.334537 70 48 125
0.352663 -0.395669 -0.217917 68 1 84
0.030809 0.205832 -0.265011 38 172 129
0.484500 0.195909 0.004152 42 118 142
0.236305 -0.412117 -0.240657 46 107 142
0.577352 0.196987 0.170578 68 1 84
0.041400 -0.163451 -0.388545 68 1 84
-0.460197 -0.054543 -0.115853 68 1 84
-0.642206 -0.153168 0.172777 68 1 84
-0.277107 -0.072812 -0.163310 33 141 140
0.415186 -0.424374 -0.203543 68 1 84
-0.095305 -0.034568 -0.351954 71 20 102
-0.704603 -0.417863 0.345738 68 1 84
0.624617 0.037583 0.289968 68 1 84
0.675516 -0.425044 0.271753 68 1 84
-0.248465 0.551116 -0.072959 68 1 84
0.132688 0.658666 -0.052524 68 1 84
-0.387779 0.471077 0.088899 70 49 126
-0.605319 -0.023794 0.541923 40 122 142
0.601454 -0.082992 0.057890 68 1 84
0.143092 -0.426960 -0.287222 54 90 140
-0.416609 0.465175 0.242414 51 97 141
-0.015554 0.101884 -0.418541 43 116 142
0.606373 0.016871 0.146819 68 1 84
-0.580075 0.082369 0.500470 44 112 142
0.005199 0.119266 -0.304313 66 190 113
0.004718 -0.434699 -0.317548 71 15 98
-0.590811 0.078050 0.466883 68 1 84
0.649800 -0.061628 0.400848 68 1 84
0.487072 -0.194387 -0.068852 68 1 84
-0.593541 0.085994 0.447237 70 12 95
0.454891 -0.395779 -0.158845 68 1 84
-0.184130 0.475123 -0.133289 68 1 84
-0.431804 0.241224 -0.027345 68 1 84
0.657771 -0.240130 0.201720 68 1 84
-0.159633 0.611075 -0.127901 68 1 84
0.644137 -0.034868 0.393520 68 1 84
-0.182867 0.216147 -0.206744 42 117 142
0.590849 0.111899 0.154540 68 1 84
-0.408506 -0.005016 -0.134061 68 1 84
-0.607801 0.053150 0.352364 68 1 84
0.550067 0.284069 0.190400 59 81 138
-0.578727 0.181098 0.237111 68 1 84
-0.072934 0.448075 -0.180105 68 1 84
-0.437718 -0.483498 -0.218211 54 90 140
-0.128001 -0.095007 -0.232871 37 130 142
-0.480875 0.369878 0.396689 32 165 133
0.053576 -0.238639 -0.317814 68 1 84
-0.428877 0.441339 0.165249 68 1 84
0.509279 -0.058165 -0.067459 68 1 84
-0.294132 -0.281382 -0.178218 51 97 141
-0.625067 -0.036873 0.227458 68 1 84
0.644116 -0.106583 0.256159 68 1 84
0.591813 -0.404973 0.024241 68 1 84
-0.492212 0.347536 0.174972 68 1 84
0.201517 0.495045 -0.099064 68 1 84
-0.087099 0.066625 -0.268731 42 176 126
0.523103 0.077855 -0.006283 68 1 84
-0.678153 -0.144526 0.487794 69 6 90
0.620663 -0.024113 0.468252 68 1 84
0.394483 -0.010101 -0.134273 68 1 84
-0.017760 -0.364700 -0.279938 69 53 128
-0.040237 0.317957 -0.252278 39 125 142
0.349654 0.365561 -0.056140 71 40 120
0.253171 -0.447376 -0.268095 68 57 130
-0.287451 -0.052930 -0.163620 42 117 142
-0.429055 0.450498 0.218891 68 3 87
0.409742 0.379887 0.025723 68 1 84
-0.333497 0.333257 -0.090319 69 53 128
-0.598434 -0.455617 0.046884 68 1 84
-0.500252 -0.256134 -0.055668 68 1 84
-0.589749 0.053895 0.485873 50 98 141
-0.557066 -0.415674 -0.053479 70 14 97
0.092299 0.065584 -0.284264 41 121 142
-0.279414 -0.205495 -0.161999 47 105 141
-0.463226 0.323802 0.079204 68 1 84
-0.069428 -0.175671 -0.306317 57 84 139
0.465887 0.260793 0.015461 64 68 135
0.416121 -0.092282 -0.124666 68 1 84
-0.410376 -0.227622 -0.119263 71 21 103
0.604498 0.125457 0.211068 68 1 84
-0.172559 0.661729 -0.017563 56 86 139
0.229147 0.257445 -0.170251 46 109 142
-0.303304 0.001983 -0.162713 48 103 141
-0.529585 0.252130 0.150626 68 1 84
0.654841 -0.078875 0.388201 68 1 84
0.117570 -0.045272 -0.330375 66 61 132
-0.484213 0.103384 -0.041668 68 1 84
-0.389535 0.113973 -0.113807 72 25 107
0.343499 0.503630 0.056425 63 71 136
-0.115267 0.129154 -0.226668 129 211 76
-0.146383 -0.039724 -0.213859 35 137 141
0.588390 -0.074268 0.031819 68 1 84
0.649640 -0.491330 0.172506 68 1 84
0.126208 -0.427639 -0.293412 50 98 141
0.138730 0.615917 -0.112542 68 1 84
0.689354 -0.352452 0.417113 68 1 84
0.092157 -0.055420 -0.420928 68 1 84
-0.633313 -0.395079 0.131055 68 1 84
0.592852 0.018528 0.098470 68 1 84
-0.586436 -0.168730 0.012799 68 1 84
0.470023 0.374596 0.125800 65 65 134
0.615999 0.063658 0.227300 68 1 84
-0.291242 0.580834 0.046198 72 29 111
-0.505128 0.276241 0.118839 68 1 84
0.056872 -0.092976 -0.429562 68 1 84
0.612466 -0.327237 0.100112 68 1 84
0.538176 0.248530 0.468851 32 144 140
-0.603881 -0.521488 0.048992 68 1 84
0.309371 0.371364 -0.083161 40 122 142
0.102946 0.275731 -0.211940 112 206 86
0.478190 0.313972 0.071105 35 135 141
0.643962 -0.104497 0.512812 68 1 84
-0.195955 -0.405990 -0.245019 44 113 142
-0.531921 0.316660 0.328081 45 111 142
0.693078 -0.152216 0.480411 68 1 84
0.613816 -0.023174 0.483186 68 1 84
0.045086 0.241221 -0.259142 30 156 137
0.476956 -0.418700 -0.156714 68 1 84
-0.149847 -0.195852 -0.171422 33 140 141
-0.119684 0.662827 -0.094876 68 1 84
-0.193722 0.551740 -0.125036 68 1 84
-0.696921 -0.292704 0.461362 70 12 95
-0.657789 -0.157049 0.291500 68 1 84
-0.436685 0.297846 0.012355 68 1 84
0.559064 -0.511590 -0.062829 68 1 84
0.611129 -0.128164 0.072334 68 1 84
0.645565 -0.051756 0.416769 68 1 84
-0.478886 0.311227 0.097776 68 1 84
0.607114 0.105191 0.209496 68 1 84
-0.305688 -0.441472 -0.259795 44 113 142
-0.650058 -0.151739 0.233310 68 1 84
-0.589386 0.034064 0.124476 68 1 84
0.686415 -0.256621 0.319804 68 1 84
0.569658 -0.378907 -0.005073 68 1 84
0.214583 0.102651 -0.167264 50 98 141
-0.498496 0.332280 0.440166 30 154 137
-0.666381 -0.196750 0.393872 68 1 84
-0.264957 0.225298 -0.162552 54 90 140
0.289029 -0.318641 -0.159384 71 15 98
0.390084 0.384406 0.003278 61 76 137
0.100146 0.049433 -0.431242 69 6 90
-0.704623 -0.335202 0.410652 68 1 84
-0.081101 -0.108186 -0.326652 72 32 113
0.197212 0.023415 -0.173603 46 108 142
-0.645589 -0.111389 0.495770 68 1 84
0.685044 -0.453463 0.317431 68 1 84
-0.437153 0.160298 -0.058919 68 1 84
0.124978 0.131845 -0.218025 103 204 92
0.164659 -0.103988 -0.198560 40 122 142
-0.133304 -0.354562 -0.184754 52 94 141
0.458573 -0.228951 -0.076651 68 1 84
0.660969 -0.225399 0.224137 68 1 84
0.510911 0.303020 0.118574 54 90 140
0.181185 -0.066537 -0.189610 35 137 141
-0.628208 -0.480656 0.112499 68 1 84
-0.633685 -0.065114 0.313381 68 1 84
-0.081582 -0.044725 -0.394807 68 1 84
0.475088 0.403117 0.248575 58 82 139
-0.588607 -0.444541 0.019514 68 1 84
0.465591 -0.317760 -0.071989 68 1 84
0.253160 -0.047807 -0.167000 68 1 84
0.626467 0.017212 0.403010 68 1 84
-0.683113 -0.477851 0.265565 68 1 84
-0.400068 0.356391 -0.004887 68 1 84
-0.635624 -0.069935 0.369832 70 11 94
-0.447673 0.176685 -0.039462 68 1 84
0.689616 -0.192810 0.524600 68 1 84
-0.536928 0.252654 0.467425 46 107 142
-0.322852 0.160573 -0.138261 63 69 135
0.227784 -0.185445 -0.153647 68 1 84
0.618920 -0.144170 0.090299 68 1 84
0.039512 -0.212545 -0.353794 68 1 84
-0.620955 -0.010111 0.346217 72 26 108
0.598655 0.001161 0.103016 68 1 84
-0.504468 -0.503694 -0.145642 67 60 132
0.672493 -0.493701 0.239775 68 1 84
-0.647852 -0.123798 0.327849 68 1 84
0.119536 0.050491 -0.382051 67 60 132
0.575551 -0.362501 0.015918 68 1 84
0.519002 0.338274 0.345636 40 122 142
0.176625 -0.000318 -0.188709 40 122 142
-0.363784 0.494257 0.064193 72 34 115
0.481545 -0.497884 -0.165942 68 1 84
-0.668189 -0.307572 0.239609 68 1 84
0.076973 -0.192729 -0.310818 68 1 84
0.709565 -0.130442 0.432743 68 1 84
-0.457670 0.410513 0.199691 68 1 84
0.435977 -0.035550 -0.115358 68 1 84
-0.729118 -0.488607 0.448937 68 1 84
-0.096296 -0.036885 -0.340715 70 9 92
-0.591679 -0.396700 0.034786 68 1 84
0.610830 -0.487678 0.039643 68 1 84
0.335153 0.085404 -0.149011 70 14 97
-0.629314 -0.076576 0.212891 68 1 84
0.277328 -0.428671 -0.252216 71 44 123
0.690518 -0.256096 0.330921 68 1 84
0.185263 -0.380238 -0.203589 55 88 140
-0.228439 -0.184852 -0.161340 44 112 142
-0.162845 0.259017 -0.204780 49 102 141
-0.574209 0.218173 0.305420 68 1 84
-0.569673 -0.514479 -0.030404 68 1 84
0.290983 0.558733 0.047490 63 71 136
-0.302190 0.449170 -0.056971 72 26 108
0.391856 0.404658 0.022838 68 1 84
-0.645784 -0.113213 0.312617 68 1 84
0.603021 0.135828 0.211049 68 1 84
-0.183919 0.267886 -0.183209 33 142 140
0.407738 -0.353228 -0.135928 68 1 84
0.688472 -0.334385 0.388914 68 1 84
0.165996 -0.000032 -0.221639 42 118 142
0.110465 0.184028 -0.238082 69 191 111
0.588327 0.140922 0.164075 68 1 84
-0.533145 0.311261 0.255459 71 20 102
0.462270 0.104001 -0.066621 68 1 84
-0.634505 -0.068031 0.334425 68 1 84
0.119208 -0.038673 -0.337868 72 25 107
-0.411631 -0.533669 -0.233447 70 45 124
0.431558 -0.215478 -0.095620 68 1 84
-0.122059 0.479897 -0.168878 68 1 84
-0.584576 -0.530050 0.003136 68 1 84
0.557682 -0.502590 -0.063922 68 1 84
-0.623623 -0.096041 0.135604 68 1 84
0.525180 0.221187 0.078103 70 14 97
0.066929 -0.239098 -0.291679 68 1 84
-0.250544 0.503892 -0.081526 68 1 84
-0.277376 -0.431341 -0.260469 51 96 141
0.667049 -0.146910 0.325650 68 1 84
0.579193 0.255036 0.272015 51 96 141
-0.468877 0.352458 0.121605 68 1 84
-0.595185 0.068781 0.196350 70 12 95
-0.416743 0.464590 0.214744 58 83 139
-0.664566 -0.289294 0.232878 68 1 84
-0.114272 0.477590 -0.171827 68 1 84
0.142925 0.283278 -0.185471 36 170 130
-0.430728 0.195689 -0.049965 68 1 84
0.103890 -0.384748 -0.246511 52 95 141
-0.280063 -0.038715 -0.165220 35 137 141
0.542171 0.236794 0.120487 45 111 142
-0.585133 0.173163 0.272024 68 1 84
-0.328490 -0.042794 -0.157555 54 91 140
-0.550986 -0.398537 -0.056848 68 1 84
-0.583794 0.178483 0.349380 68 1 84
0.682617 -0.266369 0.307043 68 1 84
-0.171619 0.287913 -0.177732 48 103 141
0.184990 -0.372954 -0.194129 47 106 141
0.589855 0.052578 0.114454 68 1 84
0.516656 0.060960 -0.022711 68 1 84
0.704784 -0.531025 0.426976 68 1 84
0.612657 0.125854 0.269979 68 1 84
-0.518259 0.144787 0.035204 68 1 84
-0.281157 0.338896 -0.115506 69 50 127
-0.182545 0.285122 -0.169589 46 108 142
0.639802 -0.445741 0.154228 68 1 84
0.157945 -0.281890 -0.153458 72 29 111
0.339467 0.517410 0.077799 65 65 134
-0.156310 -0.133108 -0.188629 38 129 142
-0.451442 0.299664 0.037624 68 1 84
0.600667 -0.409123 0.054060 68 1 84
-0.400832 0.040193 -0.127256 72 29 111
0.048999 0.169610 -0.266556 121 209 81
0.312075 -0.226349 -0.147644 68 1 84
0.131007 0.238907 -0.228783 33 166 133
0.192918 -0.085987 -0.179547 43 116 142
-0.400717 0.028964 -0.130248 71 43 122
-0.162463 0.555850 -0.148945 68 1 84
0.092802 -0.081549 -0.383385 68 1 84
-0.599499 0.108743 0.327689 72 28 110
-0.485583 0.074367 -0.055770 68 1 84
-0.208196 -0.096192 -0.173982 32 145 140
-0.698852 -0.173046 0.465234 68 1 84
0.385239 -0.242896 -0.120964 68 1 84
-0.595037 0.020841 0.494337 51 96 141
0.254661 0.577919 -0.006560 61 75 137
-0.324786 0.549672 0.197303 46 107 142
0.193540 -0.194644 -0.160429 62 73 137
-0.593050 -0.213345 0.028635 68 1 84
0.641510 -0.515801 0.143007 68 1 84
0.637533 -0.058935 0.448781 68 1 84
-0.222485 0.276150 -0.154325 53 92 140
-0.040251 0.239892 -0.262596 30 157 136
0.555180 0.299569 0.313294 61 76 137
-0.538547 0.288029 0.224737 68 1 84
-0.240166 -0.419787 -0.257882 47 106 141
0.389337 -0.435481 -0.222841 68 1 84
-0.621388 -0.010304 0.304976 68 1 84
0.654644 -0.111999 0.538293 68 1 84
-0.635351 -0.193925 0.123334 68 1 84
0.609480 0.150517 0.298093 69 5 88
0.333062 0.408324 -0.041649 46 108 142
-0.675512 -0.279327 0.304782 71 37 117
-0.583933 0.121714 0.448925 68 1 84
-0.321042 -0.497702 -0.271190 70 11 94
-0.035773 0.357667 -0.238047 37 131 141
-0.262338 -0.056742 -0.166897 31 147 139
-0.335428 0.350792 -0.081160 71 22 105
-0.434842 -0.325890 -0.109645 70 11 94
0.681304 -0.130166 0.491699 68 1 84
0.416163 0.324886 -0.008413 61 75 137
0.624908 0.020822 0.262474 68 1 84
-0.098733 0.504682 -0.182694 68 1 84
0.282118 -0.286037 -0.164044 68 1 84
0.139499 -0.102545 -0.237883 53 92 140
-0.517724 0.038611 -0.039832 68 1 84
0.306919 0.519494 0.009504 53 92 140
0.012280 0.049541 -0.481374 68 1 84
-0.164442 -0.241887 -0.164100 46 108 142
-0.415394 0.462805 0.184226 68 1 84
0.150034 0.113040 -0.194246 59 186 117
0.623575 -0.119707 0.110733 68 1 84
0.354333 -0.449382 -0.245312 68 1 84
-0.411291 0.205376 -0.064621 68 1 84
-0.540787 0.284463 0.390108 58 82 139
0.380991 0.187440 -0.104258 68 1 84
-0.528723 -0.393905 -0.093706 72 29 111
0.401536 0.185363 -0.090949 68 1 84
0.030294 -0.201528 -0.367841 68 1 84
-0.423843 0.455069 0.291096 44 112 142
0.573966 0.093832 0.095206 68 1 84
0.064528 0.123804 -0.277675 40 174 127
0.275469 0.021873 -0.166982 64 67 135
-0.620722 -0.072869 0.153798 68 1 84
-0.285452 -0.101502 -0.158594 35 136 141
0.001887 -0.282366 -0.311665 68 1 84
0.532824 0.334435 0.241476 31 149 139
0.125694 0.267287 -0.205829 56 185 118
-0.615015 0.014564 0.361085 67 59 131
0.297335 0.560517 0.111767 40 174 127
-0.505774 0.348228 0.226708 70 45 124
-0.729545 -0.439445 0.450112 68 1 84
0.048930 0.064845 -0.465058 68 1 84
-0.452334 0.170650 -0.037273 68 1 84
0.228992 0.317280 -0.140024 35 135 141
0.571372 -0.390329 -0.010280 68 1 84
-0.540522 0.152475 0.087545 68 1 84
0.365547 0.501792 0.199361 51 182 121
-0.034312 0.191266 -0.266377 87 198 101
-0.539942 0.207677 0.524031 31 147 139
-0.362637 0.072175 -0.136961 67 59 131
-0.170904 0.386880 -0.164408 67 60 132
-0.667205 -0.138455 0.438821 68 1 84
0.652363 -0.074672 0.348050 68 1 84
-0.127142 -0.013680 -0.289028 46 109 142
-0.343517 0.534465 0.207516 62 73 137
0.594760 -0.410387 0.027890 68 1 84
0.416733 0.401075 0.056188 56 87 140
0.273878 0.087421 -0.161780 72 29 111
0.548242 0.137358 0.066968 70 12 95
-0.501300 -0.088353 -0.090327 68 1 84
0.085512 -0.123809 -0.352632 68 1 84
-0.526230 -0.452649 -0.118803 65 65 134
-0.537345 0.275762 0.424293 50 99 141
-0.394532 -0.413119 -0.216501 42 118 142
0.033649 0.025502 -0.485270 68 1 84
0.486340 -0.498735 -0.161129 68 1 84
-0.469735 -0.295915 -0.078020 71 17 99
-0.274505 -0.297707 -0.176273 40 122 142
0.258802 0.586395 0.029391 70 49 126
-0.074693 -0.218878 -0.254779 56 86 139
0.677162 -0.445200 0.274603 68 1 84
-0.519861 0.295220 0.175068 68 1 84
0.345654 0.518284 0.104630 31 149 139
0.137013 0.138510 -0.211621 56 185 118
-0.592373 -0.317965 0.036990 68 1 84
0.583429 -0.016820 0.045687 68 1 84
0.604264 -0.032543 0.093146 68 1 84
0.114419 0.662828 -0.066120 68 1 84
0.558013 0.283311 0.219149 62 72 136
-0.101333 0.064646 -0.365596 45 111 142
0.722467 -0.155538 0.378233 68 1 84
-0.047494 0.346485 -0.245635 49 102 141
-0.088815 -0.252415 -0.199716 62 73 137
0.135495 0.112760 -0.204354 69 191 111
0.691669 -0.192035 0.498196 68 1 84
-0.234498 0.577176 -0.077744 68 1 84
-0.090160 -0.249988 -0.199562 59 80 138
-0.583633 0.044824 0.111912 68 1 84
-0.088442 -0.223956 -0.221295 58 82 139
0.014750 0.378500 -0.213927 37 171 129
0.277769 0.288900 -0.137487 54 90 140
-0.507568 0.341701 0.377293 30 159 136
0.173167 -0.087451 -0.193140 44 114 142
-0.087959 -0.062636 -0.339976 72 34 115
-0.498262 0.305818 0.133697 68 1 84
-0.669604 -0.183812 0.402664 68 1 84
0.625578 0.006910 0.251945 68 1 84
0.671334 -0.352569 0.269933 68 1 84
0.345088 -0.040477 -0.149154 68 1 84
0.323933 0.433804 -0.033374 67 59 131
-0.194492 -0.070397 -0.179386 31 161 135
0.564173 0.148014 0.496716 71 37 117
0.626247 -0.329712 0.139743 68 1 84
0.137646 0.364482 -0.182856 58 83 139
-0.000633 0.539284 -0.194365 68 1 84
-0.106955 0.311656 -0.232427 47 106 141
0.686519 -0.462167 0.322103 68 1 84
-0.368057 0.512573 0.172798 54 91 140
0.702863 -0.570145 0.408461 68 1 84
-0.649194 -0.199424 0.174341 68 1 84
0.014355 -0.231794 -0.352916 68 1 84
0.463005 0.102343 -0.066371 68 1 84
-0.220365 0.278041 -0.152882 54 91 140
-0.177974 0.658862 -0.023239 49 102 141
-0.130776 -0.429243 -0.299631 66 64 133
0.642602 -0.048580 0.426313 68 1 84
0.104370 0.037910 -0.434103 68 1 84
-0.573701 0.216002 0.354255 67 59 131
0.299176 -0.311529 -0.158559 68 1 84
-0.013964 0.017888 -0.485452 68 1 84
-0.585015 0.145180 0.407675 72 32 113
-0.563471 0.160759 0.155565 68 1 84
-0.108695 -0.252392 -0.178580 54 90 140
-0.575802 -0.269527 0.012823 68 1 84
0.615058 0.114607 0.284833 68 1 84
0.626224 -0.481742 0.104922 68 1 84
-0.540125 0.280999 0.401452 67 60 132
0.202926 0.629111 0.002341 71 40 120
0.153133 0.567210 -0.126004 68 1 84
0.242667 0.331504 -0.132413 66 62 133
-0.192683 -0.078779 -0.179242 32 145 140
-0.361220 -0.406722 -0.231382 48 104 141
-0.555985 0.206731 0.463908 71 44 123
0.158661 0.211394 -0.216560 33 142 140
0.241326 -0.132450 -0.158238 68 3 87
-0.123468 -0.269556 -0.166699 51 96 141
0.269309 0.398980 -0.092926 60 77 138
-0.063409 0.071537 -0.367929 32 164 133
-0.057334 0.075928 -0.290518 32 164 133
0.703097 -0.183871 0.418997 68 1 84
0.536562 -0.098799 -0.044958 68 1 84
0.608563 0.042326 0.457055 68 1 84
-0.611517 0.038222 0.301632 68 1 84
-0.500959 -0.039713 -0.086189 68 1 84
0.691718 -0.279818 0.383572 68 1 84
-0.248854 0.261907 -0.158695 45 111 142
0.091807 -0.274930 -0.206807 57 84 139
0.084911 0.674093 -0.064895 68 1 84
-0.019452 -0.248942 -0.331730 68 3 87
0.432746 0.303650 -0.001061 71 43 122
0.201094 0.324925 -0.153279 46 109 142
-0.562536 0.066827 0.065588 68 1 84
0.341474 0.281166 -0.102440 51 96 141
-0.574370 -0.185450 -0.002926 68 1 84
0.140889 0.020582 -0.350087 69 5 88
0.686407 -0.393055 0.357842 68 1 84
0.169630 0.028310 -0.191534 33 141 140
0.150874 -0.256060 -0.162897 65 65 134
0.543930 0.029023 0.000145 68 1 84
0.234425 0.128252 -0.165860 40 122 142
-0.205985 -0.427132 -0.268224 53 93 140
0.197476 0.281630 -0.157643 30 155 137
0.421607 0.451885 0.173083 53 93 140
0.698069 -0.555052 0.362288 68 1 84
0.693266 -0.229232 0.463295 68 1 84
0.124606 -0.124300 -0.256401 63 71 136
-0.557400 -0.032335 -0.019696 68 1 84
0.629996 -0.092008 0.171024 68 1 84
-0.578845 0.000617 0.043776 68 1 84
-0.024920 0.495607 -0.194187 68 1 84
0.058849 -0.273886 -0.279225 68 1 84
0.697096 -0.443383 0.422569 68 1 84
0.710658 -0.203906 0.386556 68 1 84
-0.584380 -0.023596 0.037256 68 1 84
0.373233 0.223870 -0.097287 71 21 103
-0.102654 0.396458 -0.186397 70 48 125
-0.599857 -0.496179 0.042684 68 1 84
-0.616716 -0.058519 0.494453 62 72 136
-0.022372 0.294945 -0.244406 40 122 142
-0.044425 0.681830 -0.075549 69 6 90
0.463424 0.376916 0.114960 59 81 138
0.419544 0.350234 0.014082 44 114 142
0.086243 0.233458 -0.250603 30 158 136
-0.449066 -0.128402 -0.117305 68 1 84
-0.657524 -0.508019 0.200930 68 1 84
-0.313662 -0.335527 -0.179526 49 101 141
0.667172 -0.456294 0.213901 68 1 84
-0.011863 -0.432505 -0.317049 71 37 117
0.145654 0.650427 -0.059170 68 1 84
0.333883 0.531297 0.126722 49 100 141
-0.437763 0.089818 -0.089319 69 8 91
0.013829 0.117302 -0.309684 57 185 118
0.122558 0.659566 -0.066499 68 1 84
-0.335908 0.294644 -0.104355 61 74 137
0.420125 0.094841 -0.106192 68 1 84
0.503603 0.351249 0.169069 68 1 84
0.354591 0.033865 -0.148229 68 1 84
0.019213 0.676813 -0.096409 68 1 84
-0.090577 -0.379738 -0.242542 61 74 137
-0.645818 -0.509202 0.175797 68 1 84
0.022388 -0.159652 -0.402873 68 1 84
0.452159 0.347392 0.060120 39 126 142
0.694659 -0.445695 0.393342 68 1 84
-0.572517 -0.070888 -0.006779 68 1 84
-0.583625 0.030949 0.096105 68 1 84
-0.492060 0.337735 0.159238 68 1 84
0.074140 -0.279912 -0.237499 72 34 115
0.123734 -0.252975 -0.178902 64 68 135
0.539157 -0.414347 -0.074393 68 1 84
-0.696660 -0.426157 0.316053 68 1 84
0.193559 0.243852 -0.192620 30 153 138
-0.552076 -0.091283 -0.039032 68 1 84
-0.647893 -0.123395 0.325241 68 1 84
0.260915 -0.451228 -0.269905 63 69 135
0.383490 -0.490528 -0.254102 68 1 84
0.707771 -0.123377 0.370881 68 1 84
0.620656 0.043556 0.373100 68 1 84
0.020145 0.109888 -0.330992 56 185 118
-0.074763 0.380432 -0.205713 34 139 141
0.118826 0.007896 -0.409831 68 1 84
0.096178 0.050126 -0.437692 68 2 85
-0.609416 -0.278527 0.071105 68 1 84
-0.423768 -0.297017 -0.113439 72 34 115
0.178340 -0.102473 -0.187264 39 124 142
-0.140788 -0.302772 -0.155806 42 119 142
-0.345072 0.200144 -0.119993 71 43 122
-0.591742 -0.016085 0.069914 68 1 84
-0.124672 0.111179 -0.213829 30 152 138
0.575965 0.179428 0.436983 71 42 121
-0.460339 0.308096 0.059847 68 1 84
0.127412 0.608878 -0.126377 68 1 84
-0.587261 0.127091 0.422427 67 58 131
-0.270817 0.588315 -0.009522 68 1 84
0.575988 0.091552 0.512274 69 50 127
0.697003 -0.189497 0.458965 68 1 84
-0.009090 -0.232759 -0.350906 68 1 84
-0.603656 -0.277939 0.058023 68 1 84
0.290341 -0.175179 -0.147727 68 1 84
-0.429734 -0.249694 -0.107087 71 20 102
-0.488555 0.156549 -0.001529 68 1 84
0.353653 0.513925 0.165845 62 188 115
0.181712 -0.410366 -0.244191 42 118 142
0.613081 0.121037 0.267204 68 1 84
-0.168325 0.300400 -0.183495 35 137 141
0.458470 -0.503867 -0.190298 68 1 84
-0.659328 -0.168316 0.291286 68 1 84
0.308316 0.390668 -0.073201 50 98 141
-0.660953 -0.299633 0.196557 68 1 84
0.656531 -0.088851 0.364135 68 1 84
0.156974 0.122040 -0.193945 48 180 122
-0.503161 -0.397222 -0.130334 67 58 131
0.342847 0.522280 0.169436 31 162 134
-0.161050 0.142059 -0.202961 30 158 136
-0.529863 0.237018 0.136335 68 1 84
-0.581172 0.060157 0.518422 42 118 142
-0.067953 -0.350251 -0.232136 57 84 139
0.227085 0.042992 -0.168489 52 94 141
-0.529962 -0.215948 -0.042195 68 1 84
-0.108637 -0.427555 -0.302886 66 64 133
0.064337 -0.425825 -0.309459 72 29 111
0.571794 -0.228497 0.014972 68 1 84
-0.474000 -0.477747 -0.187711 58 82 139
0.227769 -0.489747 -0.302412 71 18 101
-0.569863 0.187406 0.204188 68 1 84
-0.145455 0.670477 -0.031897 66 62 133
-0.668301 -0.425509 0.227571 68 1 84
0.222438 0.370350 -0.131304 71 42 121
0.688223 -0.306705 0.375536 68 1 84
0.223586 0.443495 -0.098225 40 122 142
0.624977 -0.068705 0.161844 68 1 84
-0.490015 -0.422738 -0.162140 60 78 138
-0.445641 0.366633 0.087855 68 1 84
0.088542 -0.148484 -0.323069 68 1 84
0.701429 -0.196648 0.420901 68 1 84
-0.014102 -0.436778 -0.317018 71 40 120
0.381561 0.468012 0.077623 52 95 141
-0.151184 -0.207806 -0.168032 34 137 141
0.662709 -0.095245 0.446342 68 1 84
-0.112032 0.450838 -0.168106 68 1 84
0.654979 -0.427794 0.192572 68 1 84
-0.569796 0.220984 0.257374 68 1 84
0.079678 0.064187 -0.446411 68 1 84
-0.111515 0.279724 -0.218356 30 153 138
0.071410 0.061572 -0.334865 49 101 141
0.453161 0.422745 0.200584 50 99 141
-0.446255 -0.180374 -0.105328 68 1 84
0.041936 0.058195 -0.471825 68 1 84
0.097237 0.340181 -0.222659 39 125 142
0.004379 0.570973 -0.189033 68 1 84
0.058552 -0.319767 -0.255400 69 53 128
0.527107 0.326223 0.352205 34 139 141
-0.308497 -0.470360 -0.270333 68 55 129
0.217118 0.611184 -0.024060 68 3 87
-0.047942 -0.225281 -0.317443 71 37 117
-0.587549 0.163912 0.344755 68 1 84
0.694847 -0.471178 0.371727 68 1 84
-0.571215 -0.124352 -0.013617 68 1 84
-0.597546 0.119434 0.329741 72 34 115
-0.556214 0.191502 0.160940 68 1 84
0.526976 -0.438087 -0.102232 68 1 84
0.618375 -0.014154 0.178920 68 1 84
0.216429 0.419144 -0.112049 60 77 138
-0.291847 -0.009435 -0.165175 45 111 142
-0.314491 0.559167 0.178060 52 94 141
-0.068672 -0.364915 -0.247310 69 54 129
0.525114 0.312334 0.388697 50 98 141
-0.455215 0.376091 0.121297 68 1 84
0.271215 -0.347598 -0.164337 71 22 105
-0.585094 0.175444 0.281844 68 1 84
0.084867 -0.099627 -0.382001 68 1 84
-0.606513 -0.345324 0.077281 68 1 84
-0.685400 -0.168768 0.434108 68 1 84
0.268914 0.272586 -0.148190 64 68 135
0.590630 0.164551 0.407258 47 106 141
-0.433898 -0.519253 -0.219034 68 55 129
0.393688 -0.345876 -0.134067 68 1 84
-0.430600 -0.004062 -0.124552 68 1 84
-0.554205 0.200736 0.479752 62 73 137
-0.621689 -0.013017 0.321164 70 9 92
0.489228 0.388609 0.259141 34 139 141
0.508093 0.115348 -0.007953 68 1 84
0.512630 -0.041674 -0.061346 68 1 84
-0.180455 -0.177755 -0.166835 41 121 142
0.544938 -0.507448 -0.081326 68 1 84
0.345930 0.477999 0.026063 40 123 142
0.455694 0.416917 0.182950 36 134 141
-0.420771 -0.016853 -0.130957 68 1 84
0.538379 0.281446 0.413112 57 84 139
-0.256037 0.613125 0.088477 71 44 123
-0.152814 0.044676 -0.277814 56 185 118
-0.418194 -0.461640 -0.225237 55 89 140
-0.056729 -0.330172 -0.240960 69 50 127
-0.176299 -0.362320 -0.185057 50 98 141
-0.015807 0.315519 -0.253118 41 120 142
0.606077 0.015704 0.144807 68 1 84
-0.308349 -0.288780 -0.177815 49 101 141
-0.605869 -0.542208 0.054143 68 1 84
-0.298629 0.107254 -0.154493 68 57 130
-0.546277 0.211562 0.153009 68 1 84
-0.528910 -0.115956 -0.064914 68 1 84
-0.457531 -0.152983 -0.107237 68 1 84
0.184750 0.639500 0.025905 38 128 142
-0.002648 0.607530 -0.174994 68 1 84
0.131331 0.414401 -0.157542 51 97 141
0.085061 -0.362608 -0.233806 58 82 139
0.703341 -0.221082 0.393827 68 1 84
0.604156 0.080238 0.180528 68 1 84
0.673072 -0.321656 0.269958 68 1 84
-0.625374 -0.104192 0.136040 68 1 84
0.577344 -0.403560 -0.011885 68 1 84
-0.680375 -0.453274 0.261198 68 1 84
-0.686034 -0.272455 0.415364 68 1 84
0.584391 -0.239206 0.032813 68 1 84
0.600707 -0.162746 0.050098 68 1 84
0.009818 -0.239110 -0.347598 68 1 84
-0.120723 0.675533 -0.056100 71 24 106
0.314246 0.000485 -0.159806 68 1 84
-0.581447 -0.510958 -0.003259 69 8 91
-0.510384 0.269348 0.124040 68 1 84
-0.544185 -0.155895 -0.043835 68 1 84
0.437293 -0.234237 -0.088526 68 1 84
0.611525 0.138500 0.306820 72 35 116
0.104832 0.142091 -0.236886 119 208 82
0.586452 0.177044 0.182672 68 1 84
0.374500 0.465469 0.059638 50 99 141
-0.580177 -0.015805 0.032879 68 1 84
-0.213992 0.458432 -0.113574 68 1 84
-0.309462 0.557075 0.033821 68 1 84
-0.097511 0.048096 -0.398142 71 44 123
0.605146 0.106264 0.401416 68 1 84
-0.425665 -0.400849 -0.188486 57 84 139
-0.410855 0.115563 -0.099467 72 25 107
-0.215442 0.616261 -0.069621 68 1 84
-0.050584 -0.072089 -0.426438 68 1 84
0.611060 0.000821 0.155511 68 1 84
0.373265 -0.115637 -0.137186 68 1 84
0.324394 -0.063769 -0.151996 68 1 84
0.284290 0.176419 -0.153542 55 88 140
-0.558405 -0.393486 -0.040160 70 11 94
0.296439 0.384636 -0.084198 70 49 126
-0.603354 0.088272 0.304332 68 1 84
-0.656337 -0.160107 0.316050 68 1 84
0.410308 -0.093204 -0.126813 68 1 84
0.256453 -0.454664 -0.273979 69 50 127
-0.394018 0.421872 0.040981 68 1 84
-0.555866 0.254658 0.383758 60 78 138
0.558598 -0.161405 -0.014350 68 1 84
0.132689 0.002434 -0.361291 68 1 84
-0.581917 0.133958 0.442072 68 1 84
0.028946 0.124065 -0.293566 50 181 122
-0.184143 0.175188 -0.201909 42 119 142
0.150092 0.071145 -0.225200 43 177 125
0.501032 0.098883 -0.024532 68 1 84
0.689602 -0.333067 0.464081 68 1 84
-0.595247 -0.482628 0.032881 68 1 84
-0.696368 -0.406457 0.322494 68 1 84
0.058253 -0.200320 -0.340886 68 1 84
-0.106555 0.675867 -0.073227 70 48 125
0.690434 -0.264263 0.491948 68 1 84
0.409926 0.463607 0.215670 52 95 141
0.098777 0.060839 -0.368733 55 89 140
0.270977 0.561239 -0.000324 59 81 138
-0.596219 0.123972 0.282699 68 1 84
0.089825 0.025455 -0.459082 68 1 84
-0.077369 -0.105893 -0.339306 62 73 137
0.438281 0.337486 0.029854 31 146 140
-0.241344 0.625465 0.061937 71 24 106
0.198140 -0.202292 -0.158046 60 78 138
-0.576051 0.189740 0.395996 68 1 84
0.270769 0.579860 0.121075 157 217 58
0.564883 0.028387 0.035087 68 1 84
-0.157693 -0.283026 -0.156437 44 114 142
-0.193790 0.117747 -0.178493 48 103 141
-0.386383 -0.335024 -0.147663 71 43 122
0.436011 0.147392 -0.077064 68 1 84
-0.021425 0.168961 -0.269399 73 193 109
-0.100149 0.422361 -0.173378 69 54 129
-0.563416 0.045965 0.047926 68 1 84
0.606652 -0.056498 0.082717 68 1 84
-0.025957 -0.121120 -0.417714 68 1 84
-0.606113 -0.208459 0.050788 68 1 84
-0.575843 0.091069 0.131455 68 1 84
0.678749 -0.406344 0.297114 68 1 84
0.500173 0.359354 0.176779 71 40 120
-0.297597 -0.343570 -0.183138 43 116 142
-0.465769 0.363426 0.129363 68 1 84
-0.525551 -0.320478 -0.044949 68 1 84
0.608427 0.153705 0.309369 68 1 84
0.092402 0.535188 -0.174354 68 1 84
-0.284110 -0.078670 -0.161483 33 141 140
0.558889 0.293431 0.253694 58 82 139
0.609841 0.128330 0.247023 68 1 84
-0.022070 -0.206615 -0.364370 68 1 84
-0.588096 -0.420444 0.021358 68 1 84
-0.306832 0.567191 0.068204 68 1 84
0.591573 -0.458140 -0.023004 68 1 84
0.615078 -0.027679 0.483485 68 1 84
-0.416373 0.320196 -0.005139 68 1 84
0.273854 0.345750 -0.114659 68 1 84
0.489806 -0.170456 -0.074282 68 1 84
0.234453 -0.183410 -0.153211 68 1 84
-0.543058 -0.188623 -0.038206 68 1 84
-0.528489 0.244219 0.511694 37 171 129
-0.572186 -0.408972 -0.018439 68 1 84
-0.107358 0.055457 -0.375625 60 77 138
0.156757 0.092616 -0.186161 73 193 109
0.271068 -0.474259 -0.288323 70 48 125
0.342350 0.521564 0.189347 31 163 134
0.011344 0.139632 -0.282160 157 217 58
0.298579 -0.219387 -0.148640 68 1 84
0.691823 -0.265921 0.437159 68 1 84
0.250911 0.576076 -0.018369 46 108 142
-0.593459 0.140996 0.319304 68 1 84
-0.420372 -0.086381 -0.133763 69 5 88
-0.000879 0.435482 -0.187499 39 125 142
0.696887 -0.439672 0.425897 68 1 84
-0.350080 -0.287742 -0.169421 48 104 141
-0.135777 0.391774 -0.177905 58 82 139
-0.032079 -0.260986 -0.311724 72 25 107
0.078258 0.437028 -0.170589 71 39 119
-0.581249 0.194069 0.298991 68 1 84
0.091584 0.276167 -0.218329 75 194 108
0.461841 0.295967 0.032722 31 163 134
0.231606 0.316711 -0.139158 34 139 141
0.676882 -0.455414 0.269984 68 1 84
0.700729 -0.204112 0.421198 68 1 84
0.587372 -0.360406 0.041553 68 1 84
-0.143081 -0.068483 -0.215822 34 137 141
0.207347 0.532072 -0.090420 68 1 84
0.335887 0.333285 -0.084863 46 109 142
0.663031 -0.258509 0.210216 68 1 84
0.374959 0.001454 -0.141699 68 1 84
0.544692 0.304341 0.349105 60 77 138
0.601984 -0.027595 0.089059 68 1 84
0.527462 -0.323178 -0.029873 68 1 84
-0.357498 -0.224098 -0.148559 62 73 137
-0.573682 0.217457 0.349590 69 50 127
0.615360 0.083516 0.237836 68 1 84
-0.273087 0.370180 -0.110401 70 48 125
-0.132241 -0.406488 -0.264176 52 95 141
-0.580236 0.084762 0.498132 48 104 141
-0.057170 0.284813 -0.238227 31 147 139
-0.010206 -0.203336 -0.372124 68 1 84
-0.614368 0.016517 0.369732 71 44 123
-0.181607 0.196592 -0.206366 33 141 140
0.399000 0.045008 -0.127730 68 2 85
0.599442 0.145488 0.203740 68 1 84
0.528913 0.262221 0.115534 56 86 139
0.514987 -0.357217 -0.069902 68 1 84
0.308198 0.550432 0.168636 144 214 67
0.139112 0.568316 -0.136456 68 1 84
-0.274743 -0.006663 -0.168011 49 101 141
-0.540074 0.158560 0.091751 69 8 91
-0.223726 -0.357867 -0.185672 45 111 142
0.668974 -0.241935 0.255949 68 1 84
0.507191 0.351154 0.180224 62 72 136
-0.548564 0.162561 0.115054 68 1 84
0.013256 -0.027538 -0.476251 68 1 84
-0.123485 0.671859 -0.071476 68 1 84
-0.159682 -0.452818 -0.299202 72 34 115
-0.148429 0.624726 -0.125235 68 1 84
0.643394 -0.054032 0.305237 68 1 84
0.251473 0.352911 -0.122221 64 68 135
0.487398 -0.375886 -0.115052 68 1 84
-0.004328 0.106256 -0.414588 38 129 142
-0.642274 -0.105477 0.369653 68 1 84
0.494803 0.257507 0.054202 42 119 142
-0.458963 0.204897 -0.010487 68 1 84
0.272301 -0.307244 -0.163222 69 52 127
0.625344 -0.249334 0.117177 68 1 84
0.209939 0.266325 -0.170147 33 142 140
0.475905 0.104546 -0.051665 68 1 84
-0.467271 -0.095397 -0.111802 68 1 84
0.287733 0.207007 -0.151340 49 100 141
-0.419905 0.318392 -0.000949 68 1 84
-0.272482 0.056397 -0.166229 46 108 142
0.622353 0.007610 0.223087 68 1 84
0.108930 0.098808 -0.238356 167 219 51
-0.331679 -0.343842 -0.183505 49 100 141
0.133897 -0.112645 -0.243882 51 97 141
0.004209 0.114246 -0.369614 33 167 132
0.597731 0.143323 0.196419 68 1 84
-0.586669 0.162862 0.262403 68 1 84
-0.466101 0.226109 0.011958 68 1 84
0.136393 -0.126092 -0.232563 40 122 142
-0.011830 0.669595 -0.116279 68 1 84
-0.543429 0.242582 0.177922 68 1 84
0.164377 -0.103881 -0.198953 40 123 142
0.526087 -0.203512 -0.037770 68 1 84
0.558539 -0.224492 -0.001542 68 1 84
0.049310 0.368211 -0.222013 37 130 142
-0.363819 -0.283049 -0.162413 62 72 136
-0.174147 -0.133933 -0.178624 36 134 141
0.292783 0.386198 -0.085547 65 65 134
-0.379586 -0.462727 -0.242815 59 80 138
0.069273 0.639472 -0.139163 68 1 84
0.644390 -0.182432 0.186799 68 1 84
-0.623929 -0.319581 0.114892 68 1 84
-0.613505 -0.024948 0.176339 68 1 84
0.678508 -0.130497 0.351062 68 1 84
0.084728 0.072560 -0.421260 68 1 84
-0.512681 0.288132 0.147181 68 1 84
-0.599981 -0.011767 0.117686 68 1 84
0.646922 -0.147414 0.223109 68 1 84
0.160093 0.602974 -0.104072 68 1 84
-0.506351 0.342839 0.214505 68 1 84
0.694801 -0.255784 0.398999 68 1 84
0.652218 -0.091402 0.336326 68 1 84
0.331112 0.290252 -0.106624 72 28 110
0.600685 0.117604 0.409949 71 24 106
0.131339 -0.055341 -0.283327 71 39 119
-0.032547 -0.373921 -0.279258 55 88 140
-0.193656 0.135016 -0.183796 38 128 142
-0.377510 0.503989 0.238153 51 97 141
-0.445647 0.432409 0.281839 40 123 142
0.372345 0.439494 0.027228 42 119 142
0.582470 0.235222 0.235925 43 115 142
-0.264135 0.574417 -0.041089 68 1 84
0.122307 0.025173 -0.399803 68 1 84
-0.599605 -0.418846 0.057944 68 1 84
-0.495973 0.368259 0.326176 44 114 142
0.028777 -0.320894 -0.282118 68 1 84
0.249715 0.378946 -0.113448 51 96 141
0.175106 0.041592 -0.178733 36 170 130
0.471575 -0.083893 -0.097772 68 1 84
0.574655 0.144988 0.129282 68 1 84
0.267074 -0.274654 -0.164305 71 15 98
-0.259944 -0.252169 -0.177700 62 73 137
-0.176923 0.238480 -0.207090 51 96 141
-0.165580 -0.174947 -0.172190 45 110 142
0.241544 0.543817 -0.057312 71 15 98
0.451912 -0.370324 -0.134983 68 1 84
0.438914 -0.317054 -0.085952 68 1 84
0.217661 0.368075 -0.134667 63 71 136
-0.596872 -0.080965 0.038651 68 1 84
0.172881 0.539417 -0.115598 68 1 84
0.365948 0.420836 0.003920 57 85 139
-0.147080 -0.364944 -0.191106 44 112 142
0.012239 0.543949 -0.193531 68 1 84
0.009791 -0.431177 -0.317657 70 11 94
0.033681 0.664026 -0.120909 68 1 84
-0.566637 -0.060559 -0.013664 68 1 84
-0.279699 -0.226558 -0.168937 53 92 140
0.441170 -0.122113 -0.111965 68 1 84
-0.023953 0.686123 -0.066977 68 1 84
-0.170349 -0.377159 -0.203960 50 98 141
-0.550294 0.043622 0.014729 68 1 84
0.157648 -0.021542 -0.248011 68 55 129
0.471330 -0.206002 -0.074825 68 1 84
-0.155477 -0.419457 -0.276985 55 88 140
0.470664 -0.438008 -0.169539 68 1 84
-0.112553 0.185120 -0.240657 46 109 142
-0.386383 0.496077 0.204575 68 57 130
0.369584 0.117546 -0.130243 69 5 88
-0.533371 -0.429986 -0.102379 72 30 112
-0.490083 0.349167 0.421213 32 143 140
-0.111190 0.011734 -0.374242 69 54 129
0.058391 -0.310082 -0.257949 70 49 126
-0.615338 0.015281 0.340555 70 48 125
-0.653575 -0.150403 0.330598 68 1 84
-0.339105 0.424027 -0.036075 72 29 111
-0.581683 0.175142 0.248318 68 1 84
-0.383096 -0.218916 -0.133650 71 22 105
0.439091 -0.381818 -0.156481 68 1 84
0.074636 0.205162 -0.258295 41 121 142
0.237319 0.591438 -0.020617 70 45 124
-0.145167 0.069944 -0.240335 41 175 127
-0.536261 0.310608 0.294946 72 26 108
-0.051553 0.081197 -0.381112 31 148 139
0.580177 -0.032954 0.030791 68 1 84
-0.057108 0.416998 -0.184027 72 35 116
-0.654076 -0.224893 0.193236 68 1 84
0.599151 -0.415519 0.038778 68 1 84
-0.502984 -0.291791 -0.054724 68 1 84
-0.609638 -0.467783 0.070855 68 1 84
-0.574799 -0.235754 0.006822 68 1 84
0.117554 0.060751 -0.285511 39 124 142
-0.383544 -0.368028 -0.179641 51 97 141
-0.687784 -0.364458 0.307352 68 1 84
-0.463312 0.367168 0.128581 68 1 84
-0.634580 -0.128716 0.165238 68 1 84
-0.726948 -0.501977 0.429215 68 1 84
0.512837 0.318790 0.416123 107 205 89
-0.705327 -0.480540 0.330220 68 1 84
0.076611 -0.330482 -0.217862 63 69 135
-0.614565 -0.054250 0.504130 66 61 132
0.222048 0.388790 -0.123488 68 55 129
0.624184 -0.018628 0.210719 68 1 84
-0.189211 0.408998 -0.144422 72 34 115
0.128095 -0.148024 -0.233381 69 54 129
-0.405551 0.411437 0.053052 68 1 84
0.658430 -0.347310 0.232892 68 1 84
-0.222183 0.637482 0.023672 49 100 141
-0.259020 0.282486 -0.141132 62 73 137
0.328817 -0.369324 -0.172693 68 1 84
-0.348322 -0.236431 -0.158066 63 69 135
0.237323 -0.391276 -0.219819 58 82 139
-0.270823 0.478289 -0.071607 68 1 84
-0.597732 -0.168119 0.031608 68 1 84
-0.185395 0.456069 -0.132098 68 1 84
0.118013 0.657544 -0.077623 68 1 84
0.137872 0.020291 -0.358595 69 6 90
-0.598866 0.037563 0.177637 68 1 84
-0.652614 -0.445595 0.164697 68 1 84
0.590315 0.189885 0.207253 68 1 84
0.450955 0.132633 -0.068573 68 1 84
0.082455 -0.319295 -0.204664 58 82 139
-0.187939 -0.445937 -0.287432 64 67 135
0.468142 0.402988 0.185564 61 74 137
0.455277 0.157573 -0.052513 71 18 101
-0.377680 0.163116 -0.106397 72 29 111
0.667448 -0.240397 0.246055 68 1 84
-0.325776 0.529564 0.023175 68 1 84
0.157499 -0.089003 -0.210735 41 121 142
-0.625510 -0.024081 0.269115 68 1 84
-0.194284 0.592561 -0.111273 68 1 84
-0.541880 0.259099 0.192290 68 1 84
0.595047 -0.309676 0.058838 68 1 84
-0.619807 -0.186356 0.080863 68 1 84
-0.236486 0.467468 -0.098249 68 1 84
0.080312 -0.023915 -0.457396 68 1 84
0.470139 -0.249547 -0.065118 68 1 84
0.342208 0.078095 -0.147770 68 1 84
-0.638497 -0.498676 0.159846 68 1 84
-0.368324 0.403687 -0.015136 72 26 108
-0.264477 0.128855 -0.159402 50 98 141
-0.094916 -0.188267 -0.236676 38 129 142
-0.553586 0.055935 0.033032 68 1 84
0.408490 0.462180 0.264816 32 144 140
0.515045 -0.369390 -0.079756 68 1 84
-0.309347 0.566089 0.096592 71 18 101
0.649873 -0.078742 0.327743 68 1 84
-0.396847 0.358024 -0.008603 68 1 84
-0.355968 -0.377558 -0.203688 52 94 141
0.113324 -0.329435 -0.179007 60 78 138
-0.501593 -0.465269 -0.155636 59 81 138
0.339434 0.103471 -0.144741 68 1 84
-0.527050 0.311072 0.382231 57 85 139
-0.640399 -0.455968 0.128002 68 1 84
-0.651434 -0.391983 0.173543 68 1 84
0.185924 -0.346681 -0.163228 64 68 135
0.684937 -0.302920 0.318537 68 1 84
-0.010023 0.633189 -0.159010 68 1 84
0.582080 -0.211424 0.025282 68 1 84
0.143777 0.328210 -0.191674 47 106 141
0.560262 0.212665 0.139273 68 1 84
-0.243395 0.284739 -0.142914 58 83 139
0.436467 0.011391 -0.110418 68 1 84
0.147376 0.563715 -0.131397 68 1 84
-0.288592 -0.363950 -0.187900 54 91 140
-0.502841 0.219500 0.065964 68 1 84
-0.288105 -0.193575 -0.159743 39 125 142
-0.576105 0.176298 0.415989 71 22 105
-0.512932 0.315978 0.184527 68 1 84
-0.665754 -0.414023 0.218749 68 1 84
-0.168433 0.581538 -0.136856 68 1 84
-0.507685 0.329804 0.190952 68 1 84
0.213302 -0.443911 -0.276844 49 101 141
0.324100 -0.460901 -0.264296 69 50 127
0.586237 -0.077608 0.027159 68 1 84
0.683766 -0.315577 0.321741 68 1 84
-0.348232 0.416437 -0.030748 71 15 98
0.003047 0.246069 -0.262568 30 153 138
0.144040 0.135188 -0.206048 51 182 121
0.126385 -0.377279 -0.216291 49 102 141
-0.170719 -0.360297 -0.182955 47 106 141
0.077402 0.230750 -0.254457 33 166 133
-0.444851 -0.521598 -0.210127 69 50 127
-0.612337 0.008955 0.428634 66 61 132
0.248704 0.582124 -0.012512 57 84 139
-0.237755 -0.106165 -0.164917 40 122 142
0.215146 -0.284956 -0.156190 69 53 128
0.432530 0.435831 0.151249 42 176 126
-0.160029 -0.229285 -0.163713 42 119 142
-0.305924 0.569425 0.089149 72 30 112
0.443341 -0.401000 -0.171098 68 1 84
-0.601544 0.092688 0.280924 71 15 98
0.043426 -0.312788 -0.277041 68 1 84
-0.450323 -0.200586 -0.098325 68 1 84
-0.686683 -0.385269 0.294672 68 1 84
-0.629416 -0.089125 0.493724 70 12 95
-0.436955 0.428214 0.160575 68 1 84
0.214062 0.381890 -0.131214 64 67 135
-0.083383 -0.429503 -0.306233 72 35 116
-0.395075 0.031884 -0.131892 71 37 117
-0.380808 0.325827 -0.049740 68 1 84
0.438875 0.019382 -0.107622 68 1 84
0.101648 -0.173581 -0.266963 69 6 90
0.329270 0.230349 -0.124495 70 45 124
0.615338 -0.088012 0.095046 68 1 84
-0.008384 0.585580 -0.184357 68 1 84
0.501658 -0.375888 -0.101924 68 1 84
-0.553690 -0.343318 -0.023074 68 1 84
0.245277 0.269797 -0.157402 53 93 140
-0.075369 -0.064433 -0.386875 68 1 84
0.001045 0.112927 -0.351379 30 157 136
-0.566684 -0.392751 -0.024067 68 1 84
0.077934 -0.244917 -0.257994 69 8 91
0.477146 0.379603 0.363590 116 208 84
-0.368715 0.338097 -0.056677 68 1 84
-0.615408 -0.353216 0.101879 68 1 84
0.506462 0.320080 0.438733 41 175 127
-0.529649 -0.410824 -0.102380 72 26 108
-0.644282 -0.464141 0.143241 68 1 84
-0.383745 -0.176645 -0.135018 71 15 98
0.565335 -0.514492 -0.054751 68 1 84
-0.425289 -0.362150 -0.145507 72 30 112
0.531342 -0.510710 -0.100826 68 1 84
-0.161506 0.632979 -0.108948 68 1 84
0.550146 0.191744 0.495084 72 25 107
0.311543 -0.204905 -0.144725 68 1 84
-0.042521 0.248550 -0.256711 30 153 138
0.459963 -0.338423 -0.090336 68 1 84
0.207165 0.060734 -0.167065 42 119 142
0.204047 -0.065445 -0.177968 39 124 142
0.509463 0.182980 0.030729 53 92 140
0.016688 -0.206511 -0.370294 68 1 84
0.059716 -0.205295 -0.334907 68 1 84
-0.458146 -0.361916 -0.128413 66 62 133
-0.020566 0.355548 -0.241547 44 112 142
0.544155 0.317247 0.246543 30 159 136
-0.600335 -0.097967 0.042005 68 1 84
0.115448 -0.334444 -0.180086 51 96 141
-0.623116 -0.513128 0.116084 68 1 84
0.591341 0.215933 0.252354 72 30 112
-0.649272 -0.235673 0.163811 68 1 84
0.686430 -0.185654 0.320427 68 1 84
-0.256929 0.309136 -0.131032 47 106 141
0.695402 -0.556769 0.344972 68 1 84
-0.676144 -0.151596 0.438447 68 1 84
0.500086 -0.283320 -0.040694 68 1 84
-0.639969 -0.110594 0.241342 68 1 84
0.617954 -0.047349 0.511770 68 1 84
-0.137194 0.639372 -0.118227 68 1 84
-0.325286 -0.477576 -0.266499 64 67 135
-0.582229 0.080562 0.494226 58 83 139
0.530440 -0.272343 -0.018153 68 1 84
0.523141 -0.436668 -0.107991 68 1 84
0.028012 0.633636 -0.155349 68 1 84
0.575791 0.218837 0.399962 71 39 119
-0.580369 0.147623 0.203659 68 1 84
-0.311712 0.561306 0.177924 54 90 140
-0.039383 0.676041 -0.094590 68 1 84
-0.706690 -0.340421 0.415280 70 9 92
-0.645336 -0.112330 0.317097 68 1 84
-0.453349 0.424204 0.265155 58 82 139
-0.007148 0.005301 -0.485938 68 1 84
0.542923 -0.232095 -0.015255 68 1 84
-0.689943 -0.524337 0.283765 68 1 84
-0.123212 0.365487 -0.204190 72 30 112
0.160044 -0.180035 -0.182692 68 55 129
0.636396 -0.033375 0.435438 68 1 84
-0.225870 0.634567 -0.001092 72 29 111
-0.472757 0.373323 0.424306 38 128 142
-0.257734 0.443044 -0.090640 68 1 84
-0.698386 -0.313261 0.411619 68 1 84
0.343360 -0.261031 -0.149435 68 1 84
0.601991 0.160038 0.362238 57 84 139
-0.631203 -0.115884 0.165565 68 1 84
-0.536500 -0.326588 -0.037147 68 1 84
-0.266053 0.599323 0.004313 68 1 84
-0.560862 0.195414 0.459996 68 1 84
0.668033 -0.119307 0.354087 68 1 84
-0.424705 -0.274110 -0.113162 71 39 119
0.112162 -0.270031 -0.182876 46 108 142
0.465857 -0.512408 -0.182118 68 1 84
0.571189 0.218118 0.171656 68 1 84
0.029716 0.105117 -0.364865 31 161 135
-0.205079 -0.378880 -0.208387 47 106 141
0.379274 0.453624 0.053019 41 120 142
0.561096 0.007148 0.016257 68 1 84
-0.009418 -0.040876 -0.466647 68 1 84
-0.627641 -0.087317 0.189069 68 1 84
0.631642 -0.002334 0.327658 68 1 84
0.526854 -0.477996 -0.107088 68 1 84
0.187842 -0.081996 -0.183238 44 112 142
-0.596491 -0.255568 0.040741 68 1 84
0.343179 -0.220535 -0.138205 68 1 84
0.604903 -0.419130 0.059619 68 1 84
0.158574 0.158690 -0.205339 35 168 131
-0.625165 -0.076136 0.528847 59 81 138
0.287144 0.258184 -0.144357 61 76 137
-0.164181 0.459117 -0.144184 68 1 84
0.629685 -0.191012 0.121908 68 1 84
-0.464015 0.387007 0.161985 68 1 84
0.136127 -0.130395 -0.230308 43 115 142
0.608336 -0.499637 0.029378 68 1 84
0.101507 -0.420648 -0.294210 63 71 136
-0.144619 -0.175165 -0.183813 31 148 139
-0.075849 -0.218778 -0.252374 54 90 140
0.627244 -0.363636 0.142866 68 1 84
0.601904 -0.211523 0.055758 68 1 84
-0.198673 -0.399691 -0.237235 49 102 141
-0.523937 0.327872 0.336651 53 93 140
0.678568 -0.501916 0.269066 68 1 84
0.704463 -0.494530 0.441262 68 1 84
-0.113133 0.472461 -0.171221 68 1 84
-0.425526 -0.160205 -0.120864 68 1 84
-0.716675 -0.412781 0.392790 68 1 84
-0.502403 -0.529886 -0.146771 66 62 133
0.182058 0.640965 -0.012519 70 12 95
0.480230 -0.431281 -0.159112 68 1 84
0.506628 -0.355190 -0.077652 68 1 84
0.633154 -0.023096 0.279254 68 1 84
0.416905 -0.166068 -0.114809 68 1 84
0.642021 -0.030252 0.405023 68 1 84
0.163718 0.628225 -0.076380 68 1 84
-0.443405 -0.156760 -0.113183 69 6 90
0.175787 -0.448188 -0.298238 64 67 135
0.680749 -0.108587 0.381558 68 1 84
-0.646207 -0.277400 0.147526 68 1 84
-0.540780 0.074640 0.020246 68 1 84
-0.438631 0.349852 0.056476 68 1 84
