ply
format ascii 1.0
element vertex 1278
property float x
property float y
property float z
property uchar red
property uchar green
property uchar blue
end_header
0.416041 0.397398 0.101267 68 1 84
-0.491543 0.330314 0.174236 68 1 84
-0.578660 0.017475 0.221891 68 1 84
-0.332589 -0.265857 -0.140606 68 1 84
-0.657543 -0.240973 0.457193 33 166 133
-0.488016 0.374077 0.215201 68 1 84
0.502360 -0.019303 0.054328 68 1 84
0.133929 0.002095 -0.323129 68 1 84
0.058148 0.141411 -0.294162 68 1 84
-0.554710 -0.240954 0.073832 53 93 140
-0.456092 -0.301883 -0.033235 71 40 120
-0.444686 0.082314 -0.024264 68 1 84
-0.084901 0.225336 -0.256877 68 2 85
0.072948 0.085314 -0.290216 68 1 84
-0.333219 0.222067 -0.133829 68 1 84
0.579305 0.010721 0.249179 68 1 84
0.211863 0.100424 -0.203875 68 1 84
-0.007986 0.443522 -0.234222 65 66 134
-0.408131 0.495131 0.315560 69 6 90
-0.564845 0.250874 0.352145 68 1 84
0.591746 -0.306323 0.222179 36 134 141
-0.241245 0.133042 -0.207769 68 1 84
0.357517 0.308019 -0.053807 68 1 84
-0.281892 0.482794 -0.031966 61 75 137
-0.410862 -0.163375 -0.097499 68 1 84
0.510473 0.208118 0.135773 68 1 84
0.593484 0.019350 0.326372 68 1 84
0.358072 0.440080 0.026197 68 1 84
-0.441575 0.461369 0.359301 68 1 84
0.183662 -0.200323 -0.190568 68 1 84
-0.492492 -0.431524 -0.086728 43 115 142
-0.312619 0.367952 -0.081513 68 1 84
-0.514118 0.140067 0.106023 68 1 84
0.623429 -0.451223 0.349384 46 178 124
-0.355563 0.221818 -0.105302 68 1 84
0.382975 0.126001 -0.082791 68 1 84
-0.521492 0.197379 0.145930 68 1 84
-0.151692 0.007311 -0.323084 66 62 133
-0.641894 -0.396132 0.306108 62 188 115
-0.500101 -0.402703 -0.050459 49 101 141
0.183836 0.046818 -0.206800 68 1 84
-0.396902 -0.223610 -0.089233 68 1 84
0.629882 -0.380775 0.368383 33 140 141
0.188036 0.608260 -0.071095 48 103 141
0.397123 0.079151 -0.076008 68 1 84
0.368723 0.295508 -0.040875 68 1 84
0.076004 0.267936 -0.275151 68 1 84
0.366135 -0.466791 -0.163658 68 1 84
0.073501 -0.275774 -0.274338 68 1 84
-0.041790 0.032378 -0.472788 59 81 138
0.003786 0.121008 -0.300058 71 18 101
0.519347 0.306403 0.488852 68 1 84
0.467758 0.367777 0.170371 68 1 84
0.497870 -0.307791 0.039742 55 89 140
-0.619807 -0.244414 0.239960 33 140 141
0.256477 0.282083 -0.149881 68 1 84
0.225477 0.373088 -0.163107 69 54 129
0.242995 0.267075 -0.154448 68 1 84
0.251193 0.587256 0.025314 72 32 113
0.405809 0.454416 0.136771 68 1 84
-0.611906 -0.051591 0.333277 68 55 129
-0.279866 -0.051757 -0.175318 68 1 84
-0.600507 -0.415777 0.191497 100 203 93
-0.587365 0.154573 0.413918 68 1 84
-0.129135 0.025928 -0.311231 68 1 84
0.027575 0.051836 -0.364846 68 1 84
-0.062436 0.463724 -0.223401 69 53 128
-0.462783 -0.205299 -0.047161 69 53 128
0.478352 0.322634 0.153093 68 1 84
-0.565662 -0.087059 0.103383 71 20 102
0.114380 0.565332 -0.193383 40 122 142
-0.563240 -0.485275 0.079761 64 189 114
-0.144693 -0.083213 -0.279108 68 1 84
-0.203918 0.226170 -0.211100 68 1 84
-0.244523 0.585159 0.072074 33 141 140
-0.160607 0.166803 -0.247071 68 1 84
-0.645224 -0.214069 0.377901 31 146 140
-0.147681 -0.222979 -0.219907 68 1 84
0.175717 0.197477 -0.202897 68 1 84
-0.426265 0.474319 0.253450 68 1 84
0.611507 -0.097071 0.572168 68 1 84
0.323893 0.104770 -0.147636 68 1 84
0.455695 -0.521842 -0.109321 68 1 84
-0.108461 -0.347308 -0.229852 68 1 84
0.641277 -0.398817 0.402779 31 162 134
0.282587 -0.284323 -0.140774 68 1 84
0.207112 -0.416784 -0.174734 68 1 84
0.625371 -0.299394 0.340366 44 114 142
0.245208 0.571432 -0.055893 50 99 141
-0.060808 -0.056218 -0.472191 68 1 84
0.391953 -0.419008 -0.107999 68 1 84
-0.172414 0.513759 -0.149651 71 38 118
-0.238042 -0.471380 -0.253928 68 1 84
0.142905 -0.050126 -0.311308 68 1 84
0.495675 0.329743 0.190168 68 1 84
-0.447054 0.172742 0.011126 68 1 84
0.065336 0.147308 -0.292500 68 1 84
0.047414 -0.448638 -0.302985 68 1 84
-0.529424 0.093986 0.117610 70 12 95
-0.351931 0.524524 0.166437 64 67 135
-0.328165 -0.267318 -0.142271 68 1 84
0.273001 -0.409420 -0.163889 68 1 84
-0.123328 0.040380 -0.289881 68 1 84
-0.239913 -0.019641 -0.197333 68 1 84
0.129481 0.400017 -0.214082 54 90 140
-0.099436 0.126466 -0.276678 68 1 84
0.178283 0.072144 -0.214744 68 1 84
0.529826 0.270913 0.215933 68 1 84
-0.606633 0.060109 0.445394 68 1 84
0.573309 -0.262699 0.168563 60 77 138
0.484890 -0.197460 -0.003725 53 93 140
-0.107445 -0.323767 -0.228375 68 1 84
-0.631062 -0.072810 0.562339 70 47 124
-0.315837 0.344903 -0.095222 68 1 84
0.037207 0.608877 -0.168582 34 167 132
-0.421053 0.482754 0.337675 70 14 97
0.662759 -0.405876 0.473899 30 152 138
0.473888 0.284984 0.120021 68 1 84
0.180748 0.554993 -0.161633 42 117 142
0.595824 -0.392536 0.253082 42 176 126
-0.116202 -0.106142 -0.325499 68 1 84
0.511066 0.314705 0.210362 68 1 84
0.607154 -0.450848 0.295265 35 169 130
0.491396 0.100784 0.065314 68 1 84
0.598180 0.037680 0.445086 68 1 84
-0.333233 0.211538 -0.136594 68 1 84
0.427701 0.368979 0.101261 68 1 84
0.300431 -0.153275 -0.154526 68 1 84
0.520293 -0.530763 0.066380 65 66 134
0.436515 0.452626 0.316990 68 1 84
-0.089137 -0.315464 -0.284235 68 1 84
0.420774 0.466190 0.233184 68 1 84
0.448592 -0.079228 -0.046888 68 1 84
0.254115 -0.138485 -0.176364 68 1 84
-0.147931 0.611550 -0.087092 35 136 141
-0.480271 -0.035668 -0.021736 68 1 84
-0.633295 -0.373147 0.285236 36 170 130
-0.646042 -0.476299 0.321214 61 187 116
-0.208764 0.518250 -0.108664 70 45 124
0.121508 -0.015486 -0.390096 71 22 105
0.387533 0.426960 0.072137 68 1 84
0.001491 0.257635 -0.281678 70 14 97
0.375833 -0.556935 -0.181637 68 1 84
-0.275073 -0.460250 -0.215408 68 1 84
0.677006 -0.535954 0.504395 30 159 136
-0.042122 -0.112099 -0.458888 68 1 84
-0.151099 -0.393008 -0.199426 68 1 84
-0.360829 -0.181885 -0.114763 68 1 84
-0.252711 0.575518 0.052578 46 108 142
-0.168695 -0.004142 -0.253405 68 1 84
-0.442992 0.161345 0.000903 68 1 84
0.514673 0.358919 0.339558 68 1 84
-0.691942 -0.395124 0.478441 94 201 97
-0.439129 -0.303413 -0.055928 69 8 91
0.217730 0.367397 -0.169703 59 81 138
0.320328 0.200235 -0.139309 68 1 84
-0.169871 0.171788 -0.242924 68 1 84
-0.662577 -0.389328 0.342994 100 203 93
0.154846 0.314189 -0.224790 71 38 118
0.044408 0.603660 -0.173740 42 176 126
0.583793 -0.430315 0.229028 41 175 127
0.491616 -0.163049 0.005240 63 71 136
-0.321393 0.176984 -0.156146 68 1 84
0.465827 0.269584 0.096075 68 1 84
0.029044 -0.271769 -0.367958 68 1 84
-0.634244 -0.300358 0.293023 47 179 123
0.268982 0.034381 -0.178607 68 1 84
0.080682 0.267932 -0.272828 71 37 117
-0.449337 -0.170647 -0.069863 68 1 84
-0.272041 0.089127 -0.188374 68 1 84
-0.547540 0.036844 0.131469 68 1 84
-0.418302 0.074124 -0.061815 68 1 84
0.112757 -0.102006 -0.312050 68 1 84
-0.166808 -0.140453 -0.232975 68 1 84
-0.279597 0.421467 -0.085533 59 80 138
-0.591337 -0.379547 0.164803 42 118 142
-0.448065 0.337072 0.104140 68 1 84
-0.165159 0.209714 -0.237860 68 1 84
-0.640981 -0.313479 0.316463 35 168 131
0.469943 0.415418 0.265191 68 1 84
-0.070554 0.387202 -0.239855 71 18 101
0.479282 0.384673 0.216513 68 1 84
-0.514533 -0.250119 0.023623 31 148 139
-0.257432 0.290772 -0.171497 68 1 84
-0.435065 0.416130 0.157935 68 1 84
-0.013035 0.177966 -0.302470 53 92 140
0.529560 0.204630 0.170965 68 1 84
-0.431554 -0.232671 -0.063760 68 1 84
-0.037282 0.335074 -0.269124 68 1 84
0.111553 0.250567 -0.250298 68 1 84
0.403058 0.045723 -0.076665 68 1 84
0.590969 0.012321 0.308659 68 1 84
-0.433272 -0.394300 -0.107877 71 37 117
0.308148 0.550612 0.071111 68 1 84
-0.142238 -0.421808 -0.252619 68 1 84
0.616740 -0.406971 0.335743 56 185 118
0.013658 0.550098 -0.220423 50 98 141
-0.006720 -0.175345 -0.438777 68 1 84
-0.300847 0.374106 -0.092296 68 1 84
0.500485 -0.502145 -0.014817 70 9 92
-0.621465 -0.084699 0.369325 55 88 140
-0.533031 -0.501524 -0.037434 39 125 142
-0.474509 -0.190525 -0.040036 68 1 84
-0.640542 -0.163267 0.420922 44 112 142
0.608727 -0.424267 0.299361 42 176 126
0.528832 -0.107870 0.076732 68 1 84
0.649586 -0.404646 0.427150 33 166 133
0.658322 -0.386339 0.466848 32 143 140
-0.055665 0.053834 -0.330380 68 1 84
-0.580270 0.097216 0.266947 68 1 84
-0.235739 -0.167967 -0.168130 68 1 84
-0.077731 -0.454478 -0.312596 68 1 84
-0.497519 -0.340806 -0.001504 44 112 142
-0.260757 0.187214 -0.200881 68 1 84
0.502166 0.242198 0.140046 68 1 84
0.050129 -0.059690 -0.483364 68 1 84
-0.007172 -0.072719 -0.490900 68 1 84
-0.077097 0.574323 -0.187857 71 15 98
0.560115 0.148255 0.531157 68 1 84
-0.410161 0.170715 -0.044880 68 1 84
-0.606143 -0.272560 0.195937 36 132 141
0.059474 -0.243327 -0.334995 68 1 84
0.345460 0.508333 0.073125 68 1 84
-0.117245 0.499492 -0.195443 68 1 84
-0.396143 -0.161353 -0.105310 68 1 84
0.272122 -0.142959 -0.168576 68 1 84
-0.220150 -0.442517 -0.216713 68 1 84
0.304059 -0.546280 -0.228771 68 1 84
-0.454709 -0.125408 -0.065665 68 1 84
0.436658 -0.501486 -0.127660 68 1 84
-0.485361 0.066240 0.026678 68 1 84
0.130563 -0.080978 -0.293370 68 1 84
0.671574 -0.527310 0.453743 33 166 133
-0.334265 0.502898 0.084038 69 8 91
0.374719 -0.312073 -0.096185 68 1 84
0.499043 -0.499458 -0.019788 69 6 90
0.045413 -0.367824 -0.285924 68 1 84
-0.263465 -0.039794 -0.185484 68 1 84
-0.537605 -0.504772 -0.020233 30 153 138
-0.628660 -0.059699 0.568978 72 28 110
0.273472 0.565173 0.001942 72 29 111
0.258936 0.219367 -0.150885 68 1 84
0.102575 0.329177 -0.249725 49 102 141
-0.367234 0.504745 0.156200 70 9 92
-0.025816 -0.191229 -0.425540 68 1 84
-0.054303 -0.328107 -0.342307 68 1 84
-0.550329 0.002236 0.116463 68 1 84
0.122744 0.255541 -0.245212 68 1 84
-0.037182 -0.095492 -0.471455 68 1 84
0.353577 -0.578548 -0.196532 68 1 84
0.624032 -0.216666 0.425456 42 119 142
0.515695 0.264246 0.178754 68 1 84
0.292872 0.054858 -0.167602 68 1 84
0.072037 0.033314 -0.431413 69 6 90
0.068762 0.024112 -0.383291 67 60 132
0.153382 -0.211718 -0.207918 68 1 84
-0.003912 0.119803 -0.301599 72 34 115
0.203348 0.598905 -0.076636 66 62 133
0.494674 -0.426313 0.018987 62 72 136
-0.535205 0.285868 0.490759 68 1 84
-0.386620 -0.253669 -0.100521 68 1 84
-0.510229 -0.090810 -0.000129 61 75 137
0.019367 -0.392219 -0.313289 68 1 84
-0.626376 -0.046095 0.477938 68 1 84
0.547660 -0.490211 0.143651 39 126 142
0.126295 -0.341066 -0.157634 68 1 84
-0.239718 0.267312 -0.182191 68 1 84
-0.560476 -0.426365 0.065404 44 177 125
-0.174451 -0.090007 -0.235920 68 1 84
-0.568251 0.194941 0.274987 68 1 84
-0.051412 0.088013 -0.315185 66 61 132
0.346182 -0.425505 -0.166729 68 1 84
0.309827 -0.207034 -0.139324 68 1 84
0.108804 -0.290115 -0.195677 68 1 84
0.017316 0.085973 -0.315209 68 1 84
-0.221179 0.226685 -0.205456 68 1 84
0.074630 -0.193015 -0.327005 68 1 84
-0.512030 -0.011166 0.031175 68 1 84
-0.359823 -0.349898 -0.134667 68 57 130
-0.257253 -0.230463 -0.134497 68 1 84
0.551623 -0.553190 0.154558 37 130 142
0.449039 0.440965 0.337998 68 1 84
-0.683286 -0.325833 0.525778 36 134 141
-0.165993 0.050675 -0.224398 68 1 84
-0.366181 -0.431682 -0.176785 68 1 84
-0.501407 0.362038 0.474541 68 1 84
-0.109463 -0.068260 -0.371378 68 1 84
0.191311 0.575039 -0.136052 60 78 138
-0.625399 -0.103639 0.374876 63 71 136
0.368591 -0.580447 -0.185319 68 1 84
-0.156667 0.102804 -0.240458 68 1 84
-0.563556 -0.223289 0.090063 39 124 142
-0.563584 -0.480055 0.082613 77 194 107
0.437678 -0.062855 -0.058800 68 1 84
0.363793 0.333818 -0.027047 68 1 84
-0.555838 -0.450416 0.048053 32 165 133
0.564789 -0.454504 0.183340 38 128 142
0.522193 0.341183 0.291500 68 1 84
0.548804 -0.463880 0.144282 47 106 141
0.556931 -0.072295 0.168981 68 1 84
0.094073 -0.489180 -0.301938 68 1 84
-0.611941 0.026313 0.476781 68 1 84
0.082064 0.553518 -0.212527 37 130 142
0.425985 -0.254212 -0.058530 69 50 127
0.678488 -0.512413 0.470113 32 145 140
0.524545 0.249635 0.187234 68 1 84
0.528177 -0.207437 0.065638 70 47 124
-0.537320 0.326915 0.342850 68 1 84
0.355158 -0.099905 -0.132281 68 1 84
0.119173 -0.278006 -0.193143 68 1 84
0.501325 0.350038 0.226740 68 1 84
0.331576 0.415684 -0.040655 68 1 84
0.295145 0.556271 0.044661 68 1 84
0.456094 -0.506461 -0.107368 68 1 84
-0.084543 -0.438780 -0.304786 68 1 84
0.082852 -0.437129 -0.277848 68 1 84
-0.607608 -0.299398 0.202424 36 134 141
0.639540 -0.284754 0.528029 69 50 127
0.408026 -0.573694 -0.153718 68 1 84
0.092914 -0.403961 -0.237907 68 1 84
-0.166392 -0.193009 -0.213316 68 1 84
-0.106722 -0.194761 -0.306992 68 1 84
0.422561 -0.406390 -0.063491 68 1 84
0.110420 -0.287823 -0.195270 68 1 84
0.339862 -0.248362 -0.114629 68 1 84
0.124204 0.018320 -0.279566 68 1 84
-0.608512 -0.350831 0.209430 40 122 142
0.140511 0.469362 -0.208687 41 121 142
0.413602 0.119619 -0.041683 68 1 84
-0.407246 -0.177888 -0.096277 68 1 84
0.473335 0.185838 0.061601 68 1 84
0.496154 0.380461 0.382810 68 1 84
-0.255407 -0.025580 -0.190514 68 1 84
0.497428 -0.034078 0.040559 68 1 84
0.648441 -0.418371 0.417740 75 194 108
0.335191 0.341237 -0.072811 68 1 84
-0.521353 0.289161 0.204209 68 1 84
0.616912 -0.136307 0.477715 70 9 92
0.380456 -0.096027 -0.115591 68 1 84
0.330967 -0.235573 -0.121563 68 1 84
0.662879 -0.351736 0.509082 63 71 136
-0.582372 -0.095168 0.150050 70 47 124
0.502938 -0.387734 0.048735 56 87 140
-0.304519 0.146840 -0.172255 68 1 84
-0.569290 -0.418374 0.094539 75 194 108
-0.591401 0.019907 0.279403 68 57 130
0.642085 -0.302589 0.466990 58 83 139
-0.328422 0.340370 -0.081101 68 1 84
-0.618777 -0.193298 0.255199 37 130 142
0.212781 0.539385 -0.143206 62 73 137
-0.114859 0.235326 -0.236881 68 1 84
-0.296016 0.176040 -0.178674 68 1 84
0.397434 -0.348827 -0.064743 71 38 118
-0.517293 0.294855 0.199417 68 1 84
0.300323 0.531737 -0.002341 71 18 101
-0.572228 0.207166 0.459710 68 1 84
-0.478158 0.411519 0.412959 68 1 84
0.210765 -0.510576 -0.260858 68 1 84
-0.398048 0.320655 0.013885 68 1 84
0.202419 0.212182 -0.160111 68 1 84
-0.561736 -0.009027 0.143261 68 1 84
-0.674934 -0.320992 0.405806 91 200 98
0.556219 0.262719 0.373067 68 1 84
0.037056 -0.097693 -0.472470 68 1 84
0.155684 -0.281801 -0.158085 68 1 84
0.620229 -0.320930 0.314597 32 144 140
0.513956 -0.215484 0.042087 61 74 137
0.106465 0.247624 -0.251802 69 6 90
0.092737 -0.182908 -0.298994 68 1 84
0.546760 -0.223459 0.102434 54 90 140
-0.130643 -0.070281 -0.316509 68 1 84
-0.317342 0.392589 -0.055814 68 1 84
-0.207166 0.175464 -0.225781 68 1 84
0.102601 -0.096118 -0.358101 68 1 84
-0.310652 0.192673 -0.164479 68 1 84
-0.646287 -0.310309 0.334810 36 170 130
0.011259 -0.088730 -0.484488 68 1 84
0.615290 -0.211931 0.353921 48 103 141
-0.193655 0.016027 -0.211645 68 1 84
0.406969 -0.078483 -0.093324 68 1 84
-0.590310 -0.181802 0.153530 70 47 124
-0.017996 0.052886 -0.421633 69 50 127
0.547434 -0.006642 0.153984 68 1 84
0.137822 -0.472824 -0.278481 68 1 84
-0.455291 0.446983 0.360687 68 1 84
-0.518134 -0.189305 0.012839 52 95 141
0.521126 0.317814 0.241953 68 1 84
-0.462664 0.350710 0.139625 68 1 84
-0.533474 0.271591 0.219952 68 1 84
-0.611614 -0.081698 0.310113 71 15 98
-0.370913 0.203452 -0.090731 68 1 84
0.358510 -0.372389 -0.107744 68 1 84
0.651344 -0.474831 0.403172 62 188 115
-0.062361 0.026920 -0.373600 68 1 84
0.244714 -0.333822 -0.156920 68 1 84
-0.564656 -0.173666 0.089989 71 17 99
-0.112104 -0.317701 -0.218660 68 1 84
0.624498 -0.529723 0.350574 31 146 140
-0.088834 0.018955 -0.368034 68 1 84
0.601149 -0.015878 0.479165 68 1 84
-0.090200 -0.070886 -0.424358 68 1 84
0.405127 -0.367797 -0.056090 70 48 125
-0.648592 -0.203286 0.487981 40 123 142
-0.565421 -0.126262 0.092287 68 1 84
0.389804 0.495145 0.206622 68 1 84
-0.612405 -0.339972 0.218646 38 128 142
-0.379725 -0.151750 -0.115045 68 1 84
-0.628031 -0.049074 0.534296 68 1 84
-0.466022 -0.362146 -0.052279 71 43 122
-0.004472 0.180593 -0.302576 65 66 134
0.581257 -0.075307 0.251616 68 1 84
-0.399848 0.190243 -0.053109 68 1 84
0.499841 0.377653 0.283438 68 1 84
-0.543480 -0.487268 -0.002482 31 146 140
-0.303481 0.528287 0.062785 65 65 134
0.627527 -0.249593 0.425446 44 112 142
0.585850 0.119018 0.440808 68 1 84
-0.100188 -0.085068 -0.381539 68 1 84
0.633430 -0.259036 0.461529 44 113 142
-0.338305 0.541434 0.193542 68 55 129
0.592271 0.032868 0.323257 68 1 84
-0.031469 0.005263 -0.497582 72 35 116
0.253415 0.449800 -0.128535 67 58 131
0.545777 0.207517 0.524885 68 1 84
-0.129768 0.222160 -0.245893 68 1 84
-0.624988 -0.153684 0.322773 46 109 142
0.053139 0.443782 -0.234864 71 44 123
0.225787 -0.242844 -0.151138 68 1 84
-0.460127 -0.294301 -0.026531 71 18 101
-0.486305 0.330278 0.164504 68 1 84
0.314962 0.344517 -0.098522 68 1 84
-0.119513 -0.177154 -0.292282 68 1 84
-0.299157 -0.144158 -0.149121 68 1 84
-0.039947 0.413271 -0.233118 64 68 135
-0.552788 -0.493158 0.040796 30 152 138
-0.121518 0.598219 -0.141637 45 110 142
0.131851 -0.501729 -0.293570 68 1 84
-0.273564 0.209477 -0.190689 68 1 84
-0.057120 -0.456495 -0.318884 68 1 84
-0.315414 -0.334283 -0.140145 68 1 84
0.601521 0.013793 0.409292 68 1 84
0.540878 -0.300583 0.099066 53 93 140
-0.546228 -0.365509 0.051187 31 146 140
0.564324 0.125180 0.224907 68 1 84
-0.120500 -0.094587 -0.319914 68 1 84
0.200664 0.227412 -0.164299 68 1 84
-0.595970 0.079990 0.509715 68 1 84
-0.347272 0.353649 -0.040934 68 1 84
0.626370 -0.220975 0.443032 53 92 140
0.094524 0.323337 -0.255120 51 97 141
-0.678706 -0.298264 0.506397 38 127 142
-0.012182 0.327518 -0.273548 71 42 121
0.313389 0.339878 -0.101683 68 1 84
-0.440187 0.202401 0.012759 68 1 84
-0.163982 -0.075688 -0.248501 68 1 84
0.612577 -0.221805 0.336446 50 98 141
0.560547 -0.332065 0.145975 39 125 142
0.468844 0.344110 0.152231 68 1 84
0.509200 0.367543 0.317645 68 1 84
0.451126 0.387627 0.156601 68 1 84
0.032685 -0.148878 -0.440351 68 1 84
-0.568275 0.024381 0.188055 68 1 84
0.213695 -0.429082 -0.182853 68 1 84
-0.581010 -0.338594 0.130364 33 166 133
0.539859 0.247110 0.222091 68 1 84
0.173807 0.245404 -0.198545 68 1 84
-0.694055 -0.456427 0.472165 231 228 25
-0.094607 -0.094034 -0.391189 68 1 84
0.133557 0.358782 -0.224247 68 1 84
0.448387 -0.288445 -0.021514 58 83 139
0.531629 -0.235172 0.074980 59 81 138
-0.324711 0.496068 0.057508 71 37 117
0.086347 -0.242516 -0.277081 68 1 84
0.671865 -0.421537 0.531858 49 100 141
0.014637 0.057725 -0.377861 70 9 92
0.481578 0.373645 0.206090 68 1 84
-0.659804 -0.252572 0.448648 30 154 137
-0.289503 0.049015 -0.177433 68 1 84
0.443328 0.447154 0.276258 68 1 84
0.092158 0.005167 -0.335217 68 1 84
0.075540 0.008563 -0.330051 68 1 84
0.247626 -0.343812 -0.153263 68 1 84
-0.501527 -0.412288 -0.057342 38 129 142
-0.677530 -0.333566 0.436851 59 186 117
-0.371559 0.260815 -0.065092 68 1 84
-0.695894 -0.481593 0.495914 215 226 25
-0.104328 0.628127 -0.097419 34 139 141
-0.429735 -0.026511 -0.073745 68 1 84
0.096876 -0.116681 -0.342771 68 1 84
0.076377 -0.147736 -0.362686 68 1 84
0.354401 -0.452820 -0.166911 68 1 84
-0.426749 0.135030 -0.032906 68 1 84
0.530435 -0.027761 0.110393 68 1 84
-0.090286 0.493253 -0.210005 67 59 131
-0.093463 0.249105 -0.244549 68 1 84
-0.359844 0.451963 0.071165 68 1 84
0.536434 -0.220618 0.082101 67 59 131
0.421109 -0.382177 -0.044220 71 39 119
0.120097 0.431075 -0.216175 62 72 136
-0.659874 -0.318877 0.363628 57 185 118
-0.681532 -0.415831 0.411452 144 214 67
-0.289746 -0.103338 -0.161518 68 1 84
0.635685 -0.288779 0.448104 41 120 142
0.551601 0.172978 0.538465 68 1 84
0.248314 0.151275 -0.185880 68 1 84
-0.664339 -0.285867 0.416873 51 182 121
-0.554977 0.277119 0.404650 68 1 84
0.308888 -0.066504 -0.158842 68 1 84
-0.416598 0.430151 0.140726 68 1 84
0.360236 0.494138 0.086820 68 1 84
-0.639295 -0.268382 0.315026 39 173 128
0.477026 -0.027378 0.008084 68 1 84
0.617156 -0.260033 0.333987 46 107 142
-0.103795 -0.362708 -0.248887 68 1 84
0.608444 -0.524881 0.309909 31 147 139
0.596033 -0.014522 0.513282 68 1 84
0.512607 -0.543411 0.038503 72 33 114
0.462806 0.414347 0.226416 68 1 84
-0.368887 0.459663 0.092783 68 1 84
-0.399855 0.296944 0.000649 68 1 84
-0.396482 0.473970 0.163106 68 1 84
0.234519 -0.457801 -0.204338 68 1 84
-0.492928 -0.247435 -0.000949 52 95 141
0.131752 0.020485 -0.242113 68 1 84
0.118510 -0.115864 -0.283081 68 1 84
0.269470 0.363091 -0.134030 70 11 94
-0.658810 -0.428961 0.348580 100 203 93
-0.219723 0.193828 -0.218217 68 1 84
-0.431465 -0.389324 -0.105816 71 37 117
-0.174764 -0.242371 -0.161374 68 1 84
0.447586 0.443062 0.305267 68 1 84
-0.459312 0.126652 0.011823 68 1 84
-0.572858 -0.275186 0.108422 37 130 142
0.559180 -0.353041 0.147247 37 130 142
0.585760 -0.218122 0.211525 54 91 140
0.607325 -0.230849 0.303826 59 81 138
-0.559024 -0.471914 0.065895 33 167 132
0.290585 0.565779 0.079193 70 47 124
-0.218615 -0.142920 -0.187670 68 1 84
0.561678 -0.221645 0.137692 63 71 136
-0.279206 0.535215 0.021666 61 76 137
0.162538 -0.028954 -0.215162 68 1 84
0.321077 0.545671 0.103161 68 1 84
0.531450 -0.474418 0.095923 55 88 140
0.064360 0.143511 -0.292432 68 1 84
-0.054995 -0.189131 -0.405080 68 1 84
0.625309 -0.237652 0.417296 42 117 142
-0.610176 0.016958 0.538526 68 1 84
0.517798 0.327567 0.450909 68 1 84
0.198162 0.215898 -0.161489 68 1 84
-0.398953 0.181148 -0.058307 68 1 84
0.172601 0.357939 -0.202037 72 30 112
-0.628595 -0.052310 0.545494 68 1 84
-0.068392 0.341081 -0.261034 68 1 84
-0.313520 -0.155138 -0.140237 68 1 84
0.290502 -0.550639 -0.237374 68 1 84
0.528081 0.332721 0.307240 68 1 84
-0.590026 -0.014106 0.250174 71 21 103
0.089862 -0.345724 -0.205664 68 1 84
0.179156 0.594324 -0.123274 50 99 141
0.101117 -0.106869 -0.342057 68 1 84
-0.132152 -0.208675 -0.256416 68 1 84
-0.227511 0.107128 -0.208761 68 1 84
-0.544737 0.204980 0.205695 68 1 84
-0.050053 -0.171208 -0.419299 68 1 84
0.354479 0.079904 -0.123578 68 1 84
-0.574457 0.202527 0.450996 68 1 84
0.587103 -0.079082 0.275734 68 1 84
-0.089641 0.312026 -0.261963 71 40 120
0.250328 0.574100 -0.037004 67 58 131
-0.623989 -0.312674 0.251804 31 148 139
0.277756 -0.311852 -0.153074 68 1 84
0.295725 0.403475 -0.098271 68 1 84
0.596772 0.026704 0.471240 68 1 84
0.531243 0.275925 0.491227 68 1 84
0.436115 -0.069071 -0.061539 68 1 84
-0.355227 0.324009 -0.052289 68 1 84
0.586247 0.080550 0.486392 68 1 84
-0.625403 -0.335298 0.257884 30 156 137
0.580652 0.158645 0.327688 68 1 84
-0.112466 -0.045915 -0.387999 71 38 118
0.194236 -0.099360 -0.206480 68 1 84
-0.163108 0.076929 -0.231025 68 1 84
-0.596879 -0.467744 0.177406 105 204 91
0.248078 0.546053 -0.091497 71 42 121
-0.538609 -0.298916 0.055637 37 130 142
0.320597 -0.056365 -0.153025 68 1 84
0.035998 0.046662 -0.351673 66 62 133
-0.557199 -0.197641 0.076265 53 92 140
-0.093117 0.428640 -0.217071 72 33 114
0.514409 -0.096082 0.050667 68 1 84
0.601579 -0.169807 0.309775 57 85 139
-0.443096 -0.365538 -0.077882 69 53 128
-0.588906 -0.327968 0.152914 38 128 142
-0.695680 -0.393259 0.522341 44 177 125
-0.441552 -0.297137 -0.052452 66 64 133
-0.153857 0.083312 -0.237050 68 1 84
0.414525 0.393709 0.095940 68 1 84
-0.630849 -0.127965 0.381591 64 67 135
0.076785 0.367751 -0.242144 66 64 133
-0.642961 -0.181104 0.417053 35 137 141
0.244204 0.564270 -0.072581 55 88 140
-0.186166 -0.507214 -0.294303 68 1 84
-0.612900 -0.123517 0.285676 65 65 134
-0.158444 0.511730 -0.162945 66 62 133
-0.217070 -0.318709 -0.132139 68 1 84
0.582284 -0.074918 0.255615 68 1 84
-0.065727 0.110486 -0.300017 72 30 112
0.225821 0.418954 -0.154688 61 75 137
0.467221 0.272087 0.099891 68 1 84
0.664844 -0.363801 0.500586 35 137 141
0.547011 -0.096581 0.128889 68 2 85
0.593323 0.017918 0.324967 68 1 84
-0.115645 0.079361 -0.262312 68 1 84
-0.615953 -0.257984 0.225188 41 120 142
-0.472030 0.424508 0.266526 68 1 84
0.050618 0.028502 -0.347037 69 50 127
0.296699 0.356846 -0.112914 68 1 84
0.600683 0.011851 0.454879 68 1 84
-0.350910 -0.288400 -0.137681 68 1 84
-0.082340 -0.429889 -0.302777 68 1 84
0.084046 -0.030718 -0.464210 68 1 84
-0.091042 0.071408 -0.289721 68 1 84
0.335857 0.035885 -0.141093 68 1 84
0.605923 -0.048240 0.411812 68 1 84
0.630528 -0.463139 0.362383 87 198 101
0.053840 -0.162521 -0.399247 68 1 84
-0.124290 0.060692 -0.258714 68 1 84
-0.656434 -0.296945 0.374734 57 185 118
0.526413 0.337850 0.330182 68 1 84
-0.487728 -0.058581 -0.019710 71 38 118
-0.588549 -0.343519 0.153296 40 122 142
-0.654661 -0.416284 0.334025 77 194 107
-0.652202 -0.218914 0.470947 44 114 142
0.209912 0.465037 -0.163031 69 54 129
-0.649335 -0.361331 0.318111 41 175 127
0.602008 -0.213335 0.285966 69 53 128
-0.100950 -0.374547 -0.259718 68 1 84
0.257581 0.117012 -0.184879 68 1 84
-0.391530 0.491435 0.188434 68 1 84
0.518851 0.225364 0.161187 68 1 84
0.554612 0.232763 0.257956 68 1 84
-0.209749 -0.504329 -0.286650 68 1 84
-0.193302 -0.054350 -0.221306 68 1 84
0.365104 0.154203 -0.100389 68 1 84
-0.587104 -0.310605 0.146251 46 107 142
-0.639255 -0.196306 0.356801 39 125 142
0.065026 0.369765 -0.243832 70 48 125
-0.603653 0.074564 0.436149 68 1 84
0.028700 0.049831 -0.424287 69 53 128
-0.541505 0.304837 0.428972 68 1 84
0.209679 -0.423418 -0.178650 68 1 84
0.673017 -0.428397 0.524199 40 122 142
-0.055340 0.551328 -0.208734 69 53 128
-0.574354 0.210549 0.423540 68 1 84
-0.116359 0.418680 -0.212450 71 18 101
-0.261759 0.577962 0.088204 31 147 139
-0.476134 -0.323210 -0.015953 70 12 95
-0.530189 -0.410421 -0.009449 30 158 136
-0.538255 0.318549 0.411105 68 1 84
0.402593 0.485906 0.254172 68 1 84
0.048831 -0.298520 -0.316649 68 1 84
0.526292 -0.391895 0.081515 60 78 138
-0.292074 0.346600 -0.120729 68 1 84
0.513120 0.350667 0.403283 68 1 84
0.582674 0.033790 0.266226 68 1 84
-0.556073 0.217177 0.248144 68 1 84
0.137213 0.136288 -0.249408 68 1 84
0.586883 -0.116340 0.265983 69 6 90
-0.221914 0.324673 -0.180449 71 39 119
-0.088689 -0.430873 -0.299566 68 1 84
0.318118 0.303033 -0.109623 68 1 84
0.047724 -0.139080 -0.434044 68 1 84
0.075931 -0.331107 -0.228295 68 1 84
-0.383856 -0.400367 -0.154265 69 5 88
-0.355656 -0.490482 -0.212687 68 1 84
0.673511 -0.538714 0.466404 32 164 133
-0.155334 -0.178837 -0.233493 68 1 84
0.516291 -0.083477 0.058685 68 1 84
0.627473 -0.222575 0.454641 55 89 140
-0.390463 0.507398 0.261909 71 20 102
0.477237 -0.246333 -0.005337 62 72 136
0.360805 0.010890 -0.124694 68 1 84
0.328454 0.469289 -0.014039 72 33 114
-0.071400 -0.392545 -0.304042 68 1 84
-0.292907 -0.143563 -0.151652 68 1 84
-0.312528 0.560226 0.197771 66 64 133
0.269634 0.099942 -0.179184 68 1 84
0.451960 0.217835 0.045207 68 1 84
-0.391095 0.413015 0.082778 68 1 84
0.266617 0.474315 -0.109559 66 64 133
-0.576107 -0.068781 0.145236 68 1 84
-0.555620 -0.165221 0.071412 69 5 88
0.587391 0.029809 0.517207 68 1 84
-0.636769 -0.154829 0.389937 44 114 142
0.128469 0.040976 -0.234313 68 1 84
0.407210 0.064574 -0.066394 68 1 84
-0.425130 -0.248424 -0.067498 68 1 84
-0.588909 -0.135041 0.156554 68 1 84
-0.328518 0.014471 -0.151923 68 1 84
-0.279837 0.057403 -0.183247 68 1 84
-0.377754 0.508015 0.197738 68 1 84
-0.137935 0.367454 -0.223595 71 21 103
-0.565347 -0.114514 0.094203 68 1 84
0.521259 0.331593 0.421448 68 1 84
-0.498165 -0.278417 0.012340 36 132 141
-0.427856 0.476729 0.277517 68 1 84
0.280390 0.108856 -0.173937 68 1 84
0.140092 -0.449220 -0.252887 68 1 84
0.540375 -0.355126 0.103523 40 122 142
0.561287 -0.103515 0.174521 68 1 84
-0.166937 0.300406 -0.213777 68 1 84
0.521194 0.311882 0.469693 68 1 84
-0.517753 0.321183 0.227389 68 1 84
-0.158794 0.426268 -0.188798 68 1 84
-0.102102 -0.044498 -0.416308 68 1 84
0.615902 -0.269076 0.320802 52 94 141
0.626126 -0.242576 0.419861 42 118 142
-0.131655 -0.100564 -0.296525 68 1 84
-0.554735 0.253834 0.276087 68 1 84
0.421131 0.463977 0.219276 68 1 84
-0.304156 0.292717 -0.140070 69 6 90
0.584307 -0.249512 0.201315 63 69 135
-0.362406 -0.159470 -0.120957 68 1 84
0.602365 -0.052933 0.371275 68 1 84
0.369290 0.395259 0.018082 68 1 84
-0.348944 0.359231 -0.033603 68 1 84
0.591498 0.098455 0.380132 68 1 84
0.373485 0.462851 0.075948 68 1 84
0.007384 -0.247715 -0.394463 68 1 84
0.101873 -0.321277 -0.188959 68 1 84
-0.072040 -0.131981 -0.413222 68 1 84
0.597508 -0.175747 0.288177 59 80 138
-0.150484 -0.195837 -0.233282 68 1 84
-0.055504 0.563595 -0.202323 54 90 140
0.155201 0.532138 -0.190418 47 106 141
0.168448 0.312759 -0.214959 72 26 108
-0.364874 0.110932 -0.116982 68 1 84
-0.044150 0.566117 -0.204196 68 55 129
-0.460667 0.067868 -0.007388 68 1 84
-0.155574 0.396672 -0.203374 66 64 133
0.145789 -0.481841 -0.280233 68 1 84
0.557399 -0.041203 0.178853 68 1 84
-0.552393 -0.343597 0.069282 48 180 122
0.264106 0.493296 -0.104807 60 77 138
-0.084868 0.597137 -0.166045 55 89 140
-0.505383 -0.368927 -0.013423 42 117 142
-0.562424 -0.400216 0.076105 51 182 121
0.526461 0.218209 0.172066 68 1 84
0.194459 0.196661 -0.185430 68 1 84
0.305675 -0.089844 -0.159832 68 1 84
0.118438 -0.003787 -0.390679 72 30 112
-0.438092 -0.308375 -0.057509 71 38 118
0.081272 0.137595 -0.284967 70 9 92
0.658640 -0.471555 0.421178 83 197 103
0.129471 0.031125 -0.234267 68 1 84
0.391627 -0.060025 -0.107438 68 1 84
-0.052609 0.562988 -0.203593 69 50 127
0.042801 0.630797 -0.124227 64 189 114
-0.444471 0.460973 0.332113 68 1 84
0.456571 0.364948 0.146873 68 1 84
-0.019802 0.090610 -0.317333 72 28 110
0.137708 -0.069541 -0.292056 68 1 84
0.586511 0.078835 0.486538 68 1 84
-0.517318 0.347864 0.267348 68 1 84
-0.274569 0.576195 0.126414 43 115 142
-0.154416 -0.015295 -0.323929 67 60 132
0.361179 0.118856 -0.111211 68 1 84
0.140506 -0.073122 -0.271225 68 1 84
-0.658398 -0.473637 0.354016 83 197 103
0.608634 -0.065323 0.465687 68 1 84
-0.065352 0.031454 -0.447074 62 73 137
-0.579380 0.159556 0.299923 68 1 84
-0.481204 0.059975 0.018159 68 1 84
-0.372339 -0.471496 -0.193370 68 1 84
-0.432933 0.321829 0.068225 68 1 84
0.257419 -0.231172 -0.145744 68 1 84
0.468994 -0.192865 -0.026650 71 44 123
-0.423345 0.097703 -0.049073 68 1 84
0.468235 0.420731 0.338922 68 1 84
0.279810 -0.188612 -0.154492 68 1 84
0.251864 0.556962 -0.069832 62 72 136
-0.522728 -0.394144 -0.009177 30 156 137
-0.073430 -0.302246 -0.332949 68 1 84
-0.485933 0.192555 0.076681 68 1 84
0.114125 0.262720 -0.253702 71 38 118
0.111376 0.237967 -0.242318 68 2 85
-0.141705 -0.170449 -0.257056 68 1 84
0.474150 -0.551704 -0.063534 68 1 84
-0.575366 0.209071 0.409203 68 1 84
-0.356433 0.403906 0.019560 69 6 90
0.092906 0.481538 -0.230092 70 47 124
0.472870 -0.150249 -0.021858 70 12 95
0.194474 0.114473 -0.213770 68 1 84
-0.536509 -0.022079 0.067814 68 2 85
-0.369400 0.047595 -0.119129 68 1 84
0.610493 -0.509279 0.316130 64 189 114
-0.537117 0.327315 0.375042 68 1 84
0.137996 -0.038077 -0.341850 68 1 84
0.406574 0.477388 0.202198 68 1 84
-0.531170 0.335216 0.312863 68 1 84
0.590778 0.105261 0.381693 68 1 84
0.089685 0.006295 -0.451719 68 1 84
-0.551198 0.256347 0.482588 68 1 84
0.099796 0.004894 -0.339545 68 1 84
-0.573326 0.053774 0.220430 68 1 84
0.179761 -0.058286 -0.209522 68 1 84
0.637506 -0.348052 0.420296 30 160 135
0.350960 -0.105872 -0.134582 68 1 84
0.554614 -0.419764 0.151740 33 142 140
0.177456 0.017827 -0.203677 68 1 84
0.060262 0.414099 -0.231896 68 1 84
-0.473649 0.332107 0.142547 68 1 84
0.302702 -0.451106 -0.202905 68 1 84
0.604642 -0.222909 0.294069 66 62 133
0.501456 0.163122 0.098999 68 1 84
0.010021 -0.422397 -0.317067 68 1 84
0.108771 -0.116823 -0.306023 68 1 84
-0.520567 0.342308 0.441492 68 1 84
0.382862 -0.168367 -0.111378 68 1 84
-0.092306 -0.029473 -0.443916 68 1 84
0.012118 0.470109 -0.237735 72 30 112
0.497055 0.078040 0.069813 68 1 84
0.489654 0.083256 0.058883 68 1 84
0.472352 0.277169 0.112071 68 1 84
-0.485865 0.414014 0.332330 68 1 84
0.569757 -0.166575 0.174945 71 40 120
-0.291648 -0.495272 -0.246921 68 1 84
-0.204307 -0.136634 -0.198399 68 1 84
-0.617896 -0.158089 0.281011 32 145 140
-0.173561 0.591758 -0.086578 49 101 141
-0.151227 0.614750 -0.070693 42 118 142
0.397819 0.416733 0.083424 68 1 84
0.499785 0.214091 0.120189 68 1 84
0.650931 -0.313681 0.532642 68 1 84
-0.541561 -0.432233 0.000586 32 145 140
-0.477093 0.164157 0.051387 68 1 84
-0.071323 -0.263830 -0.352526 68 1 84
0.628362 -0.296346 0.363938 30 158 136
-0.363758 0.522065 0.203972 72 25 107
-0.079925 0.625441 -0.128600 32 143 140
0.277912 -0.569591 -0.245202 68 1 84
-0.270837 0.502107 -0.033870 71 39 119
0.097667 -0.507407 -0.304205 68 1 84
0.524617 0.192447 0.154884 68 1 84
-0.534957 -0.397802 0.010608 32 164 133
0.556508 0.002252 0.179131 68 1 84
0.204824 -0.386504 -0.150882 68 1 84
0.624647 -0.205215 0.468068 60 77 138
0.450806 0.103752 0.006128 68 1 84
-0.160790 -0.434633 -0.255706 68 1 84
-0.660434 -0.275969 0.412659 39 173 128
0.210537 -0.498196 -0.253398 68 1 84
0.552040 0.137346 0.194507 68 1 84
0.271257 -0.185483 -0.158375 68 1 84
-0.358324 0.076061 -0.126901 68 1 84
-0.540894 0.061569 0.128168 68 1 84
-0.124911 -0.391371 -0.236852 68 1 84
0.330008 0.370405 -0.066046 68 1 84
0.279268 -0.467282 -0.208455 68 1 84
0.598470 0.017427 0.365986 68 1 84
-0.668373 -0.436972 0.377270 85 198 102
0.478618 -0.225390 -0.008492 62 72 136
-0.032457 0.573677 -0.201569 71 38 118
-0.277184 0.537433 0.021006 57 85 139
0.216022 -0.383076 -0.151203 68 1 84
0.100633 -0.349379 -0.190659 68 1 84
0.231587 0.586072 -0.048308 44 113 142
0.235112 0.347732 -0.160821 72 32 113
0.443084 -0.123324 -0.056989 68 1 84
-0.374172 0.356038 0.004208 68 1 84
0.247462 0.195547 -0.164836 68 1 84
0.152028 -0.042555 -0.258576 68 1 84
-0.396609 0.250923 -0.030760 68 1 84
-0.209500 0.502959 -0.117003 63 71 136
0.266648 0.490757 -0.102516 60 77 138
-0.155441 -0.269561 -0.165782 68 1 84
-0.325746 -0.215695 -0.119854 68 1 84
-0.460655 0.443618 0.291066 68 1 84
-0.621321 -0.021523 0.457063 69 8 91
0.551826 -0.485685 0.154407 33 140 141
-0.500765 0.375789 0.432427 68 1 84
0.117428 -0.072669 -0.352817 68 1 84
-0.664753 -0.372075 0.346319 89 199 100
-0.443676 0.354102 0.111116 68 1 84
0.058709 0.215445 -0.266930 68 1 84
0.551086 -0.325044 0.123022 47 105 141
-0.204081 0.026492 -0.207978 68 1 84
-0.396137 0.263839 -0.024940 68 1 84
0.611167 -0.138766 0.385216 63 69 135
-0.323416 0.233637 -0.141825 68 1 84
-0.260789 0.446541 -0.092572 71 17 99
0.587586 0.045395 0.504586 68 1 84
0.432219 0.437028 0.177276 68 1 84
0.457612 0.165909 0.032359 68 1 84
-0.579305 0.193631 0.386479 68 1 84
0.412539 0.119576 -0.043273 68 1 84
-0.040560 -0.509733 -0.324826 68 1 84
0.034247 -0.487729 -0.318124 68 1 84
-0.490419 -0.027841 -0.006094 68 1 84
0.071906 -0.136338 -0.394603 68 1 84
0.112470 0.189951 -0.259464 68 1 84
-0.034130 -0.131326 -0.454159 68 1 84
0.318709 0.547279 0.100707 68 1 84
-0.457395 0.050181 -0.018276 68 1 84
-0.292638 0.490053 -0.006933 51 96 141
-0.529555 -0.417039 -0.016134 35 169 130
-0.148461 -0.382501 -0.189263 68 1 84
0.572811 -0.084056 0.220697 68 1 84
-0.609975 0.008581 0.378647 70 11 94
-0.300549 0.376743 -0.090734 68 1 84
0.406109 0.192553 -0.028454 68 1 84
0.455377 -0.246253 -0.032222 67 60 132
-0.497062 0.367366 0.230732 68 1 84
0.424410 0.466954 0.297297 68 1 84
-0.499055 0.393650 0.304041 68 1 84
-0.492162 0.392171 0.413269 68 1 84
-0.112447 -0.352028 -0.224723 68 1 84
0.057562 -0.297244 -0.292512 68 1 84
0.388814 0.484558 0.147276 68 1 84
0.209358 0.530844 -0.151149 64 68 135
0.191411 0.094789 -0.212744 68 1 84
-0.081361 -0.212720 -0.348262 68 1 84
-0.616198 0.007936 0.447117 68 1 84
0.160459 0.519617 -0.191113 63 69 135
0.483706 -0.545180 -0.042651 68 1 84
-0.231614 0.226485 -0.203184 68 1 84
0.122411 -0.179376 -0.253752 68 1 84
-0.692713 -0.407237 0.474926 126 210 78
0.332395 0.073519 -0.142837 68 1 84
-0.409600 -0.369487 -0.112834 68 57 130
0.322009 0.429892 -0.049944 69 54 129
-0.688674 -0.416244 0.448027 167 219 51
0.618986 -0.162155 0.480223 71 40 120
-0.503351 0.385630 0.370548 68 1 84
0.535420 0.218685 0.191706 68 1 84
-0.012047 -0.347694 -0.343516 68 1 84
-0.686815 -0.474738 0.438462 223 227 24
0.152392 -0.042681 -0.251256 68 1 84
0.046879 0.430454 -0.233844 68 1 84
0.492613 -0.078007 0.017406 68 1 84
0.255457 -0.495735 -0.230346 68 1 84
0.594083 -0.433146 0.256124 33 166 133
-0.534570 0.324133 0.299472 68 1 84
0.670001 -0.424787 0.499818 32 144 140
-0.379408 -0.432803 -0.168554 68 1 84
-0.136760 0.510755 -0.180364 68 1 84
0.383144 -0.147530 -0.111500 68 1 84
-0.428172 -0.275312 -0.067436 68 1 84
-0.591056 0.113459 0.494585 68 1 84
-0.198993 0.348750 -0.192010 72 29 111
0.540092 0.117796 0.159318 68 1 84
0.270046 -0.210701 -0.149932 68 1 84
0.446379 -0.280077 -0.027342 58 83 139
-0.450988 -0.279748 -0.038699 69 6 90
-0.156306 0.237258 -0.215265 68 1 84
-0.620410 -0.422308 0.250201 79 195 105
0.075962 0.013421 -0.359075 70 11 94
-0.143229 0.000277 -0.344713 72 35 116
0.104424 -0.243938 -0.244658 68 1 84
-0.098208 0.315180 -0.257546 69 52 127
0.122453 0.598706 -0.157098 52 94 141
-0.584170 -0.316694 0.137665 35 136 141
-0.539703 0.057055 0.122905 68 1 84
0.504284 0.351198 0.454003 68 1 84
0.451135 -0.180440 -0.048394 71 39 119
-0.237255 -0.402895 -0.176195 68 1 84
0.268307 0.288502 -0.144025 68 1 84
-0.397196 0.492064 0.208391 68 1 84
-0.034480 0.321985 -0.274858 68 2 85
-0.585988 0.091555 0.292896 68 1 84
0.088208 0.485323 -0.231029 69 8 91
0.617775 -0.384602 0.328901 59 186 117
0.489961 0.216173 0.104284 68 1 84
-0.567673 -0.477613 0.096688 57 185 118
0.063804 -0.404382 -0.271355 68 1 84
0.015247 -0.010511 -0.504162 68 1 84
0.458609 -0.480374 -0.090889 68 1 84
-0.283915 0.329265 -0.139540 68 1 84
0.506455 -0.159689 0.027865 71 18 101
-0.158310 -0.435776 -0.259190 68 1 84
-0.029866 -0.032113 -0.497661 68 1 84
-0.257588 -0.382963 -0.169699 68 1 84
-0.697947 -0.423493 0.511482 119 208 82
-0.614691 -0.057359 0.347491 72 29 111
-0.472481 0.427971 0.284348 68 1 84
0.680371 -0.510694 0.482234 32 164 133
-0.149234 0.592124 -0.121127 48 104 141
-0.598386 -0.306632 0.178749 45 110 142
-0.565744 -0.207907 0.093927 72 26 108
-0.197507 -0.232380 -0.151748 68 1 84
-0.455691 -0.198133 -0.056200 68 1 84
-0.354621 -0.052706 -0.133890 68 1 84
0.314579 0.546829 0.080566 68 1 84
0.325405 -0.174850 -0.141552 68 1 84
0.509551 0.240238 0.152362 68 1 84
0.546237 0.023823 0.154774 68 1 84
0.324077 0.370577 -0.075113 68 1 84
0.086675 0.612893 -0.150324 37 131 141
0.516437 -0.265268 0.055419 48 104 141
-0.046652 0.600202 -0.176714 47 105 141
0.615925 -0.168742 0.388508 65 65 134
-0.658538 -0.405507 0.338630 129 211 76
-0.446246 0.456204 0.267593 68 1 84
0.563201 -0.448369 0.178507 42 119 142
0.183915 0.568299 -0.149208 47 105 141
0.375390 0.183322 -0.080159 68 1 84
-0.364460 0.526488 0.245817 68 57 130
0.121108 0.457318 -0.218036 64 67 135
-0.419179 0.077965 -0.059643 68 1 84
-0.606874 -0.338581 0.203968 35 135 141
-0.000216 -0.014581 -0.504989 68 1 84
0.375618 -0.260342 -0.093283 68 1 84
0.582300 0.159430 0.353876 68 1 84
0.395326 -0.327069 -0.070577 71 20 102
0.495315 -0.061363 0.027535 68 1 84
0.151798 -0.018326 -0.256167 68 1 84
-0.125360 -0.071093 -0.327532 69 5 88
-0.644887 -0.195511 0.401734 49 102 141
-0.527834 -0.068295 0.033478 68 1 84
-0.224317 0.380095 -0.165533 44 112 142
0.100079 0.011967 -0.393365 62 72 136
-0.592609 0.125299 0.448656 68 1 84
-0.143496 0.441573 -0.192017 68 1 84
-0.486973 0.378983 0.219910 68 1 84
-0.576690 -0.224364 0.117092 51 97 141
0.121771 -0.389382 -0.184349 68 1 84
0.526976 -0.229833 0.066400 56 86 139
0.290051 -0.100681 -0.167195 68 1 84
0.591333 -0.083343 0.295456 68 1 84
-0.410608 0.303768 0.021500 68 1 84
0.369991 0.461208 0.066670 68 1 84
-0.471813 -0.391852 -0.071721 58 83 139
-0.335514 0.337329 -0.073263 68 1 84
0.105758 0.029515 -0.274642 68 1 84
0.152295 -0.329917 -0.145424 68 1 84
-0.082805 0.103454 -0.289867 68 1 84
-0.009016 0.301191 -0.284474 54 90 140
0.585664 -0.364122 0.218775 30 155 137
0.116668 -0.052378 -0.385296 68 1 84
-0.454198 -0.233009 -0.044629 68 1 84
0.209473 0.026833 -0.194435 68 1 84
-0.175413 0.139453 -0.238299 68 1 84
0.317570 -0.042104 -0.154733 68 1 84
0.582978 0.134315 0.437937 68 1 84
0.362474 0.518604 0.182963 68 1 84
-0.540310 0.309128 0.296606 68 1 84
-0.606757 -0.300450 0.200312 43 116 142
0.225884 -0.539054 -0.262621 68 1 84
-0.632300 -0.072844 0.531045 68 3 87
0.438538 -0.385426 -0.029900 71 21 103
0.359055 -0.586188 -0.191343 68 1 84
0.315648 0.179200 -0.146451 68 1 84
0.627587 -0.438304 0.363497 41 175 127
-0.682245 -0.353545 0.449617 56 185 118
0.076251 -0.017241 -0.474260 68 1 84
-0.484880 -0.035585 -0.015913 68 1 84
0.215446 -0.156464 -0.188425 68 1 84
-0.523801 -0.530510 -0.053582 49 101 141
0.218410 0.587127 -0.077932 68 57 130
-0.162979 0.517703 -0.157029 71 44 123
0.556460 -0.481198 0.165811 33 141 140
0.509423 -0.513239 0.020086 70 49 126
-0.118081 -0.273770 -0.233003 68 1 84
-0.250524 0.413949 -0.124594 71 39 119
-0.012851 -0.165050 -0.443967 68 1 84
0.403720 -0.501184 -0.157656 68 1 84
-0.111697 0.195061 -0.269055 60 77 138
-0.202897 -0.436973 -0.220385 68 1 84
-0.573451 -0.118344 0.113917 71 44 123
0.334598 -0.563586 -0.208322 68 1 84
-0.603816 -0.269941 0.189156 40 123 142
-0.448668 0.193166 0.021231 68 1 84
-0.595089 0.103176 0.365842 68 1 84
0.323304 0.394073 -0.064886 68 1 84
0.503939 0.085299 0.082552 68 1 84
-0.197269 0.154868 -0.229742 68 1 84
-0.306852 0.424737 -0.043994 71 43 122
-0.119048 -0.088490 -0.327205 68 1 84
0.085795 0.198792 -0.266194 68 1 84
0.205121 0.428898 -0.167819 48 103 141
-0.457231 -0.311754 -0.033732 70 48 125
0.142831 0.314148 -0.232927 67 59 131
0.501270 -0.267916 0.033738 47 106 141
-0.083962 0.216713 -0.266273 54 90 140
-0.388395 0.028928 -0.102561 68 1 84
-0.140956 0.569606 -0.151418 69 50 127
0.453533 -0.454042 -0.074964 68 3 87
0.095803 0.004939 -0.332390 68 1 84
-0.216875 -0.144791 -0.188063 68 1 84
0.284436 0.011864 -0.172226 68 1 84
0.574866 -0.416871 0.202213 30 153 138
0.528395 0.137750 0.140168 68 1 84
-0.606080 -0.234201 0.194682 31 149 139
-0.674760 -0.320007 0.428533 53 183 120
-0.502580 0.102857 0.069797 68 1 84
-0.343960 -0.444673 -0.188596 68 1 84
0.356968 -0.031153 -0.130704 68 1 84
0.463521 0.209964 0.058225 68 1 84
0.428716 0.461437 0.330372 68 1 84
0.620171 -0.432571 0.346113 37 171 129
0.331265 -0.356965 -0.128992 68 1 84
0.620606 -0.197484 0.409157 49 102 141
0.624924 -0.210439 0.481758 58 83 139
-0.576018 -0.075906 0.139645 68 1 84
-0.375460 -0.072633 -0.121167 68 1 84
0.392096 0.355759 0.034780 68 1 84
0.084867 0.628685 -0.113199 34 167 132
-0.425823 0.364371 0.091218 68 1 84
-0.192902 -0.104651 -0.216347 68 1 84
-0.322229 -0.395690 -0.182882 68 1 84
0.472067 0.281227 0.114406 68 1 84
-0.213852 -0.352826 -0.134152 68 1 84
0.501527 -0.030269 0.049040 68 1 84
0.445219 0.258775 0.057531 68 1 84
0.126521 0.042259 -0.235886 68 1 84
0.034794 -0.308605 -0.336820 68 1 84
0.320546 0.240492 -0.128600 68 1 84
0.612995 -0.145206 0.392428 61 76 137
-0.420243 -0.304268 -0.077982 68 1 84
0.019103 -0.301583 -0.357913 68 1 84
0.439793 -0.445259 -0.083720 68 1 84
0.593774 0.065228 0.358073 68 1 84
0.594463 -0.001142 0.506525 68 1 84
0.109254 0.621543 -0.127039 42 117 142
0.165351 0.585381 -0.147030 59 81 138
0.427054 -0.325448 -0.028677 58 83 139
-0.048786 -0.311384 -0.353653 68 1 84
-0.554853 0.283730 0.346166 68 1 84
0.002472 0.040861 -0.474137 72 25 107
-0.675079 -0.456088 0.401680 114 207 85
-0.232162 0.280449 -0.179436 68 1 84
-0.572742 0.181387 0.502195 68 1 84
-0.430844 0.244426 0.017925 68 1 84
0.007934 0.385286 -0.242724 69 5 88
-0.110867 0.332542 -0.247841 71 40 120
-0.452749 -0.427229 -0.118566 67 58 131
0.040520 0.202628 -0.287831 62 72 136
0.645782 -0.402807 0.415065 53 183 120
0.488905 0.242252 0.118178 68 1 84
0.296727 0.558058 0.057692 68 1 84
0.431843 0.458810 0.305484 68 1 84
0.108923 0.007645 -0.385811 70 45 124
-0.416526 0.423152 0.132675 68 1 84
-0.348871 0.313859 -0.070469 68 1 84
-0.087945 -0.340465 -0.279067 68 1 84
0.574584 0.011105 0.232320 68 1 84
0.632395 -0.271542 0.441175 49 101 141
-0.246183 -0.272287 -0.144177 68 1 84
-0.386533 -0.543564 -0.203063 68 1 84
-0.632123 -0.073111 0.518406 71 21 103
-0.155924 -0.016806 -0.320362 69 50 127
-0.221973 0.230855 -0.203272 68 1 84
0.516735 0.014247 0.091508 68 1 84
0.539552 -0.028115 0.131546 68 1 84
0.316971 -0.298567 -0.136661 68 1 84
-0.066216 0.583325 -0.185820 50 99 141
-0.619762 -0.029258 0.419012 71 18 101
0.181778 -0.439123 -0.198026 68 1 84
-0.598032 -0.074333 0.243278 71 20 102
0.176693 -0.235505 -0.175581 68 1 84
0.073334 0.032988 -0.303519 68 1 84
0.151871 -0.012787 -0.270300 68 1 84
-0.010459 -0.410794 -0.324445 68 1 84
-0.196509 0.595368 -0.031781 35 135 141
0.286423 0.165190 -0.165973 68 1 84
-0.225167 -0.392102 -0.167193 68 1 84
-0.030501 0.356030 -0.260144 68 1 84
0.587879 -0.471320 0.245502 33 166 133
0.316907 0.008371 -0.154211 68 1 84
-0.435897 -0.358089 -0.079881 65 65 134
0.263789 0.499924 -0.101823 64 67 135
-0.009976 0.533073 -0.226500 53 92 140
0.495354 0.379220 0.262651 68 1 84
-0.630783 -0.458325 0.275747 116 208 84
-0.195964 -0.291638 -0.139809 68 1 84
0.558777 -0.544695 0.170557 36 132 141
0.134933 -0.208104 -0.227229 68 1 84
-0.233147 0.125104 -0.209912 68 1 84
0.600567 -0.197117 0.289690 65 66 134
0.329049 0.265786 -0.111998 68 1 84
0.504313 0.131624 0.093704 68 1 84
0.498104 -0.434912 0.020660 69 53 128
-0.583067 -0.060862 0.179053 68 1 84
-0.318365 -0.240732 -0.127585 68 1 84
0.369602 0.458869 0.063473 68 1 84
-0.230088 -0.408483 -0.177940 68 1 84
0.040000 0.590291 -0.190289 30 160 135
0.528760 0.323116 0.279716 68 1 84
-0.471527 0.431845 0.331512 68 1 84
-0.674309 -0.278519 0.498187 34 137 141
0.436379 0.075081 -0.023346 68 1 84
0.150810 -0.021365 -0.302329 68 1 84
-0.115233 0.010547 -0.383283 65 65 134
-0.271584 -0.375141 -0.160716 68 1 84
0.414149 0.364167 0.075628 68 1 84
0.313639 0.171039 -0.148611 68 1 84
-0.621190 -0.131677 0.324190 56 86 139
0.590431 0.039988 0.314049 68 1 84
0.196048 -0.006966 -0.198540 68 1 84
0.112477 0.004745 -0.328630 68 1 84
0.554934 0.258395 0.404116 68 1 84
0.597953 -0.030163 0.553828 68 1 84
-0.213348 -0.456124 -0.248490 68 1 84
-0.608020 -0.222266 0.201788 43 116 142
-0.567144 -0.224561 0.097474 39 126 142
-0.029396 0.633859 -0.121487 53 183 120
0.518143 0.307691 0.492070 68 1 84
0.375761 0.397940 0.032078 68 1 84
-0.206451 0.546826 -0.091898 68 1 84
0.533511 -0.434929 0.096781 44 113 142
-0.074270 0.024828 -0.447041 64 67 135
-0.154072 -0.119355 -0.256980 68 1 84
0.351962 0.494842 0.067042 68 1 84
0.475693 -0.449018 -0.037733 68 1 84
0.338868 -0.078157 -0.142952 68 1 84
0.587871 -0.438560 0.241100 30 156 137
0.334568 0.465873 -0.003708 71 17 99
0.100039 0.446397 -0.225852 70 48 125
-0.543987 -0.497037 0.000941 35 136 141
-0.616758 -0.041096 0.383730 60 78 138
-0.395000 -0.410116 -0.147317 68 1 84
0.545880 -0.560997 0.139606 37 131 141
0.296906 -0.302515 -0.146259 68 1 84
0.258164 0.484634 -0.115903 65 65 134
0.386790 0.016346 -0.101357 68 1 84
-0.661106 -0.467084 0.367272 112 206 86
0.153199 0.370739 -0.210265 61 75 137
0.587509 0.072774 0.486616 68 1 84
-0.044719 -0.384325 -0.323900 68 1 84
0.337680 -0.143178 -0.139369 68 1 84
0.485953 0.296240 0.147341 68 1 84
0.136977 0.062747 -0.233874 68 1 84
-0.123344 0.279654 -0.237601 68 1 84
-0.547694 -0.489024 0.018374 30 159 136
0.363478 -0.135466 -0.125112 68 1 84
-0.431367 0.416467 0.151408 68 1 84
-0.089700 -0.369341 -0.279051 68 1 84
-0.319980 -0.509324 -0.238630 68 1 84
0.404893 0.229989 -0.015831 68 1 84
0.650425 -0.474392 0.401160 53 183 120
-0.366972 -0.257099 -0.116733 68 1 84
0.357602 0.007979 -0.127241 68 1 84
-0.116993 -0.246207 -0.262463 68 1 84
-0.579827 0.175516 0.321317 68 1 84
0.545518 0.192953 0.201537 68 1 84
-0.132737 -0.183362 -0.267070 68 1 84
-0.585681 -0.245453 0.136918 46 107 142
-0.047850 0.410568 -0.233022 71 18 101
0.413716 0.252117 0.008228 68 1 84
-0.057017 -0.091597 -0.458167 68 1 84
-0.547076 0.022099 0.120892 69 5 88
-0.520505 -0.370952 0.005048 30 158 136
-0.221315 -0.342058 -0.131377 68 1 84
-0.684844 -0.366176 0.455791 83 197 103
0.268049 -0.329551 -0.154639 68 1 84
0.299682 0.073228 -0.164514 68 1 84
0.137557 -0.098984 -0.250899 68 1 84
-0.594241 -0.214453 0.161876 56 86 139
-0.274087 0.073538 -0.186834 68 1 84
-0.349137 0.028213 -0.135748 68 1 84
0.295944 0.210569 -0.150216 68 1 84
-0.523687 0.143163 0.127210 68 1 84
-0.488703 0.109221 0.049414 68 1 84
0.480941 0.150628 0.061286 68 1 84
-0.116417 -0.079205 -0.340443 68 1 84
-0.315189 0.302122 -0.123666 68 1 84
-0.218050 -0.092877 -0.201013 68 1 84
0.542734 0.249919 0.485848 68 1 84
-0.549760 0.271595 0.275895 68 1 84
-0.537913 -0.388554 0.023154 30 158 136
-0.499340 -0.275263 0.013117 36 132 141
-0.292976 0.436531 -0.055326 64 67 135
-0.280957 0.553762 0.063515 44 114 142
0.167817 0.193748 -0.216059 68 1 84
-0.295077 0.383603 -0.092538 68 1 84
0.320584 0.548915 0.132367 69 50 127
-0.223131 -0.517423 -0.283868 68 1 84
