ply
format ascii 1.0
element vertex 1264
property float x
property float y
property float z
property uchar red
property uchar green
property uchar blue
end_header
0.082226 -0.134178 -0.370640 46 108 142
0.612614 0.507725 0.187941 68 1 84
0.355417 0.085439 -0.208321 37 131 141
0.143093 0.217848 -0.333164 49 102 141
-0.493192 0.023684 -0.101528 68 1 84
-0.604497 -0.481611 0.363112 72 25 107
-0.179120 -0.126021 -0.271427 70 9 92
-0.666212 -0.109182 0.461284 60 77 138
0.618134 -0.388200 0.451830 42 119 142
0.666019 0.115243 0.191286 72 32 113
0.660178 0.128247 0.516773 61 74 137
-0.231738 -0.389787 -0.253390 68 1 84
0.171900 0.174539 -0.292420 69 52 127
-0.660018 -0.306858 0.448294 71 42 121
-0.324704 -0.233522 -0.235351 68 1 84
0.587141 -0.409409 0.280180 69 54 129
0.394655 -0.550284 -0.012237 68 1 84
0.186247 -0.379253 -0.300832 68 1 84
-0.550391 -0.102637 -0.015010 68 1 84
0.643708 -0.163391 0.474330 31 146 140
-0.569596 0.456389 0.114081 68 1 84
0.163531 -0.237412 -0.299964 68 1 84
0.127887 -0.319867 -0.335314 71 24 106
-0.655934 0.419635 0.309383 68 1 84
-0.647809 0.278614 0.195111 72 25 107
-0.024296 -0.138989 -0.362814 46 107 142
0.555078 -0.538560 0.357578 58 83 139
-0.523986 -0.287747 0.000123 68 1 84
0.378687 0.360031 -0.093798 68 1 84
0.543183 -0.401759 0.135660 68 1 84
0.385526 0.258456 -0.091253 72 26 108
-0.646988 0.209227 0.190362 68 1 84
0.342436 -0.271449 -0.216722 43 115 142
-0.122116 0.310588 -0.186956 65 66 134
0.554292 0.370255 0.069502 68 1 84
0.047230 0.156348 -0.383950 83 197 103
0.572735 0.089554 -0.000968 68 1 84
0.134350 0.052060 -0.308013 56 86 139
-0.450055 -0.504423 0.051776 68 1 84
0.430986 0.006105 -0.172416 65 65 134
-0.259297 -0.050663 -0.276078 39 125 142
-0.583972 -0.424377 0.243867 68 1 84
-0.633166 0.133221 0.510658 61 74 137
-0.662065 0.347990 0.314056 68 1 84
-0.020255 -0.196865 -0.320591 68 1 84
-0.270849 0.408849 -0.135037 59 80 138
-0.645147 0.485286 0.267717 68 1 84
0.407130 0.595456 -0.123995 71 44 123
0.299050 0.561446 -0.199878 58 82 139
-0.414896 -0.399825 -0.100196 68 1 84
-0.644173 0.179263 0.437999 56 87 140
-0.150876 0.151134 -0.243590 46 107 142
0.562931 0.459096 0.063852 68 1 84
-0.586290 -0.499129 0.293341 68 1 84
-0.426053 0.197805 -0.118386 68 1 84
-0.130824 -0.515583 -0.236124 68 1 84
-0.226256 0.022293 -0.271742 35 137 141
-0.102984 -0.033229 -0.356401 39 124 142
0.532958 -0.314161 0.023472 68 1 84
0.636455 0.232904 0.158986 68 1 84
0.644162 0.419136 0.303529 68 1 84
0.133201 -0.235640 -0.310453 72 25 107
0.121156 0.032177 -0.333267 51 97 141
-0.194627 0.414384 -0.141756 70 47 124
0.612028 -0.405924 0.408012 55 89 140
0.627594 0.261209 0.151733 68 1 84
-0.183402 0.602134 -0.231981 96 201 96
0.500425 0.006493 -0.100152 71 15 98
-0.367909 -0.239440 -0.206183 68 1 84
0.658732 0.330046 0.452221 68 1 84
0.130428 -0.304137 -0.328719 72 28 110
0.596542 -0.016932 0.043262 64 67 135
0.648026 0.452983 0.346701 68 1 84
-0.140675 -0.512963 -0.236862 68 1 84
0.387560 0.117002 -0.178684 65 65 134
0.066502 -0.034059 -0.382361 39 125 142
-0.399662 0.530910 -0.108397 31 150 139
0.115437 0.388972 -0.196373 68 1 84
-0.720125 -0.058714 0.513767 30 154 137
-0.071177 -0.501396 -0.271496 68 1 84
-0.013920 0.063331 -0.355237 38 129 142
0.631321 -0.311980 0.462895 64 189 114
-0.663491 -0.156814 0.315269 57 85 139
-0.272108 0.310552 -0.129402 70 11 94
-0.197589 0.441115 -0.166389 68 57 130
-0.650951 0.403297 0.250253 68 1 84
-0.029951 0.402399 -0.241908 41 121 142
0.209625 -0.251978 -0.278154 66 61 132
-0.356636 0.287420 -0.093378 71 22 105
0.242317 0.403106 -0.143563 66 62 133
0.295292 -0.412153 -0.202587 68 1 84
-0.646604 0.146908 0.427134 68 55 129
-0.100186 -0.399551 -0.340487 68 1 84
0.627578 -0.338254 0.438395 47 105 141
-0.290748 0.259666 -0.141057 72 28 110
0.012394 0.505124 -0.243982 31 148 139
0.371686 -0.487717 -0.099204 68 1 84
0.380931 -0.575542 -0.002766 68 1 84
0.614348 0.504951 0.192507 68 1 84
-0.177731 0.380204 -0.144414 72 34 115
0.155966 -0.191319 -0.311908 70 45 124
0.092972 0.173189 -0.345838 38 129 142
-0.185032 -0.444676 -0.273144 68 1 84
0.144928 -0.174304 -0.326846 71 40 120
-0.024305 0.170390 -0.363141 64 189 114
-0.651857 0.193733 0.402446 64 68 135
0.657295 -0.050265 0.227200 64 68 135
-0.643839 0.288695 0.170843 68 3 87
-0.659370 0.339884 0.254429 68 1 84
0.573437 -0.209130 0.066057 50 98 141
0.029291 -0.204869 -0.323381 71 37 117
0.352756 -0.372054 -0.177042 68 1 84
0.428932 0.555331 -0.111694 71 37 117
0.659811 0.221043 0.587153 52 95 141
-0.414973 -0.256204 -0.159594 68 1 84
-0.508301 -0.178374 -0.068105 68 1 84
-0.053388 0.389256 -0.205423 30 155 137
-0.538403 -0.220691 -0.006828 68 1 84
0.409140 0.291980 -0.060729 68 1 84
-0.657340 0.362903 0.486363 68 1 84
-0.635614 -0.175327 0.219754 68 55 129
-0.476295 0.003725 -0.121394 68 1 84
-0.591544 0.224803 0.084625 68 1 84
0.544249 -0.418559 0.159333 68 1 84
-0.112956 -0.452309 -0.309843 68 1 84
-0.609102 0.481098 0.177588 68 1 84
-0.391713 0.475999 -0.096392 33 141 140
-0.025154 -0.029584 -0.386889 31 162 134
0.507796 0.501565 -0.026809 68 1 84
-0.447093 -0.534501 0.090049 68 1 84
-0.417801 -0.201419 -0.169928 68 1 84
-0.015830 0.265347 -0.411315 71 192 110
0.397316 0.580175 -0.139580 71 39 119
0.612649 -0.058819 0.108816 57 85 139
0.658609 0.088723 0.165107 68 2 85
0.668567 -0.060338 0.447310 51 97 141
0.197253 -0.113574 -0.277231 65 66 134
-0.549236 -0.163206 -0.006013 68 1 84
-0.670803 -0.121436 0.379720 57 84 139
0.637839 0.062107 0.114957 70 12 95
-0.205769 0.462082 -0.180632 52 94 141
0.299805 0.512407 -0.187136 61 76 137
-0.326204 -0.556799 -0.048303 68 1 84
0.633112 -0.229610 0.271402 43 116 142
0.203532 0.463612 -0.175146 67 59 131
-0.412672 -0.553034 0.071601 68 1 84
0.672611 0.062074 0.419512 50 99 141
0.604351 -0.421385 0.372279 48 103 141
0.130291 0.416090 -0.172097 68 1 84
0.012168 0.434253 -0.256103 42 117 142
-0.640563 0.245011 0.526357 43 115 142
0.609991 -0.384295 0.356759 62 73 137
-0.545137 -0.157625 -0.015308 68 1 84
-0.166713 -0.317294 -0.300003 68 1 84
0.566805 -0.303068 0.110526 70 9 92
0.184269 0.156875 -0.236728 64 68 135
-0.305383 -0.387933 -0.198710 68 1 84
-0.139368 0.441603 -0.150156 72 33 114
-0.143116 0.119021 -0.252341 42 119 142
-0.539389 -0.215156 -0.007077 68 1 84
0.650495 -0.190153 0.343763 30 154 137
-0.485114 -0.085335 -0.113969 68 1 84
-0.482524 -0.462125 0.066928 68 1 84
0.055238 -0.466597 -0.319127 68 1 84
-0.599348 0.298133 0.119233 68 1 84
-0.216672 -0.288192 -0.270363 68 1 84
0.645372 -0.089420 0.209943 60 77 138
0.392765 -0.319283 -0.165597 68 1 84
0.042145 0.445638 -0.251871 31 150 139
0.436004 0.529917 -0.111988 72 25 107
-0.656022 0.361537 0.245463 68 1 84
0.375376 0.276644 -0.092224 69 6 90
0.037553 0.317473 -0.378903 35 135 141
0.512259 0.247647 -0.003728 68 1 84
0.568106 -0.290274 0.103587 72 30 112
0.645948 -0.214243 0.365436 34 138 141
0.619138 0.000749 0.089133 69 52 127
-0.666021 -0.163379 0.355884 65 66 134
0.212542 -0.150249 -0.265386 70 48 125
0.019772 0.398978 -0.286783 30 157 136
0.605396 -0.444900 0.414762 40 123 142
0.673113 0.231799 0.265830 72 29 111
0.550441 -0.399289 0.155787 68 1 84
0.663728 0.014849 0.505153 38 128 142
-0.160160 0.243273 -0.215556 68 55 129
0.379282 -0.369393 -0.157939 68 1 84
0.458136 0.314778 -0.000757 68 1 84
-0.329316 0.600534 -0.156045 36 170 130
-0.635513 -0.347846 0.326587 67 59 131
-0.549839 0.127748 -0.014852 68 1 84
0.499014 -0.407444 0.019925 68 1 84
-0.392857 -0.529867 -0.012983 68 1 84
0.061888 -0.502549 -0.271626 68 1 84
-0.072846 -0.421130 -0.340865 68 1 84
0.407924 -0.535137 -0.009824 68 1 84
-0.179060 -0.457938 -0.268768 68 1 84
0.100077 0.325995 -0.293526 57 84 139
-0.515989 -0.503568 0.173783 68 1 84
0.397216 -0.508272 -0.053668 68 1 84
0.333643 0.388631 -0.131506 66 64 133
0.608300 0.322869 0.132713 68 1 84
0.188925 0.374009 -0.130219 68 1 84
-0.644145 -0.355518 0.363127 61 76 137
-0.042533 0.546853 -0.252058 51 182 121
-0.642587 -0.411758 0.405394 60 77 138
-0.517021 0.283353 0.017024 68 1 84
0.287013 -0.202947 -0.254024 32 143 140
0.506425 -0.507505 0.163991 68 1 84
0.368689 0.307567 -0.104392 68 1 84
0.670626 0.263262 0.353777 68 1 84
0.083376 -0.212160 -0.319930 68 1 84
0.663487 0.285785 0.396771 68 1 84
-0.656865 0.347414 0.240945 68 1 84
-0.374142 -0.345839 -0.160408 68 1 84
0.254017 -0.376020 -0.245774 68 1 84
0.474994 -0.285584 -0.089934 68 1 84
-0.068460 -0.103527 -0.359709 42 117 142
0.529343 -0.266127 -0.008697 70 9 92
0.378764 0.215261 -0.128355 70 9 92
-0.517154 0.252219 -0.003083 68 1 84
-0.026568 -0.320817 -0.368169 61 74 137
0.624042 -0.099836 0.154220 72 29 111
0.253667 0.063097 -0.250672 33 166 133
-0.668462 -0.001074 0.457552 34 137 141
0.655824 -0.148305 0.457511 31 146 140
-0.652258 -0.326090 0.396435 65 65 134
0.120187 0.440718 -0.204074 68 55 129
-0.655476 0.323438 0.576146 45 111 142
0.049378 0.276192 -0.416076 30 154 137
-0.094846 -0.003204 -0.353379 39 126 142
-0.350985 0.398460 -0.080015 71 15 98
0.424548 -0.053921 -0.177587 45 110 142
-0.637755 0.080685 0.486822 65 66 134
-0.511131 -0.509566 0.169823 68 1 84
-0.322259 0.559708 -0.168747 36 132 141
0.169452 0.159151 -0.307952 53 93 140
0.302275 0.385851 -0.128176 68 57 130
0.629580 -0.278112 0.470703 73 193 109
-0.578347 -0.144592 0.050417 68 1 84
-0.222298 -0.046358 -0.292463 41 120 142
-0.115995 -0.394558 -0.335362 68 1 84
0.648298 0.141381 0.144599 69 52 127
0.658945 0.317363 0.400820 68 1 84
0.624198 0.243461 0.136624 68 1 84
0.545509 0.237371 0.021974 68 1 84
-0.667101 -0.039019 0.264124 69 52 127
0.670473 0.037717 0.426865 58 83 139
-0.449697 0.166075 -0.113966 68 1 84
-0.642069 0.092041 0.452960 68 55 129
-0.105846 -0.098755 -0.334542 51 97 141
-0.665012 0.267283 0.295059 70 14 97
-0.436140 0.201996 -0.108702 70 12 95
-0.598963 0.356996 0.117044 68 1 84
-0.626271 0.146755 0.128130 68 1 84
0.064604 0.010704 -0.366515 37 130 142
-0.119616 0.431511 -0.141623 70 48 125
-0.667142 0.230706 0.325376 67 59 131
0.678084 0.069894 0.381619 48 104 141
0.272292 0.180478 -0.202474 60 78 138
0.391949 0.241864 -0.099527 68 3 87
-0.232012 0.302703 -0.136695 72 28 110
0.050081 -0.311796 -0.365691 72 35 116
-0.519714 -0.381649 0.064485 68 1 84
-0.122169 0.383460 -0.127056 71 17 99
0.567467 -0.356248 0.160588 71 20 102
0.575346 0.190200 0.033063 71 18 101
0.550869 -0.437955 0.203910 68 1 84
0.577413 -0.237193 0.092767 70 47 124
0.056785 0.166420 -0.383991 75 194 108
-0.263456 0.386708 -0.141900 59 80 138
-0.115571 0.194477 -0.328060 34 137 141
-0.089892 0.340067 -0.191368 56 87 140
-0.348071 -0.300789 -0.199303 68 1 84
0.203560 -0.387605 -0.286659 68 1 84
-0.016461 0.308146 -0.365960 37 171 129
0.577395 0.023113 0.002746 67 58 131
0.544930 -0.436790 0.183737 68 1 84
0.420714 0.409544 -0.084234 68 1 84
-0.667380 0.216808 0.331654 63 71 136
-0.442047 0.446746 -0.029611 71 44 123
0.352934 -0.548353 -0.065259 68 1 84
0.659475 0.266655 0.243262 70 12 95
0.109954 -0.285278 -0.333385 68 1 84
0.102032 0.199531 -0.400888 30 155 137
0.688800 -0.115032 0.452092 44 112 142
-0.114895 0.095591 -0.270354 31 150 139
0.627884 -0.309407 0.369373 50 98 141
-0.600714 0.135533 0.077451 68 1 84
0.037347 0.040265 -0.356686 34 139 141
0.591658 0.114392 0.031089 71 22 105
0.658547 0.329751 0.446517 68 1 84
-0.532320 0.402830 0.051762 68 1 84
-0.551353 -0.442798 0.191239 68 1 84
0.655602 0.401875 0.430840 68 1 84
-0.534784 -0.484482 0.192122 68 1 84
-0.572539 0.075707 0.015772 72 25 107
-0.656710 -0.356004 0.447150 65 66 134
-0.507330 -0.191354 -0.065853 68 1 84
-0.675982 0.150547 0.281128 72 32 113
0.647520 -0.104042 0.223393 69 52 127
-0.025497 0.073137 -0.355242 39 124 142
-0.398432 -0.469148 -0.068450 68 1 84
-0.655815 0.390425 0.272519 68 1 84
-0.668229 0.012196 0.403860 40 122 142
-0.189788 0.570246 -0.231627 94 201 97
0.364826 0.092607 -0.200818 50 99 141
-0.635676 -0.100715 0.183586 69 50 127
-0.223573 -0.423986 -0.251170 68 1 84
-0.354877 -0.313067 -0.189742 68 1 84
-0.659852 -0.310391 0.469399 72 34 115
-0.399492 -0.532183 0.001164 68 1 84
-0.250086 -0.330774 -0.249999 68 1 84
0.665579 -0.051371 0.443654 43 115 142
-0.373296 -0.533958 -0.034917 68 1 84
0.134503 0.014478 -0.329679 70 45 124
-0.158140 0.342766 -0.142987 72 33 114
-0.664469 -0.117560 0.296301 64 68 135
-0.408005 -0.511245 -0.011787 68 1 84
0.261066 0.240011 -0.157064 68 1 84
0.637601 -0.131812 0.208854 59 80 138
-0.652633 -0.162109 0.266269 70 47 124
-0.088887 0.339265 -0.194525 53 92 140
-0.205139 0.200466 -0.222934 57 84 139
-0.390980 -0.539471 -0.002537 68 1 84
0.243449 -0.354561 -0.255551 68 1 84
-0.016475 0.163688 -0.373667 83 197 103
-0.477240 -0.277284 -0.082861 68 1 84
0.442846 -0.528293 0.042430 68 1 84
-0.671512 -0.109629 0.372916 52 94 141
-0.575754 -0.454609 0.245183 68 1 84
0.135961 0.144385 -0.329612 40 122 142
-0.088922 0.046822 -0.333744 52 94 141
-0.621711 -0.256817 0.230028 68 1 84
-0.662482 -0.142475 0.300049 57 84 139
0.676449 0.211670 0.373202 72 34 115
-0.345823 0.269713 -0.112860 70 48 125
-0.650008 0.386602 0.231683 68 1 84
-0.473749 -0.048601 -0.126785 68 1 84
-0.655552 0.348801 0.233624 68 1 84
0.542820 0.119500 -0.039547 72 28 110
-0.670382 0.034016 0.233379 67 60 132
0.658920 0.068251 0.571745 41 120 142
0.672327 0.075637 0.411676 46 108 142
0.659404 -0.023411 0.450865 57 85 139
-0.671928 -0.088573 0.373136 55 88 140
0.074478 0.350730 -0.317035 49 101 141
0.661842 0.036453 0.509621 50 99 141
-0.543297 -0.115119 -0.026857 68 1 84
0.663260 0.323633 0.533214 72 29 111
0.226401 0.504121 -0.206719 67 60 132
-0.111656 0.469410 -0.180512 47 106 141
0.532328 -0.091938 -0.054806 60 77 138
-0.625882 -0.257942 0.242629 68 1 84
0.637895 -0.253955 0.378882 41 120 142
0.202187 -0.528041 -0.194817 68 1 84
-0.063704 -0.148036 -0.348377 54 91 140
0.294818 0.399061 -0.134636 71 42 121
-0.042604 0.357481 -0.253737 30 157 136
0.568271 -0.033464 -0.003342 68 55 129
0.607796 0.434406 0.157104 68 1 84
-0.634991 -0.306169 0.299390 68 1 84
-0.459125 0.140327 -0.116104 68 1 84
-0.269891 -0.271678 -0.249682 68 1 84
-0.523234 0.113363 -0.055269 68 1 84
-0.518201 -0.503457 0.177648 68 1 84
-0.325337 0.595989 -0.159664 39 173 128
-0.589698 0.155270 0.060551 68 1 84
-0.645594 0.259234 0.195874 72 33 114
0.131332 -0.334862 -0.336132 72 28 110
0.578183 0.239448 0.067563 68 1 84
0.536475 0.312825 0.054950 68 1 84
-0.105635 -0.336514 -0.346452 68 1 84
0.516127 -0.269738 -0.032352 71 37 117
0.578410 -0.087295 0.029235 61 75 137
-0.018118 0.023144 -0.363156 33 140 141
-0.657181 0.222589 0.379170 65 65 134
0.111304 0.123455 -0.309797 63 69 135
-0.271080 -0.359496 -0.232006 68 1 84
0.517957 0.143962 -0.062293 67 60 132
0.601030 -0.336702 0.255005 45 110 142
-0.611000 -0.012472 0.099499 72 35 116
-0.325110 -0.212358 -0.239017 68 1 84
0.674950 0.242779 0.300571 71 43 122
0.647708 0.440967 0.339577 68 1 84
-0.656014 -0.341549 0.458615 66 61 132
0.167957 0.185020 -0.297616 65 65 134
0.631744 -0.283320 0.431767 30 156 137
0.593529 0.348248 0.113838 68 1 84
0.660684 0.177923 0.491086 68 1 84
-0.581940 0.490837 0.139635 68 1 84
-0.629292 -0.414981 0.353233 71 40 120
0.662327 0.075871 0.501161 67 59 131
-0.614824 -0.334135 0.257633 68 1 84
0.527634 -0.399451 0.087523 68 1 84
0.583729 -0.495174 0.356173 56 86 139
-0.623425 0.283118 0.143929 68 1 84
0.558641 -0.212795 0.029772 68 1 84
-0.662164 -0.116130 0.457167 62 72 136
0.029494 -0.233634 -0.338513 68 1 84
-0.033572 0.265933 -0.392115 100 203 93
0.616677 -0.386984 0.421957 49 100 141
0.358123 -0.436425 -0.145439 68 1 84
-0.317881 -0.500694 -0.118879 68 1 84
0.207086 -0.510096 -0.209597 68 1 84
0.624027 0.321465 0.166011 68 1 84
0.468655 0.017775 -0.134477 66 62 133
0.540556 -0.372747 0.094411 68 1 84
0.020820 -0.063590 -0.376300 36 134 141
-0.275234 -0.088247 -0.270680 68 55 129
0.218175 -0.467257 -0.233266 68 1 84
-0.680670 0.003305 0.329873 66 61 132
0.446961 0.443744 -0.082759 72 25 107
0.387028 0.121861 -0.177000 67 60 132
-0.224256 -0.039634 -0.290796 50 99 141
-0.042906 0.143982 -0.330283 38 127 142
0.684902 0.163233 0.338515 49 102 141
-0.176005 -0.403451 -0.296267 68 1 84
0.592398 0.186412 0.053915 68 3 87
-0.473306 -0.374148 -0.036727 68 1 84
0.579428 -0.097416 0.033848 56 87 140
-0.032115 0.108319 -0.351369 41 121 142
-0.613879 -0.382273 0.289189 68 1 84
0.530525 -0.348658 0.044393 68 1 84
0.668154 0.109779 0.411579 70 49 126
-0.666933 -0.085886 0.290166 67 59 131
-0.631188 -0.347840 0.313738 68 1 84
0.348659 -0.228636 -0.222908 65 66 134
0.596097 -0.390765 0.296563 61 76 137
-0.638876 0.034952 0.451042 71 39 119
0.571791 -0.479921 0.299085 68 55 129
0.232042 0.175897 -0.219205 69 53 128
0.064515 -0.179915 -0.327119 66 61 132
0.284102 0.259579 -0.132842 68 1 84
0.662608 -0.123703 0.346959 45 111 142
-0.648597 0.290047 0.446651 70 9 92
0.316957 -0.061607 -0.243067 53 92 140
0.305008 -0.134498 -0.251394 46 107 142
0.176191 -0.123882 -0.293008 69 6 90
-0.660859 -0.239248 0.365691 44 112 142
-0.155767 0.147272 -0.243245 48 104 141
0.628803 0.507585 0.239362 68 1 84
-0.501075 -0.390045 0.031726 68 1 84
0.363871 -0.599811 0.031734 68 1 84
-0.011988 -0.480413 -0.309842 68 1 84
0.610526 0.268208 0.123312 68 1 84
0.127962 -0.113208 -0.340061 71 40 120
-0.055325 0.232503 -0.395915 154 216 60
-0.466077 0.557459 -0.011777 72 33 114
0.569104 -0.107186 0.016699 61 74 137
0.659351 0.399563 0.465402 68 1 84
-0.354375 -0.101428 -0.226988 70 48 125
0.593880 -0.218794 0.131519 69 54 129
0.352533 0.172009 -0.169843 71 37 117
-0.646530 0.395134 0.223651 68 1 84
-0.337314 -0.355369 -0.186319 68 1 84
-0.003770 -0.235957 -0.342182 72 26 108
-0.443852 -0.006106 -0.157409 68 1 84
-0.334765 0.022225 -0.233425 67 59 131
-0.225315 0.065079 -0.261230 30 159 136
0.151408 -0.497310 -0.255600 68 1 84
-0.467757 -0.356439 -0.057323 68 1 84
0.556953 -0.329278 0.101123 71 15 98
-0.187592 -0.235266 -0.285919 68 1 84
-0.531008 -0.058780 -0.053581 68 1 84
0.579699 0.384394 0.098624 68 1 84
0.683561 0.137293 0.280091 54 90 140
-0.015554 -0.192713 -0.319990 68 1 84
-0.443507 0.208442 -0.099705 68 1 84
-0.063952 0.126719 -0.311201 45 110 142
0.481632 -0.484456 0.072898 68 1 84
-0.120706 -0.073502 -0.330490 59 81 138
-0.008657 0.277353 -0.404920 47 179 123
-0.610592 -0.049253 0.103681 71 42 121
-0.436740 -0.549539 0.108883 68 1 84
0.598969 -0.125034 0.092638 71 42 121
0.112565 0.028346 -0.341884 67 58 131
-0.634279 0.105400 0.535426 53 92 140
-0.450837 -0.380799 -0.067361 68 1 84
-0.637311 -0.248483 0.271478 68 57 130
-0.613047 -0.330477 0.250348 68 1 84
0.415255 -0.552437 0.022081 68 1 84
0.177627 -0.055672 -0.313020 60 77 138
0.156748 -0.217614 -0.304994 69 5 88
0.665364 0.007656 0.511210 33 142 140
0.179493 -0.527093 -0.206786 68 1 84
0.667829 -0.056874 0.402994 43 116 142
-0.661720 -0.149718 0.491669 33 140 141
-0.020717 -0.220702 -0.330565 69 52 127
-0.286917 0.446261 -0.154857 42 117 142
0.068301 -0.474103 -0.309613 68 1 84
-0.520228 0.019032 -0.069004 68 1 84
0.154985 -0.055384 -0.330178 41 121 142
0.552636 -0.104069 -0.016099 67 60 132
0.451263 -0.187601 -0.142027 71 40 120
-0.520646 -0.197555 -0.043924 68 1 84
-0.157574 0.227816 -0.224546 61 75 137
-0.491173 0.147918 -0.082236 68 1 84
0.191422 0.457966 -0.173437 69 54 129
0.667270 -0.085357 0.310241 47 105 141
0.355576 0.168865 -0.170407 66 61 132
-0.322943 -0.361721 -0.195598 68 1 84
-0.150490 0.574817 -0.240699 79 195 105
-0.270363 -0.048165 -0.269165 61 75 137
0.056584 -0.286414 -0.357603 72 26 108
0.504155 -0.267282 -0.054642 68 1 84
-0.629705 0.394528 0.174545 68 1 84
0.578595 -0.497967 0.395040 41 120 142
-0.352508 -0.078606 -0.227837 69 53 128
0.401751 -0.336238 -0.152589 68 1 84
-0.668588 -0.096089 0.318515 70 45 124
-0.216267 0.227896 -0.198488 66 61 132
0.558926 -0.040004 -0.017588 69 52 127
-0.665887 -0.170263 0.377402 55 88 140
-0.681217 0.051696 0.270596 71 43 122
-0.662269 0.343124 0.307792 68 1 84
-0.420567 0.342218 -0.011545 68 1 84
0.348431 0.094577 -0.209183 40 123 142
0.663401 0.281062 0.407629 68 1 84
0.162542 0.538109 -0.235557 55 89 140
-0.555178 -0.012150 -0.014674 72 34 115
0.516389 0.258571 0.009311 68 1 84
-0.555044 0.073857 -0.013800 69 6 90
-0.473102 0.364071 0.023858 68 1 84
-0.652272 -0.341992 0.409111 64 68 135
0.633267 0.062974 0.102201 68 2 85
0.474167 -0.405543 -0.033728 68 1 84
0.497338 -0.412637 0.020639 68 1 84
0.678792 -0.009280 0.346975 43 116 142
-0.061475 -0.504495 -0.266454 68 1 84
0.452998 0.306484 -0.008820 68 1 84
0.642508 0.146485 0.139152 66 62 133
-0.309016 -0.458596 -0.155302 68 1 84
-0.049212 -0.196972 -0.320350 72 33 114
-0.109870 0.011611 -0.335329 35 137 141
0.051569 0.468663 -0.245248 50 99 141
-0.430745 -0.516485 0.031521 68 1 84
0.520358 0.164382 -0.051449 70 48 125
-0.038682 0.088025 -0.351491 56 86 139
0.549369 -0.061681 -0.031281 65 65 134
-0.550218 0.278458 0.049674 68 1 84
-0.163332 0.216864 -0.226086 65 65 134
-0.635007 -0.426731 0.381965 65 65 134
-0.628916 -0.441393 0.373597 69 53 128
0.052262 -0.386378 -0.364898 60 77 138
-0.496286 0.017586 -0.098625 68 1 84
0.508966 -0.519531 0.182828 68 1 84
-0.060577 -0.426486 -0.341315 68 1 84
-0.573874 -0.212858 0.067839 68 1 84
0.563133 -0.141773 0.013685 71 37 117
-0.606238 0.473982 0.170584 68 1 84
0.330269 -0.539360 -0.093465 68 1 84
0.595306 0.405950 0.126360 68 1 84
0.249623 0.177130 -0.213957 71 17 99
-0.632311 0.380465 0.169933 68 1 84
-0.657200 0.422579 0.361060 68 1 84
0.123289 0.366633 -0.189433 68 1 84
-0.544590 -0.366352 0.109585 68 1 84
-0.660465 0.343791 0.267558 68 1 84
-0.290339 0.553856 -0.185757 32 144 140
0.267412 -0.404887 -0.226429 68 1 84
0.039100 0.409617 -0.277313 39 126 142
0.664761 -0.132610 0.440532 49 101 141
0.104468 0.327395 -0.277956 63 71 136
-0.510117 -0.322597 -0.004477 68 1 84
0.642621 0.414717 0.290086 68 1 84
-0.124161 0.225489 -0.245251 42 117 142
0.373053 0.011489 -0.212013 53 92 140
-0.663846 -0.284452 0.469307 59 80 138
0.369680 -0.535295 -0.058826 68 1 84
-0.280180 0.327731 -0.135156 70 11 94
-0.621534 0.036993 0.116748 63 71 136
-0.568943 0.216946 0.046844 68 1 84
-0.483548 -0.195428 -0.098019 68 1 84
-0.033425 -0.257311 -0.348454 71 44 123
0.147853 -0.389619 -0.326660 68 1 84
-0.593975 -0.137097 0.080530 68 1 84
0.122431 0.267927 -0.320470 58 83 139
-0.157749 -0.077156 -0.312071 44 112 142
0.535866 -0.199957 -0.020783 68 1 84
-0.340113 -0.243689 -0.223700 68 1 84
0.540268 -0.122022 -0.035361 63 69 135
0.595000 -0.423546 0.327036 69 6 90
-0.673072 0.174305 0.305174 71 38 118
0.641526 0.040804 0.140856 72 30 112
-0.255045 0.534785 -0.194443 33 141 140
-0.215522 0.081682 -0.259285 39 173 128
0.391004 0.027560 -0.199395 53 93 140
0.126759 -0.249584 -0.313234 72 32 113
-0.604179 0.314252 0.124351 68 1 84
-0.046147 0.142061 -0.326882 33 140 141
0.276884 -0.113288 -0.268675 48 104 141
0.494944 0.335888 0.031377 68 1 84
0.600914 -0.327886 0.244927 58 82 139
0.609161 -0.392578 0.363859 72 32 113
0.650190 -0.030975 0.202587 50 98 141
-0.658276 0.012348 0.212029 68 57 130
0.658638 -0.104051 0.266958 68 55 129
-0.303049 -0.508310 -0.125151 68 1 84
0.545722 0.300158 0.057438 68 1 84
-0.599082 -0.284048 0.185275 68 1 84
0.530927 0.217178 -0.008749 71 20 102
0.638544 0.419939 0.267149 68 1 84
0.496294 0.427224 -0.021611 68 1 84
0.544962 -0.424843 0.169091 68 1 84
-0.165864 -0.128283 -0.283505 68 1 84
0.493303 -0.423042 0.021492 68 1 84
-0.305569 0.561791 -0.178076 38 172 129
-0.502431 -0.321523 -0.020429 68 1 84
0.018504 0.397340 -0.287996 33 167 132
-0.066502 0.001050 -0.368273 35 137 141
-0.648243 0.278989 0.196995 72 29 111
0.671818 0.223928 0.252531 70 45 124
0.609402 0.129586 0.061862 60 78 138
0.601116 -0.432747 0.460311 38 127 142
-0.658955 0.075633 0.410725 70 45 124
-0.031616 -0.175609 -0.320909 68 1 84
-0.548008 0.077465 -0.025285 70 9 92
0.454795 0.399750 -0.041448 68 1 84
0.608856 -0.077170 0.105059 62 72 136
-0.244908 0.196548 -0.209824 46 108 142
0.137271 -0.065217 -0.341589 47 106 141
-0.475022 0.033924 -0.120822 68 1 84
-0.322239 0.337440 -0.109878 71 22 105
-0.544529 -0.325555 0.074154 68 1 84
-0.027917 -0.269254 -0.355646 72 30 112
0.648111 0.364746 0.292393 68 1 84
0.560270 -0.520295 0.301660 61 74 137
-0.069426 -0.393078 -0.353341 72 32 113
0.329278 -0.029618 -0.235962 63 69 135
0.645876 0.313875 0.227099 68 1 84
0.650688 0.413411 0.368242 68 1 84
0.518585 0.172939 -0.049497 71 21 103
-0.596091 0.524293 0.171273 68 1 84
0.593661 0.060272 0.036271 70 45 124
-0.647815 0.044896 0.530319 58 83 139
0.421670 -0.563287 0.049446 68 1 84
-0.659083 0.406476 0.422124 68 1 84
0.407367 0.087926 -0.175643 68 55 129
-0.663124 0.391087 0.518126 70 14 97
-0.449440 0.373183 0.012472 68 1 84
0.084609 0.280150 -0.386123 39 126 142
0.580780 -0.459007 0.306266 58 82 139
-0.624542 0.195855 0.139741 68 1 84
0.449370 -0.002659 -0.156319 54 91 140
0.273409 -0.126874 -0.269228 47 105 141
-0.017774 -0.169123 -0.320236 68 1 84
0.604437 -0.085350 0.093858 64 68 135
-0.633881 0.111531 0.520311 62 73 137
0.165497 -0.077300 -0.318223 69 52 127
-0.211263 0.443674 -0.170996 66 64 133
-0.598523 0.488798 0.163969 68 1 84
0.577439 -0.305854 0.146032 65 65 134
0.643595 0.437693 0.305642 68 1 84
0.151199 -0.251144 -0.305196 70 14 97
0.659717 0.092426 0.531635 61 74 137
0.242969 -0.119037 -0.275371 71 39 119
0.644371 -0.113599 0.219659 56 87 140
0.676468 0.050776 0.399648 58 82 139
0.026449 0.239964 -0.442406 89 199 100
-0.448295 0.602241 -0.016508 68 1 84
-0.388350 -0.002683 -0.206864 68 1 84
0.450246 0.010477 -0.154593 70 48 125
-0.641982 0.073685 0.458981 67 58 131
-0.451190 -0.374608 -0.070961 68 1 84
0.595721 -0.194005 0.117698 64 67 135
-0.463839 -0.310595 -0.087248 68 1 84
-0.109174 -0.157832 -0.329918 54 90 140
0.670047 -0.068944 0.313430 63 71 136
0.218758 0.507308 -0.211589 70 49 126
-0.115740 -0.408727 -0.330917 68 1 84
-0.656536 0.362931 0.436907 68 1 84
-0.172785 -0.275072 -0.291641 68 1 84
0.285623 0.328678 -0.149474 71 37 117
0.213145 -0.553593 -0.156175 68 1 84
-0.085813 -0.485630 -0.293447 68 1 84
0.141247 -0.156495 -0.339749 60 77 138
-0.553802 0.429330 0.097569 68 1 84
-0.234506 -0.118046 -0.279724 61 74 137
0.630031 -0.213463 0.493377 64 189 114
-0.173615 -0.487315 -0.247252 68 1 84
-0.539573 0.126816 -0.030186 68 1 84
-0.294652 -0.200979 -0.254776 68 1 84
0.547488 0.036847 -0.040260 70 48 125
0.459816 0.018353 -0.143963 68 57 130
0.127237 -0.516917 -0.237659 68 1 84
-0.470173 -0.475137 0.056797 68 1 84
0.012922 -0.076024 -0.365023 49 102 141
0.344609 0.346888 -0.125780 71 20 102
-0.566120 -0.050153 0.008736 68 1 84
0.222051 -0.145065 -0.262615 65 66 134
0.606920 -0.199314 0.155480 68 57 130
-0.498842 -0.042286 -0.098699 68 1 84
0.138123 0.364276 -0.158337 68 1 84
-0.533158 -0.094860 -0.047072 68 1 84
-0.313614 -0.545025 -0.081036 68 1 84
0.574840 -0.078302 0.019975 70 48 125
-0.654302 -0.327512 0.475472 67 59 131
0.226991 0.076989 -0.250244 42 118 142
0.053507 0.053522 -0.356691 41 121 142
0.485232 -0.553560 0.169032 68 1 84
0.695031 -0.088207 0.505170 36 132 141
0.205099 -0.371516 -0.285826 68 1 84
-0.635482 -0.080450 0.170714 68 55 129
0.672258 0.256695 0.315025 71 15 98
0.362002 -0.592631 0.009124 68 1 84
-0.053425 0.340142 -0.251836 30 154 137
-0.319974 0.221780 -0.160755 72 26 108
-0.199086 0.480877 -0.184053 58 83 139
-0.408754 -0.525332 0.007062 68 1 84
0.098419 0.072591 -0.335219 46 108 142
-0.067415 0.429537 -0.181741 49 102 141
0.611183 -0.405056 0.401106 48 103 141
0.251405 -0.438884 -0.222798 68 1 84
0.493705 0.559519 -0.032582 68 1 84
0.028339 0.292936 -0.404721 37 131 141
-0.495840 0.011315 -0.099592 68 1 84
0.678432 0.041260 0.390153 53 92 140
0.464051 0.473868 -0.084715 70 49 126
-0.584598 -0.508444 0.330844 68 1 84
0.182553 -0.446191 -0.281784 68 1 84
-0.075640 0.034991 -0.348309 41 120 142
0.440834 -0.341485 -0.113043 68 1 84
-0.691951 -0.014166 0.541822 30 159 136
-0.589800 0.174111 0.066680 68 1 84
0.658758 0.318012 0.418305 68 1 84
-0.657240 -0.297997 0.423117 72 33 114
-0.593443 -0.160795 0.090374 68 3 87
-0.114291 -0.501731 -0.263167 68 1 84
-0.664782 -0.180425 0.359564 56 87 140
0.571956 -0.518697 0.338264 46 107 142
-0.328986 -0.260145 -0.225194 68 1 84
0.283549 -0.102465 -0.264799 46 109 142
0.035502 -0.366146 -0.369624 67 60 132
-0.452102 0.089107 -0.135952 68 1 84
-0.556716 0.144858 -0.000311 68 1 84
0.675082 0.172844 0.378734 69 54 129
0.038366 -0.367883 -0.369433 65 65 134
0.556894 0.496485 0.047610 68 1 84
0.668476 0.265531 0.376520 68 1 84
-0.614045 -0.203619 0.171381 69 50 127
-0.191200 -0.264856 -0.283016 68 1 84
0.683812 0.079063 0.257355 67 59 131
-0.663799 0.284894 0.287272 68 1 84
0.177660 0.218091 -0.225817 69 53 128
-0.649970 0.299811 0.574112 45 110 142
0.392628 0.271354 -0.079920 68 1 84
-0.652270 0.322342 0.522726 72 29 111
-0.222174 0.543852 -0.207811 32 164 133
-0.054683 0.259128 -0.373756 69 191 111
-0.660010 -0.243304 0.475736 47 106 141
0.571419 -0.310592 0.131779 64 68 135
-0.230502 -0.366459 -0.257647 68 1 84
-0.584904 -0.187222 0.083901 68 1 84
-0.339222 -0.381128 -0.174918 68 1 84
-0.233081 -0.333089 -0.258824 68 1 84
0.039957 -0.359725 -0.370154 70 47 124
-0.303816 -0.490497 -0.137376 68 1 84
0.658147 0.111823 0.572742 54 90 140
-0.131316 0.031902 -0.306932 37 131 141
0.648601 -0.171205 0.286695 48 104 141
-0.525128 0.450339 0.046294 68 1 84
-0.593829 -0.139043 0.080764 68 1 84
0.081170 0.282368 -0.387880 38 129 142
0.626377 0.440123 0.217604 68 1 84
0.212599 -0.127219 -0.266940 67 59 131
-0.084242 -0.170191 -0.329252 60 78 138
-0.517280 0.293632 0.023277 68 1 84
0.657923 0.328266 0.363357 68 1 84
-0.041648 0.315763 -0.315610 61 187 116
0.432063 0.596411 -0.092889 72 33 114
0.679755 -0.005852 0.326569 48 104 141
0.459173 0.135027 -0.120072 69 54 129
0.030923 0.191983 -0.435486 144 214 67
0.376488 0.102249 -0.190716 64 68 135
-0.507246 -0.026512 -0.087475 68 1 84
-0.571538 0.017386 0.015495 69 53 128
0.189469 0.531989 -0.228640 56 86 139
-0.419396 0.042823 -0.176118 68 1 84
-0.589407 -0.407245 0.246041 68 1 84
-0.660777 -0.147649 0.293302 60 77 138
0.152991 0.240403 -0.245607 67 59 131
0.373166 0.480659 -0.149856 51 97 141
0.635153 -0.170324 0.225943 49 100 141
-0.674895 0.135367 0.235623 68 57 130
-0.662798 -0.151065 0.438521 57 84 139
0.624708 0.279274 0.153084 68 1 84
-0.354654 0.502078 -0.137196 38 129 142
0.657279 0.052425 0.183751 72 29 111
0.474288 0.071743 -0.122397 72 33 114
-0.646613 0.521728 0.288943 68 2 85
-0.218511 -0.508387 -0.194996 68 1 84
-0.317835 -0.158138 -0.247309 71 44 123
0.680578 0.219352 0.346181 72 30 112
0.016799 0.024273 -0.358444 40 122 142
-0.610043 0.212037 0.120133 68 1 84
0.174714 -0.417601 -0.301442 68 1 84
-0.658720 0.368885 0.360191 68 1 84
-0.438852 -0.141120 -0.158513 68 1 84
0.424022 -0.255188 -0.156969 68 1 84
-0.448523 -0.126211 -0.150074 68 1 84
-0.393215 0.199843 -0.140142 69 8 91
0.654932 -0.150985 0.388600 37 131 141
-0.679565 0.014358 0.290521 69 50 127
0.117242 0.072664 -0.312421 54 91 140
-0.580668 0.300114 0.095004 68 1 84
-0.664310 -0.223027 0.387181 46 109 142
-0.639790 0.411819 0.211626 68 1 84
-0.661909 0.262160 0.354138 67 59 131
-0.433191 -0.426146 -0.060122 68 1 84
-0.613731 0.130133 0.104091 68 1 84
0.181674 0.478124 -0.197629 67 60 132
-0.296898 0.490089 -0.163230 38 127 142
-0.485921 -0.493314 0.110581 68 1 84
-0.222842 0.266737 -0.153949 71 24 106
-0.127126 -0.289012 -0.318788 68 1 84
-0.141373 0.252042 -0.222283 71 37 117
0.016396 -0.155117 -0.340765 68 1 84
-0.200414 -0.507750 -0.210287 68 1 84
0.212910 -0.329224 -0.277677 68 1 84
0.662166 0.063516 0.195422 71 15 98
-0.661921 -0.223798 0.360385 41 120 142
-0.666215 -0.110981 0.472902 51 97 141
0.007988 0.059884 -0.354208 36 134 141
0.706259 -0.131950 0.482112 30 158 136
-0.657564 0.379274 0.418713 68 1 84
0.206647 -0.053934 -0.297190 61 75 137
0.143520 -0.200598 -0.314865 69 5 88
0.141515 0.331230 -0.194353 68 1 84
0.401570 0.012777 -0.194086 69 53 128
0.658069 0.192852 0.549250 72 30 112
-0.503636 -0.356872 0.008335 68 1 84
-0.434305 -0.415642 -0.066229 68 1 84
-0.426138 0.588684 -0.052973 56 86 139
0.652002 0.042818 0.171772 71 38 118
0.658551 0.361791 0.456786 68 1 84
0.519631 0.513719 -0.013756 68 1 84
-0.115762 0.072581 -0.287327 34 139 141
0.492911 -0.572749 0.232264 68 1 84
-0.661070 -0.129672 0.477241 49 100 141
-0.547630 -0.531641 0.273089 68 1 84
0.571563 -0.453576 0.274174 72 30 112
-0.098710 -0.023678 -0.358111 44 112 142
-0.126133 -0.341401 -0.335003 68 1 84
0.648198 -0.118346 0.236937 70 48 125
-0.518902 -0.412944 0.092623 68 1 84
-0.149004 0.364864 -0.140467 69 50 127
-0.612381 0.258866 0.132581 68 1 84
-0.622272 -0.150184 0.163133 72 26 108
0.108582 0.514417 -0.234675 46 108 142
0.616997 -0.319112 0.304340 46 109 142
-0.167291 0.529752 -0.223171 48 180 122
-0.438440 -0.180569 -0.152820 68 1 84
-0.663669 0.236372 0.348474 62 72 136
0.017587 -0.284042 -0.362097 71 38 118
0.195075 0.549630 -0.230946 55 88 140
0.601030 0.205672 0.075985 68 1 84
-0.071201 0.262523 -0.331752 91 200 98
-0.362402 0.543680 -0.142744 31 149 139
-0.114650 0.218185 -0.278830 38 128 142
0.648548 -0.010052 0.175115 53 92 140
-0.632577 0.469713 0.219273 68 1 84
0.083939 0.049913 -0.351762 46 109 142
0.547524 -0.062646 -0.034528 59 81 138
-0.219967 0.444297 -0.169554 65 66 134
-0.083480 0.249984 -0.313299 64 189 114
-0.323416 -0.325830 -0.207842 68 1 84
-0.672808 0.114142 0.216974 53 92 140
-0.108741 -0.049953 -0.350841 41 120 142
0.387876 0.146522 -0.165635 71 44 123
-0.349763 -0.152682 -0.228981 68 1 84
-0.502067 0.288683 0.006585 68 1 84
0.604796 -0.277596 0.207977 51 97 141
0.405249 0.295738 -0.065047 68 1 84
-0.633701 -0.155887 0.202019 61 75 137
0.565740 0.064709 -0.014499 68 1 84
0.657541 -0.153730 0.353667 30 153 138
0.420184 0.224958 -0.096748 70 48 125
0.593481 0.150818 0.036416 69 5 88
-0.139150 -0.480651 -0.277608 68 1 84
0.580966 -0.381780 0.234847 68 1 84
-0.614679 -0.244046 0.201035 69 8 91
0.587159 0.202218 0.058303 68 1 84
0.601243 -0.396777 0.326039 60 77 138
-0.250206 -0.486363 -0.185306 68 1 84
-0.458501 -0.496067 0.058683 68 1 84
0.643154 -0.225194 0.387522 36 133 141
0.600458 -0.277815 0.193961 59 81 138
-0.524016 -0.040963 -0.065559 68 1 84
0.621105 -0.168908 0.178010 59 81 138
0.225832 0.478413 -0.184320 70 48 125
-0.661822 0.355574 0.575858 61 75 137
-0.021681 -0.052511 -0.378695 31 148 139
-0.633918 -0.190784 0.223274 71 21 103
0.667648 -0.004403 0.533832 30 152 138
-0.478230 -0.275685 -0.082125 68 1 84
0.582298 -0.290508 0.148333 72 35 116
0.025560 0.539177 -0.248904 33 166 133
0.428089 -0.218197 -0.162233 68 1 84
-0.150837 -0.272774 -0.302111 68 1 84
-0.462797 0.061293 -0.130223 68 1 84
0.668827 0.204199 0.405293 72 26 108
-0.447609 -0.505222 0.047889 68 1 84
0.635952 0.149480 0.130595 71 22 105
0.456147 0.222246 -0.072990 63 69 135
0.607828 -0.219105 0.171881 71 42 121
0.217278 -0.062172 -0.292768 50 98 141
-0.637640 0.086388 0.484007 61 75 137
0.540591 -0.534567 0.264318 71 17 99
0.025359 0.116511 -0.367578 30 151 138
-0.128367 -0.090081 -0.315570 45 111 142
-0.648097 0.293687 0.461981 67 60 132
0.554721 0.526085 0.036688 72 30 112
-0.027174 -0.488318 -0.300607 68 1 84
0.462441 -0.436892 -0.027145 68 1 84
0.518482 -0.564182 0.267550 72 32 113
0.254824 0.570807 -0.216360 60 78 138
-0.651960 0.497495 0.309483 68 1 84
-0.603186 0.023063 0.080288 65 66 134
-0.604327 -0.280686 0.197059 68 1 84
-0.108195 0.233831 -0.267666 51 97 141
0.558087 0.485147 0.050452 68 1 84
0.073018 0.419125 -0.253012 61 76 137
-0.101128 -0.189960 -0.320504 55 88 140
-0.416682 0.521560 -0.089821 32 143 140
0.659996 -0.137386 0.321194 43 116 142
-0.504436 -0.436899 0.084559 68 1 84
0.609951 -0.251682 0.202082 57 85 139
-0.088143 0.521522 -0.235939 61 187 116
0.581709 0.204391 0.052855 68 1 84
-0.048615 0.077979 -0.348897 60 77 138
0.653203 0.431280 0.420144 68 1 84
-0.459681 -0.152543 -0.134532 68 1 84
0.661202 0.290912 0.521942 68 2 85
-0.478806 0.027555 -0.117370 68 1 84
-0.655037 0.152513 0.188623 65 66 134
0.302488 0.458494 -0.165868 66 64 133
-0.573472 0.308958 0.088595 68 1 84
-0.560411 -0.359804 0.143712 69 8 91
-0.654615 0.521681 0.349090 68 1 84
-0.591690 -0.431912 0.264173 68 1 84
-0.665072 -0.075506 0.270237 71 38 118
0.085208 0.295125 -0.367428 49 101 141
-0.103822 -0.133632 -0.345007 50 99 141
0.505281 -0.548480 0.204280 68 1 84
0.428378 -0.578145 0.105460 68 1 84
-0.649044 -0.082726 0.216899 69 5 88
0.428555 0.018853 -0.173231 65 66 134
0.361429 -0.097602 -0.218185 68 57 130
0.217208 0.021674 -0.271908 61 76 137
-0.558088 -0.074400 -0.003075 68 1 84
-0.643550 -0.281369 0.308960 66 64 133
-0.543540 -0.460698 0.190062 68 1 84
0.675252 -0.036677 0.307275 44 112 142
0.009806 -0.490626 -0.301185 68 1 84
0.584741 0.300121 0.094081 68 1 84
-0.485046 -0.044897 -0.114365 68 1 84
0.668779 0.090730 0.422627 58 83 139
-0.658141 -0.328388 0.457232 70 45 124
0.411941 -0.354739 -0.136839 68 1 84
-0.284409 -0.491859 -0.151832 68 1 84
0.140644 0.376040 -0.147660 68 1 84
0.105371 0.401029 -0.214179 72 25 107
-0.584672 0.119065 0.042552 68 1 84
-0.647702 0.085398 0.169342 60 78 138
0.428777 0.553411 -0.112647 71 42 121
-0.670281 -0.065223 0.329536 70 48 125
0.605021 -0.435326 0.396474 30 151 138
0.014551 -0.501093 -0.283983 68 1 84
0.554407 0.198178 0.008969 68 1 84
-0.563193 -0.318501 0.117309 70 11 94
-0.592865 0.522323 0.165276 68 1 84
-0.454344 -0.240232 -0.122475 68 1 84
0.201438 0.014452 -0.281416 66 62 133
-0.376795 0.052317 -0.206896 51 97 141
-0.635727 0.200215 0.546621 37 130 142
-0.350185 0.442266 -0.109826 69 53 128
0.368879 -0.157441 -0.213301 42 117 142
-0.663137 0.429573 0.474840 68 1 84
0.451017 -0.469733 -0.014317 68 1 84
0.644163 0.483797 0.318610 68 1 84
0.358850 0.492288 -0.159478 52 94 141
0.553933 0.187608 0.002100 68 1 84
0.130987 0.390488 -0.158986 68 1 84
0.459678 -0.061121 -0.146101 54 91 140
-0.151487 0.184121 -0.237522 52 95 141
0.529234 0.490755 -0.002147 68 1 84
0.630859 -0.281547 0.454042 32 165 133
0.355658 0.271857 -0.104467 68 3 87
0.160324 0.317117 -0.180183 62 73 137
0.624694 -0.240310 0.503356 105 204 91
0.212240 0.120159 -0.239606 63 71 136
-0.408444 -0.499371 -0.024368 68 1 84
-0.314528 0.105066 -0.227121 60 77 138
-0.218859 -0.230012 -0.274367 69 8 91
-0.678865 -0.003705 0.311092 69 53 128
-0.078388 0.253438 -0.328566 96 201 96
-0.554551 -0.045096 -0.012882 68 1 84
-0.654760 0.449080 0.309567 68 1 84
0.579643 -0.289659 0.139277 67 60 132
-0.616987 -0.462321 0.391547 61 76 137
0.342446 0.575068 -0.173841 66 62 133
0.625332 -0.348898 0.434667 40 123 142
-0.281425 0.163040 -0.216255 52 95 141
-0.426750 -0.267965 -0.143469 68 1 84
-0.285561 -0.424659 -0.199384 68 1 84
0.083994 -0.507495 -0.257960 68 1 84
-0.568223 -0.307740 0.121787 68 1 84
0.654414 0.287704 0.240361 68 1 84
0.273767 0.568371 -0.210140 53 92 140
0.660805 0.089423 0.178552 68 1 84
-0.194864 0.180687 -0.234118 49 102 141
-0.639691 0.238872 0.534136 40 122 142
-0.106445 -0.389750 -0.341163 68 1 84
-0.513686 0.522604 0.053056 68 1 84
-0.414755 0.151360 -0.148053 68 1 84
0.566769 -0.179395 0.035013 69 54 129
0.558963 -0.414972 0.205001 68 2 85
0.541269 0.102676 -0.044077 72 33 114
0.663702 -0.093190 0.286824 63 69 135
-0.500681 0.261900 -0.013999 68 1 84
0.058877 -0.337558 -0.368390 62 73 137
0.502549 -0.048074 -0.097504 60 78 138
0.077459 0.512359 -0.239900 41 121 142
0.308966 0.485551 -0.172364 69 54 129
-0.151206 0.482211 -0.182067 49 100 141
-0.662315 0.012440 0.417309 66 61 132
-0.628625 -0.352716 0.309872 68 1 84
-0.644393 0.171455 0.436441 54 90 140
0.388757 0.062260 -0.194567 61 76 137
-0.426597 -0.146233 -0.170602 68 1 84
0.681234 0.110561 0.288981 56 87 140
0.512184 -0.543012 0.212302 68 1 84
-0.057607 -0.430798 -0.339750 68 1 84
-0.224795 0.447793 -0.174166 57 84 139
0.285196 -0.407745 -0.211785 68 1 84
0.200104 -0.430070 -0.276146 68 1 84
-0.521622 0.284195 0.022338 68 1 84
-0.085835 -0.282054 -0.338597 66 64 133
0.440682 -0.451895 -0.048807 68 1 84
-0.125202 -0.395169 -0.330614 68 1 84
0.537317 -0.556637 0.310046 61 74 137
-0.473931 0.582121 0.011907 72 35 116
-0.645099 0.452587 0.252937 68 1 84
-0.118996 0.138987 -0.301911 30 157 136
0.242683 0.190809 -0.208028 67 59 131
0.629896 -0.331189 0.456382 31 146 140
-0.657614 0.382603 0.398644 68 1 84
0.636464 -0.194138 0.509259 121 209 81
-0.216794 -0.542302 -0.148806 68 1 84
-0.609772 -0.473253 0.380324 67 58 131
-0.206982 -0.234273 -0.278085 68 1 84
-0.657526 0.373743 0.436233 68 1 84
0.510967 -0.304800 -0.026778 69 6 90
-0.432713 0.287727 -0.047272 68 1 84
0.611771 -0.065876 0.109560 49 102 141
-0.529792 -0.159284 -0.040618 68 1 84
0.586848 -0.244892 0.129457 72 25 107
-0.551053 -0.243079 0.030432 68 1 84
0.065726 -0.300371 -0.360080 71 17 99
-0.634976 0.495774 0.236853 68 1 84
-0.170722 0.495412 -0.191666 48 103 141
0.338845 0.433532 -0.156240 62 73 137
0.661031 0.408538 0.481800 68 1 84
0.069283 -0.225963 -0.323960 72 26 108
-0.681607 0.025672 0.298161 71 24 106
0.104019 -0.247780 -0.320476 68 1 84
0.347549 -0.055374 -0.226713 65 66 134
0.087215 0.451074 -0.231714 51 96 141
-0.142446 0.464224 -0.167504 57 84 139
0.491287 0.061144 -0.106297 72 29 111
0.181544 0.050603 -0.274190 70 48 125
0.540616 -0.079294 -0.043767 69 52 127
-0.677179 -0.013874 0.341570 63 71 136
-0.204239 -0.290877 -0.276032 68 1 84
0.173253 -0.251693 -0.295502 68 1 84
0.151779 -0.508280 -0.242035 68 1 84
0.051949 0.237989 -0.437404 87 198 101
-0.628933 -0.347174 0.306989 71 18 101
-0.650904 0.187869 0.406489 61 76 137
0.618498 -0.385329 0.458726 44 113 142
-0.328483 0.019514 -0.236512 65 66 134
0.016020 0.234630 -0.442370 109 206 88
0.097682 0.379363 -0.238669 72 30 112
0.058672 0.263873 -0.423324 31 163 134
0.308488 -0.106273 -0.248739 62 72 136
-0.474782 -0.175565 -0.112919 68 1 84
-0.657039 -0.286418 0.406756 49 100 141
0.548943 -0.489800 0.246796 68 1 84
-0.295397 -0.434171 -0.184586 68 1 84
-0.297443 0.103574 -0.234692 58 82 139
-0.218500 0.291476 -0.141021 68 3 87
0.458553 0.331161 0.002771 68 1 84
0.490693 -0.282086 -0.069756 68 1 84
0.334945 -0.570019 -0.062428 68 1 84
0.152827 -0.326302 -0.320309 70 14 97
-0.435818 0.108910 -0.146002 68 1 84
-0.301905 -0.044923 -0.251555 57 84 139
0.004832 0.001228 -0.369836 35 135 141
-0.484318 0.084546 -0.103844 68 1 84
-0.585638 0.556695 0.161243 68 1 84
-0.597551 -0.446837 0.286455 68 1 84
-0.652767 0.145433 0.179643 67 60 132
0.301350 -0.076172 -0.252142 59 81 138
0.663601 0.116630 0.493307 71 37 117
-0.595822 0.204301 0.087992 68 1 84
-0.360689 -0.548582 -0.026618 68 1 84
0.664713 -0.057177 0.248679 60 77 138
0.590425 0.356336 0.110641 68 1 84
0.665635 0.013813 0.224097 61 76 137
-0.509539 -0.171629 -0.068053 68 1 84
0.624593 -0.300140 0.328024 37 130 142
-0.715957 -0.047952 0.517883 47 179 123
-0.389425 -0.491946 -0.057973 68 1 84
-0.329027 -0.377627 -0.184695 68 1 84
-0.505923 0.409100 0.031250 68 1 84
-0.621462 -0.387904 0.314587 68 1 84
-0.427921 -0.485030 -0.009650 68 1 84
0.328022 0.211200 -0.151777 70 47 124
-0.087870 0.007208 -0.353033 34 138 141
-0.526237 0.482126 0.057919 68 1 84
-0.435938 0.002093 -0.165194 68 1 84
-0.649348 0.355896 0.206801 68 1 84
-0.010757 -0.503780 -0.277169 68 1 84
-0.061632 0.508578 -0.234161 42 176 126
-0.309969 0.193214 -0.183160 72 34 115
0.296832 0.214365 -0.162771 72 34 115
0.089857 0.359527 -0.280073 60 78 138
-0.453232 -0.509057 0.064167 68 1 84
0.518304 0.025327 -0.079090 70 47 124
0.524927 0.093801 -0.064979 68 57 130
0.647986 0.132540 0.135386 71 43 122
0.050493 -0.479251 -0.307990 68 1 84
0.238979 -0.440244 -0.233340 68 1 84
0.137748 -0.492430 -0.268156 68 1 84
0.574879 -0.257920 0.098953 71 38 118
-0.670519 -0.029970 0.275503 68 57 130
-0.664955 -0.262265 0.452104 58 82 139
-0.647424 0.139038 0.163704 71 24 106
-0.061548 0.423340 -0.189235 49 102 141
-0.184925 -0.505794 -0.222979 68 1 84
-0.267799 0.286384 -0.131914 71 24 106
0.575107 -0.038739 0.009401 65 65 134
0.492803 -0.325540 -0.048547 68 1 84
0.566611 -0.047037 -0.002392 66 64 133
-0.606275 0.216610 0.113143 68 1 84
-0.645362 0.092001 0.441299 70 45 124
0.201004 -0.025591 -0.296969 65 65 134
0.204688 -0.159833 -0.273795 70 14 97
0.631268 -0.206665 0.515755 103 204 92
0.030782 -0.284652 -0.361344 70 9 92
0.480112 -0.466734 0.043797 68 1 84
-0.422115 0.561322 -0.071706 47 106 141
-0.586103 0.394919 0.116750 68 1 84
-0.187563 -0.223676 -0.286798 68 1 84
0.642151 -0.210215 0.297568 40 122 142
0.491436 0.409511 -0.013947 68 1 84
-0.594326 -0.322669 0.199618 68 1 84
0.159081 -0.475263 -0.275430 68 1 84
-0.141327 -0.202394 -0.308322 69 6 90
-0.197896 0.223070 -0.211594 64 67 135
-0.428571 0.134262 -0.143994 71 17 99
-0.623275 -0.040038 0.129495 70 11 94
0.543505 0.462443 0.027588 68 1 84
-0.248563 -0.204522 -0.266784 68 1 84
0.457293 0.566583 -0.073937 68 1 84
0.646906 0.227419 0.186917 71 18 101
-0.086514 0.122471 -0.300309 41 121 142
-0.675812 0.039051 0.376170 60 78 138
0.457397 0.514037 -0.092196 72 33 114
-0.170507 0.250818 -0.205743 70 45 124
0.681328 -0.125481 0.450576 53 93 140
-0.413242 -0.086679 -0.187595 68 1 84
0.431783 -0.469485 -0.047571 68 1 84
0.127468 -0.338413 -0.339131 72 28 110
-0.438883 -0.284246 -0.125348 68 1 84
-0.554831 -0.357228 0.127034 68 1 84
0.686118 -0.065931 0.507835 41 120 142
-0.197812 0.225171 -0.210230 67 60 132
-0.622156 0.268134 0.145983 68 1 84
-0.366292 -0.199326 -0.214670 68 1 84
-0.234521 0.195809 -0.214760 44 113 142
0.163861 0.257397 -0.225641 48 103 141
0.603390 0.456881 0.150221 68 1 84
-0.429412 -0.149497 -0.167328 68 1 84
0.342410 0.494134 -0.165784 52 95 141
-0.011823 0.153836 -0.375469 85 198 102
-0.115914 -0.362278 -0.341280 68 1 84
0.081715 0.176895 -0.356847 38 128 142
0.385918 -0.586366 0.034363 68 1 84
-0.051013 -0.095644 -0.357011 39 124 142
-0.529660 0.266894 0.020694 68 1 84
0.388842 -0.361238 -0.153212 68 1 84
0.062350 0.069385 -0.354603 42 119 142
-0.513323 -0.259423 -0.034262 68 1 84
-0.288523 -0.171558 -0.260280 72 32 113
0.155816 0.215482 -0.262097 71 42 121
-0.658301 0.351341 0.367239 68 1 84
-0.579372 0.237602 0.069534 68 1 84
-0.680734 0.029397 0.285667 72 25 107
-0.492671 -0.034553 -0.105314 68 1 84
-0.446741 -0.537872 0.099861 68 1 84
0.459422 -0.216178 -0.127106 68 1 84
0.655251 0.353240 0.396136 68 1 84
0.677589 -0.006884 0.300872 55 89 140
0.709710 -0.123167 0.496864 30 155 137
-0.412684 -0.402690 -0.100932 68 1 84
-0.682013 0.063365 0.275341 72 29 111
0.665899 0.424769 0.613308 38 128 142
-0.213527 -0.100762 -0.285019 69 50 127
0.172788 0.177846 -0.273934 71 40 120
0.526595 0.362759 0.048522 68 1 84
-0.682061 -0.059746 0.415596 35 136 141
-0.255430 -0.023400 -0.272349 62 73 137
-0.643823 0.370104 0.194971 68 1 84
-0.125647 0.098016 -0.264132 30 153 138
-0.526386 0.432673 0.045124 68 1 84
-0.378339 -0.441525 -0.109596 68 1 84
0.452532 0.447840 -0.080867 68 2 85
0.068527 -0.321329 -0.364958 72 34 115
0.251156 0.312614 -0.143136 67 58 131
-0.418885 -0.513585 0.008695 68 1 84
-0.455237 0.453333 -0.021680 68 1 84
-0.564415 0.452522 0.106278 68 1 84
-0.532435 0.080927 -0.047734 68 1 84
0.360864 -0.056507 -0.219626 62 72 136
-0.657112 -0.140026 0.272129 72 35 116
-0.050387 0.199916 -0.404855 253 231 36
0.125288 -0.166097 -0.342454 66 61 132
-0.597330 -0.474923 0.301714 68 1 84
-0.291668 0.153418 -0.217057 63 71 136
-0.598268 -0.139057 0.090871 68 1 84
0.292083 0.006110 -0.250238 52 95 141
0.279947 0.265873 -0.131973 72 28 110
-0.181190 0.153054 -0.243275 38 128 142
0.201934 -0.411673 -0.282352 68 1 84
0.454961 -0.363403 -0.086850 68 1 84
0.254547 0.485481 -0.182458 62 73 137
-0.505440 0.322625 0.028169 68 1 84
-0.629327 -0.417572 0.354968 70 45 124
0.667258 -0.080232 0.299622 63 69 135
-0.656307 0.359314 0.471708 68 1 84
0.692036 -0.088320 0.487902 48 104 141
0.061650 -0.294647 -0.359243 72 30 112
-0.559282 -0.472484 0.226889 68 1 84
0.228531 0.251718 -0.169653 71 42 121
0.362637 -0.045010 -0.219109 69 54 129
0.656679 -0.085738 0.238643 70 49 126
-0.627534 0.283665 0.149279 68 1 84
0.179056 -0.057470 -0.312099 70 48 125
0.665721 0.217740 0.419348 68 1 84
0.629229 -0.310353 0.392229 39 126 142
0.617611 -0.317180 0.305227 44 113 142
0.538423 0.345044 0.059641 68 1 84
-0.081146 -0.441711 -0.327377 68 1 84
-0.146413 -0.195479 -0.307253 69 6 90
0.004463 -0.156865 -0.333919 68 1 84
-0.156681 -0.488489 -0.257913 68 1 84
0.039299 0.186115 -0.430524 131 211 75
0.510410 -0.468908 0.126074 68 1 84
-0.617313 -0.007887 0.112756 68 1 84
0.135553 0.302403 -0.233155 68 57 130
0.041509 -0.459690 -0.325894 68 1 84
-0.254357 0.212747 -0.192685 70 47 124
0.083292 0.225861 -0.422556 31 146 140
