ply
format ascii 1.0
element vertex 1273
property float x
property float y
property float z
property uchar red
property uchar green
property uchar blue
end_header
-0.616137 -0.534253 0.301013 72 34 115
-0.327124 0.060042 -0.176382 43 116 142
0.012164 -0.061009 -0.454841 77 194 107
-0.604015 0.003060 0.443096 37 130 142
-0.305142 0.399485 -0.111229 71 38 118
0.480975 -0.230127 -0.066225 68 1 84
0.545787 0.029427 0.011626 68 1 84
0.017175 -0.059504 -0.454702 83 197 103
0.100153 -0.089217 -0.353362 49 101 141
-0.133139 0.040447 -0.286429 37 171 129
-0.240589 0.254041 -0.185110 47 105 141
0.057341 0.274868 -0.268866 42 176 126
0.017983 0.182754 -0.324069 167 219 51
0.597976 -0.022934 0.114530 68 1 84
-0.274377 0.243539 -0.183270 57 85 139
0.508078 0.295793 0.155725 68 1 84
0.440587 0.425803 0.138134 68 1 84
-0.469493 0.236088 0.003625 68 1 84
0.607697 -0.189160 0.077700 68 1 84
0.315194 0.543885 0.054137 68 1 84
-0.233166 -0.066500 -0.204983 30 156 137
-0.639102 -0.295290 0.481584 30 154 137
0.630751 -0.040736 0.423971 72 26 108
-0.443307 -0.482827 -0.147856 68 1 84
-0.454145 0.429823 0.121842 68 1 84
-0.564073 -0.117207 0.050111 68 1 84
-0.362956 -0.454474 -0.176514 68 1 84
0.513184 0.311161 0.192608 68 1 84
0.646660 -0.081055 0.517764 69 54 129
-0.634984 -0.261019 0.488207 30 157 136
0.395858 0.500101 0.323203 68 1 84
0.289671 0.533545 -0.006785 68 1 84
-0.256969 -0.259814 -0.157698 68 1 84
0.405153 0.431675 0.072486 68 1 84
-0.579167 0.185654 0.450230 48 103 141
0.290209 0.586286 0.163297 68 1 84
0.504776 -0.053770 -0.079516 68 1 84
0.387886 0.269455 -0.067556 68 1 84
-0.055482 0.278908 -0.283116 79 195 105
0.462893 0.377117 0.129468 68 1 84
-0.592617 0.123043 0.392666 56 87 140
-0.342601 0.390143 -0.084683 68 1 84
-0.291745 0.482955 -0.097438 68 1 84
0.610309 -0.504636 0.071093 68 1 84
-0.580032 0.124364 0.252211 66 62 133
0.599637 -0.007181 0.145912 68 1 84
0.378063 0.489220 0.093069 68 1 84
-0.108596 -0.244859 -0.191089 72 28 110
-0.289073 0.140003 -0.193267 43 116 142
-0.528240 0.112161 0.051711 68 1 84
0.663849 -0.379722 0.272200 70 11 94
0.341040 0.468185 0.005746 68 1 84
-0.447555 0.462140 0.196831 68 1 84
0.275536 -0.461013 -0.225276 68 1 84
-0.239743 -0.014659 -0.207185 31 146 140
0.162514 -0.200744 -0.209414 67 60 132
0.111745 -0.210768 -0.267865 66 61 132
0.392392 -0.304313 -0.138153 68 1 84
0.564644 0.180491 0.518330 68 1 84
0.073193 -0.320529 -0.269131 71 38 118
-0.576586 -0.259374 0.101626 69 5 88
-0.563284 -0.399641 0.106734 68 1 84
-0.525251 0.193488 0.086039 68 2 85
0.346788 0.512596 0.065011 68 1 84
0.615484 -0.422132 0.094388 68 1 84
0.629935 -0.029017 0.479382 68 1 84
0.434796 0.463499 0.229052 68 1 84
-0.096106 0.184778 -0.308288 189 222 38
0.508385 -0.275507 -0.028865 68 1 84
-0.298067 0.559122 -0.011164 68 1 84
-0.589397 0.152106 0.392626 54 90 140
0.573561 -0.262268 0.035520 68 1 84
0.613806 -0.068524 0.142302 68 1 84
0.140824 0.619856 -0.092221 68 1 84
-0.414223 -0.118382 -0.125231 61 75 137
0.538073 0.302803 0.390724 68 1 84
-0.568142 0.214863 0.257196 70 14 97
0.346964 0.377162 -0.053208 68 1 84
0.639120 -0.429925 0.170038 68 1 84
-0.485018 0.070207 -0.036103 68 1 84
-0.492281 0.011999 -0.044605 68 1 84
-0.608909 -0.092971 0.410074 55 89 140
0.398929 0.503039 0.269435 68 1 84
-0.455194 0.428176 0.122185 68 1 84
0.600291 0.091077 0.467077 68 1 84
0.541588 0.052183 0.019449 68 1 84
0.642332 -0.484942 0.181518 70 48 125
-0.574375 -0.183331 0.077490 68 1 84
0.670436 -0.342772 0.284202 68 1 84
-0.442614 -0.503535 -0.155998 68 1 84
0.576118 0.187552 0.340477 68 1 84
0.344330 0.005137 -0.171837 68 1 84
0.518101 0.137083 0.035969 68 1 84
0.599210 0.040168 0.261609 68 1 84
-0.077598 0.120799 -0.296608 248 230 33
0.071664 -0.026976 -0.436389 50 181 122
0.025486 -0.380231 -0.280851 68 1 84
-0.355031 0.547145 0.145778 68 1 84
-0.373738 0.470964 -0.001648 68 1 84
-0.549088 0.188481 0.151265 68 1 84
-0.627360 -0.161812 0.456425 38 128 142
-0.152362 0.223567 -0.262188 105 204 91
-0.087628 0.320554 -0.291316 54 184 119
0.705479 -0.468916 0.439936 43 116 142
0.408577 0.092154 -0.116638 68 1 84
-0.609848 -0.241237 0.219293 67 59 131
-0.634150 -0.266815 0.354301 47 106 141
-0.340205 -0.072526 -0.162082 64 67 135
0.607043 -0.184816 0.075603 68 1 84
-0.073558 -0.252054 -0.233123 67 59 131
-0.631694 -0.554678 0.362231 31 146 140
-0.329146 0.492345 -0.048879 68 1 84
-0.259156 0.586982 -0.014728 68 1 84
-0.532005 -0.025261 0.003445 68 1 84
0.643096 -0.512174 0.172842 71 38 118
0.258388 0.148471 -0.199214 68 1 84
0.296110 0.306406 -0.137277 68 1 84
0.429698 0.063883 -0.108629 68 1 84
0.448840 0.435460 0.186394 68 1 84
-0.278812 0.282912 -0.158117 62 73 137
0.572750 0.208483 0.381929 68 1 84
0.667303 -0.200648 0.320936 71 22 105
-0.269342 -0.151098 -0.165165 35 136 141
0.641664 -0.182366 0.188422 68 1 84
-0.158807 0.576506 -0.185755 71 20 102
0.468918 -0.244846 -0.072351 68 1 84
0.321159 -0.072743 -0.175641 71 15 98
0.157076 -0.296632 -0.161415 63 69 135
0.288148 -0.460490 -0.222124 68 1 84
0.470461 0.221544 0.013097 68 1 84
0.536501 -0.132370 -0.050082 68 1 84
0.264082 -0.270200 -0.170507 71 17 99
-0.312924 -0.448541 -0.213516 68 1 84
0.125106 -0.428190 -0.265459 68 1 84
-0.620067 -0.113345 0.549728 53 183 120
-0.495575 -0.011975 -0.047082 68 1 84
-0.598437 0.048096 0.412814 46 109 142
0.160038 0.448738 -0.160029 68 1 84
-0.636778 -0.546950 0.380595 33 141 140
-0.594017 0.084842 0.346804 49 102 141
-0.309699 -0.521383 -0.232042 68 1 84
-0.216765 0.307364 -0.192304 42 119 142
-0.392745 -0.505183 -0.193162 68 1 84
0.281999 -0.075599 -0.189824 68 1 84
-0.532466 -0.534314 0.042939 68 1 84
0.206119 -0.340694 -0.153684 70 11 94
0.308828 -0.499958 -0.256996 68 1 84
-0.165825 0.241278 -0.238809 30 160 135
-0.356769 0.054081 -0.159449 54 91 140
0.689016 -0.306473 0.345301 68 1 84
-0.274302 0.567665 -0.044009 68 1 84
-0.079402 -0.417863 -0.230835 68 1 84
0.581454 -0.352844 0.036258 68 1 84
0.302603 0.578731 0.166899 68 1 84
0.396716 -0.307263 -0.135333 68 1 84
-0.136789 0.512521 -0.220509 55 88 140
0.367039 0.022371 -0.159427 68 1 84
0.562210 -0.412835 -0.046667 68 1 84
-0.585037 0.168471 0.330964 64 67 135
0.120520 0.325987 -0.247169 55 89 140
-0.179763 0.552097 -0.183453 62 73 137
-0.382198 -0.145147 -0.134518 53 92 140
0.629960 -0.180862 0.141647 68 1 84
-0.290747 0.458709 -0.106026 69 5 88
-0.251583 0.444130 -0.140916 72 35 116
0.207197 -0.375927 -0.175704 68 1 84
0.435564 0.454716 0.380799 68 1 84
0.635395 -0.075356 0.331418 70 12 95
0.148980 -0.312173 -0.166308 61 76 137
0.379021 0.230312 -0.097223 68 1 84
-0.277904 0.416933 -0.126427 70 14 97
-0.508575 -0.356959 0.017396 68 1 84
-0.301818 0.281261 -0.154359 67 59 131
-0.480700 0.417707 0.282813 68 1 84
0.235748 -0.088625 -0.206473 71 44 123
-0.575883 0.133958 0.235607 71 38 118
-0.009792 -0.138872 -0.391391 36 133 141
-0.610436 -0.499457 0.274230 65 66 134
-0.228406 0.022638 -0.208287 35 136 141
0.558703 0.103949 0.109092 68 1 84
-0.210967 0.375550 -0.182543 59 81 138
-0.513763 -0.370211 0.021129 68 1 84
-0.039628 -0.167421 -0.354102 30 153 138
-0.479177 0.419444 0.289002 68 1 84
-0.039205 0.624649 -0.167608 68 1 84
-0.443093 0.468481 0.217584 68 1 84
-0.491933 0.267524 0.061084 68 1 84
-0.551413 -0.499850 0.092692 68 1 84
0.380741 0.203893 -0.107123 68 1 84
0.098142 -0.112478 -0.336298 60 78 138
0.649987 -0.110769 0.415752 72 30 112
0.355818 0.501527 0.066491 68 1 84
0.131710 -0.113208 -0.280936 61 74 137
-0.623934 -0.559633 0.335048 49 100 141
-0.581325 0.012144 0.186053 67 58 131
0.483576 0.401644 0.280667 68 1 84
-0.650852 -0.420940 0.494223 33 166 133
0.386300 -0.507690 -0.233136 68 1 84
-0.644976 -0.339433 0.484339 31 150 139
0.240038 -0.110971 -0.199734 68 55 129
0.406865 0.332095 -0.005804 68 1 84
0.584192 -0.220576 0.039368 68 1 84
0.449545 0.423357 0.159615 68 1 84
0.080579 0.034182 -0.311687 33 140 141
0.612163 0.007388 0.321956 68 1 84
-0.148090 -0.420982 -0.182170 68 1 84
0.078026 0.628451 -0.135995 68 1 84
0.679392 -0.270524 0.328294 71 21 103
-0.587233 0.128349 0.454019 45 111 142
-0.624157 -0.138152 0.454597 30 154 137
0.540706 0.275761 0.262100 68 1 84
0.423945 0.454775 0.143153 68 1 84
-0.344415 0.314254 -0.117110 68 1 84
-0.375085 -0.559604 -0.216081 68 1 84
-0.654295 -0.526928 0.491742 43 177 125
-0.593482 -0.037901 0.239042 65 66 134
0.595356 0.024339 0.181169 68 1 84
-0.575945 0.036151 0.170938 68 1 84
-0.419564 -0.498306 -0.173401 68 1 84
0.686337 -0.504700 0.329749 70 47 124
-0.282989 0.067946 -0.195422 35 135 141
-0.507215 0.322814 0.136123 68 1 84
0.632981 -0.365476 0.146137 68 1 84
0.530805 0.312951 0.430488 68 1 84
0.089260 0.639394 -0.093630 68 1 84
0.559906 0.213843 0.497728 68 1 84
-0.160733 -0.183921 -0.197618 42 118 142
0.042151 0.516037 -0.234250 66 64 133
0.301827 -0.200155 -0.157610 68 1 84
0.266864 -0.065308 -0.197497 68 3 87
0.035786 0.061462 -0.327580 36 170 130
0.108268 -0.146939 -0.302218 51 97 141
0.483506 0.164107 -0.006257 68 1 84
-0.614233 -0.281901 0.236340 67 58 131
0.177878 -0.041908 -0.240792 53 92 140
-0.522406 0.109026 0.038358 68 1 84
0.643394 -0.262753 0.176374 68 1 84
0.299958 0.085561 -0.186416 70 12 95
0.179327 0.150567 -0.228719 42 118 142
0.156091 0.625488 -0.050842 68 1 84
-0.523809 -0.547935 0.015481 68 1 84
0.607224 -0.383754 0.079201 68 1 84
0.106807 -0.076590 -0.343911 52 94 141
-0.279622 0.424745 -0.123304 68 1 84
-0.386989 0.068388 -0.138362 58 82 139
-0.604452 -0.454902 0.244866 62 72 136
0.279666 -0.148138 -0.170482 71 39 119
-0.404104 -0.588700 -0.189326 68 1 84
0.325278 0.561596 0.151611 68 1 84
-0.557209 -0.402589 0.093005 68 1 84
-0.002142 0.639207 -0.129387 68 1 84
0.011183 -0.154805 -0.381766 32 143 140
0.286955 -0.267362 -0.172474 68 1 84
-0.527005 0.063752 0.028856 68 1 84
0.614218 -0.069309 0.143711 68 1 84
0.418154 0.477379 0.183499 68 1 84
0.623947 -0.340125 0.122475 68 1 84
0.508772 0.355503 0.417058 68 1 84
-0.331745 -0.245173 -0.130618 71 38 118
-0.185342 0.190796 -0.244746 121 209 81
-0.527561 0.249611 0.127657 68 1 84
-0.629385 -0.182392 0.490602 31 162 134
0.252019 0.066669 -0.203065 72 33 114
0.200578 0.004818 -0.222550 64 68 135
0.702949 -0.487122 0.420540 44 113 142
0.137541 -0.410565 -0.243738 68 1 84
0.613311 -0.420571 0.088004 68 1 84
0.182925 -0.194912 -0.196417 64 67 135
-0.369354 0.402728 -0.052016 68 1 84
-0.368583 0.219274 -0.130990 71 39 119
0.463176 0.070288 -0.077472 68 1 84
0.073923 -0.391781 -0.272597 71 20 102
-0.570582 0.134839 0.529064 32 143 140
0.428898 0.260262 -0.023886 68 1 84
0.439555 0.272970 0.000225 68 1 84
-0.451294 0.117949 -0.068361 68 1 84
-0.557243 0.233559 0.223200 68 1 84
0.163207 0.575168 -0.126455 68 1 84
0.610875 -0.191483 0.085789 68 1 84
-0.544865 -0.415023 0.065429 68 1 84
0.261923 0.475964 -0.072567 68 1 84
-0.319787 -0.564407 -0.243314 68 1 84
0.174488 -0.404145 -0.209459 68 1 84
-0.053311 -0.222489 -0.298302 44 113 142
0.700695 -0.417147 0.402937 67 59 131
-0.314410 0.266667 -0.157158 71 39 119
-0.487155 -0.457089 -0.083416 68 1 84
0.670235 -0.222318 0.351870 70 9 92
-0.219051 0.020953 -0.210032 35 135 141
-0.529568 0.058258 0.031635 68 1 84
-0.072166 -0.312326 -0.183904 68 1 84
0.322739 0.416333 -0.051252 68 1 84
0.031247 0.098461 -0.316807 85 198 102
0.638905 -0.060521 0.536676 58 83 139
-0.316473 -0.392416 -0.181637 68 1 84
-0.637405 -0.285095 0.386184 46 108 142
-0.420166 0.417346 0.029557 68 1 84
0.601871 0.087794 0.453593 68 1 84
0.400107 0.502251 0.265184 68 1 84
0.161759 0.042758 -0.234185 50 98 141
0.615672 0.002504 0.351795 68 1 84
-0.574627 -0.004155 0.134215 68 1 84
0.105731 -0.202071 -0.281520 65 66 134
-0.579116 0.117978 0.501658 30 158 136
-0.040814 -0.004329 -0.451294 96 201 96
0.028500 -0.438831 -0.292104 71 17 99
-0.311018 0.525028 -0.045596 68 1 84
-0.071914 -0.110074 -0.371592 30 158 136
-0.607535 -0.243154 0.205368 67 60 132
-0.551143 -0.207379 0.033130 68 1 84
0.202339 0.359485 -0.152402 68 1 84
-0.166179 0.415038 -0.197989 64 67 135
-0.504068 -0.409212 -0.017852 68 1 84
0.238050 -0.455237 -0.235358 68 1 84
0.455503 0.440401 0.305926 68 1 84
0.332529 0.388908 -0.060320 68 1 84
-0.549426 0.199209 0.160117 68 1 84
0.482838 0.398092 0.383048 68 1 84
-0.287125 -0.105438 -0.175406 47 105 141
-0.251683 -0.440335 -0.222456 68 1 84
0.572138 0.208513 0.424428 68 1 84
0.372292 -0.163305 -0.142344 68 1 84
0.202087 0.616468 0.015673 68 1 84
0.594974 0.079757 0.300843 68 1 84
0.606012 -0.031730 0.143805 68 1 84
-0.599407 0.061696 0.441073 34 137 141
-0.234290 -0.075355 -0.202704 30 154 137
-0.633908 -0.231998 0.399473 38 127 142
-0.557314 0.278486 0.324369 71 18 101
0.670986 -0.207481 0.436316 51 96 141
-0.345397 -0.393980 -0.172401 68 1 84
0.579017 -0.409596 -0.002429 68 1 84
0.494707 -0.430113 -0.141174 68 1 84
0.602154 -0.505523 0.043038 68 1 84
-0.612536 -0.533683 0.288941 71 42 121
-0.061656 0.354536 -0.276642 30 158 136
0.720686 -0.355268 0.487150 31 146 140
0.651503 -0.162609 0.264429 68 1 84
0.450337 0.258598 0.006688 68 1 84
0.280280 0.213650 -0.183122 68 1 84
0.551241 0.067404 0.052289 68 1 84
-0.579969 -0.018910 0.149692 68 1 84
0.687059 -0.381448 0.339597 72 34 115
-0.583560 0.154713 0.456217 47 105 141
0.630204 -0.057670 0.331528 68 1 84
0.674421 -0.308830 0.287419 68 1 84
0.475088 0.397062 0.200630 68 1 84
-0.591796 0.076230 0.307337 49 100 141
-0.434167 0.215770 -0.058247 68 1 84
0.205523 -0.133126 -0.209566 59 80 138
-0.488172 0.109819 -0.019907 68 1 84
-0.591608 0.099294 0.320529 55 88 140
-0.580949 0.104726 0.246764 69 54 129
-0.383032 0.138394 -0.136384 65 65 134
-0.595500 0.054009 0.359847 37 130 142
0.537929 0.041998 0.004744 68 1 84
-0.580383 -0.417728 0.154109 68 1 84
-0.426014 0.322621 -0.022355 68 1 84
-0.592893 0.010560 0.508632 30 160 135
-0.539379 0.249774 0.164076 68 1 84
-0.417391 -0.323330 -0.060166 68 1 84
0.495286 -0.105174 -0.092327 68 1 84
-0.583371 0.092569 0.252950 63 71 136
-0.329967 -0.425395 -0.201781 68 1 84
-0.123021 0.173226 -0.290245 199 224 31
-0.624329 -0.317505 0.296400 66 62 133
-0.396304 0.513606 0.153934 68 1 84
-0.257292 0.484804 -0.129966 71 20 102
0.149382 -0.403658 -0.227748 68 1 84
-0.376085 0.526308 0.117437 68 1 84
0.444519 0.323346 0.046611 68 1 84
-0.040054 0.224540 -0.296760 131 211 75
-0.027789 0.333311 -0.294312 79 195 105
-0.499492 0.329217 0.121101 68 1 84
0.464674 0.384393 0.142650 68 1 84
0.194965 -0.379409 -0.178566 68 1 84
-0.141508 -0.132475 -0.242543 34 137 141
-0.633696 -0.230443 0.396556 43 115 142
-0.067419 0.283118 -0.284652 121 209 81
-0.651718 -0.447612 0.479761 31 150 139
0.580171 -0.012066 0.059725 68 1 84
-0.436528 -0.275288 -0.056604 68 1 84
-0.093947 0.169941 -0.306913 218 226 24
0.448302 0.343859 0.069511 68 1 84
-0.531530 0.334012 0.317551 68 1 84
-0.561161 0.268225 0.324421 72 26 108
0.188061 0.185352 -0.228266 45 110 142
-0.606168 -0.445142 0.248583 61 76 137
-0.363265 0.081196 -0.155363 67 60 132
-0.609177 -0.414893 0.251893 69 52 127
0.130334 0.311276 -0.238596 68 57 130
-0.625074 -0.145403 0.453256 34 139 141
-0.054169 0.533623 -0.239539 58 82 139
-0.534258 -0.469259 0.036276 68 1 84
-0.562534 -0.121414 0.045494 68 1 84
0.637122 -0.157951 0.182919 68 1 84
-0.213065 -0.080511 -0.210356 31 146 140
0.122222 -0.049566 -0.328344 46 107 142
0.481312 0.266004 0.068071 68 1 84
0.277588 -0.461416 -0.225046 68 1 84
-0.642451 -0.342431 0.427057 33 140 141
0.185636 -0.409778 -0.208694 68 1 84
0.265583 0.228491 -0.188445 68 1 84
-0.581243 -0.007515 0.168739 68 1 84
0.321902 -0.198859 -0.152805 68 1 84
0.619462 -0.041194 0.245425 68 1 84
-0.501724 -0.428848 -0.038469 68 1 84
0.123649 0.305152 -0.242506 61 75 137
-0.418996 0.300721 -0.041487 68 1 84
0.002104 0.628657 -0.159934 68 1 84
0.658564 -0.257927 0.234916 68 1 84
-0.126088 -0.447842 -0.230922 68 1 84
0.603349 0.001037 0.193192 68 1 84
-0.458340 -0.558041 -0.138582 68 1 84
0.316504 -0.318535 -0.168254 69 8 91
0.606377 0.048567 0.503862 71 21 103
-0.414337 -0.170005 -0.116029 50 98 141
-0.026429 -0.096851 -0.422148 51 182 121
-0.226296 -0.512895 -0.257761 68 1 84
-0.029487 0.454084 -0.239819 51 97 141
-0.546299 -0.459110 0.069168 68 1 84
-0.275334 0.429825 -0.125717 68 1 84
-0.512092 0.368890 0.316932 68 1 84
-0.462807 -0.088746 -0.093105 72 30 112
0.330101 -0.054118 -0.175034 72 26 108
0.110220 0.059179 -0.291295 43 115 142
0.109117 0.289426 -0.248171 47 106 141
-0.561171 0.215704 0.222743 68 2 85
0.202465 0.446811 -0.130175 68 1 84
0.441664 0.231804 -0.024645 68 1 84
-0.593222 -0.179530 0.144929 68 2 85
0.010155 -0.144663 -0.389354 30 157 136
0.539052 0.142178 0.088921 68 1 84
-0.172733 0.333579 -0.230741 31 162 134
0.168085 0.596767 -0.098102 68 1 84
0.725841 -0.410224 0.483234 38 128 142
-0.201111 -0.235895 -0.159493 69 6 90
-0.447872 0.152199 -0.064097 68 1 84
0.434644 0.458213 0.362878 68 1 84
0.641395 -0.080188 0.419178 71 24 106
-0.621619 -0.420617 0.296805 67 58 131
0.334081 0.444364 -0.020128 68 1 84
0.472548 0.329237 0.103359 68 1 84
0.547140 -0.479661 -0.101781 68 1 84
0.577574 -0.056355 0.024267 68 1 84
-0.550156 0.225072 0.184431 71 15 98
-0.227724 -0.118611 -0.193969 33 141 140
0.691306 -0.327802 0.352057 68 2 85
-0.485367 -0.510051 -0.101078 68 1 84
0.076033 0.229848 -0.289619 51 182 121
0.210645 -0.386413 -0.181687 68 1 84
-0.600810 -0.016568 0.360481 49 101 141
0.240087 0.576977 -0.023244 68 1 84
-0.086019 -0.049296 -0.399525 68 190 112
0.096031 -0.059946 -0.391172 39 124 142
-0.164411 -0.110846 -0.230457 35 135 141
0.654140 -0.105338 0.461796 71 24 106
0.546714 -0.221944 -0.009501 68 1 84
-0.414595 0.499471 0.193797 68 1 84
0.322727 0.480685 -0.007606 68 1 84
0.221510 -0.020954 -0.218716 58 83 139
0.591105 0.090960 0.528729 68 1 84
0.617786 -0.495439 0.098138 68 1 84
0.122925 0.626817 -0.097275 68 1 84
-0.594749 -0.076016 0.204122 67 58 131
0.475204 -0.482005 -0.180137 68 1 84
-0.551010 0.294212 0.347252 69 8 91
0.537122 0.288053 0.266009 68 1 84
0.542246 -0.111037 -0.044539 68 1 84
-0.637065 -0.278475 0.386078 40 122 142
-0.393317 -0.580999 -0.200745 68 1 84
0.010168 0.388547 -0.224406 70 45 124
-0.306088 0.256221 -0.165734 69 50 127
0.341593 0.351715 -0.074087 68 1 84
-0.334661 0.250967 -0.151519 61 74 137
0.667394 -0.507766 0.265826 71 18 101
-0.600483 -0.554520 0.257075 70 47 124
-0.387166 -0.073277 -0.141175 71 42 121
0.177308 -0.419956 -0.225888 68 1 84
0.640466 -0.105091 0.287003 68 1 84
-0.201168 -0.030974 -0.218229 36 132 141
-0.501535 0.030055 -0.026772 68 1 84
0.042649 -0.057547 -0.447188 42 176 126
0.081676 0.626698 -0.137201 68 1 84
-0.335449 0.365628 -0.101147 68 1 84
0.391439 0.388317 0.012447 68 1 84
0.140474 -0.194503 -0.237743 67 60 132
0.123700 0.035321 -0.341328 51 96 141
0.292569 0.390545 -0.091183 68 1 84
0.447441 0.393946 0.114165 68 1 84
-0.554971 -0.016017 0.056793 68 1 84
0.608940 0.030176 0.341772 68 1 84
0.119652 -0.425078 -0.266279 68 1 84
0.476173 -0.432884 -0.153584 68 1 84
-0.576318 -0.221342 0.090500 68 1 84
-0.506770 0.337873 0.150600 68 1 84
0.170794 -0.053908 -0.247009 60 77 138
-0.570754 -0.534853 0.162482 68 1 84
0.187521 -0.177911 -0.203131 65 66 134
-0.216051 0.284378 -0.186358 54 91 140
0.244759 -0.004261 -0.210655 71 24 106
0.586242 0.114928 0.286559 68 1 84
-0.174329 0.492756 -0.199138 55 88 140
-0.202684 0.397909 -0.181894 66 61 132
0.578032 -0.142141 0.011436 68 1 84
0.047322 0.031203 -0.401414 39 173 128
-0.630629 -0.381503 0.329316 58 83 139
0.695165 -0.336425 0.369438 72 29 111
0.616841 -0.309518 0.108771 68 1 84
-0.328756 -0.218788 -0.133023 50 99 141
-0.587728 -0.566782 0.219787 71 38 118
-0.088849 0.508145 -0.238616 57 85 139
-0.513337 0.348931 0.199758 68 1 84
-0.632384 -0.218169 0.395684 39 124 142
-0.584430 -0.239088 0.118651 68 1 84
0.148377 0.332840 -0.219026 70 9 92
-0.101241 -0.355164 -0.150741 68 1 84
0.596438 -0.220358 0.061008 68 1 84
-0.155555 0.465534 -0.206320 46 108 142
-0.643016 -0.482872 0.399967 41 121 142
0.447463 -0.281128 -0.087933 68 1 84
0.098200 0.452630 -0.199059 68 1 84
-0.117489 0.602246 -0.186975 68 1 84
-0.336087 0.539997 0.030656 68 1 84
-0.537995 0.294970 0.474049 70 12 95
0.468091 -0.268549 -0.068489 68 1 84
-0.314037 -0.417692 -0.215284 68 1 84
-0.587918 0.112882 0.295624 59 81 138
-0.591000 -0.038739 0.212153 71 21 103
-0.208630 0.610001 -0.062583 68 1 84
0.588998 -0.436948 0.014503 68 1 84
0.491200 0.391632 0.310024 68 1 84
-0.343151 -0.482394 -0.203194 68 1 84
-0.631243 -0.218151 0.495471 31 162 134
-0.263488 -0.046816 -0.197385 30 154 137
-0.485061 -0.503807 -0.101215 68 1 84
0.605634 -0.451969 0.060177 68 1 84
0.066312 -0.082410 -0.412964 31 147 139
0.165161 0.395346 -0.171460 68 1 84
0.155938 0.627386 -0.043732 68 1 84
0.025363 0.639674 -0.128956 68 1 84
0.549434 -0.532605 -0.094705 68 1 84
-0.650593 -0.392952 0.495146 32 144 140
-0.026306 0.132649 -0.309392 183 221 41
-0.423697 0.171547 -0.088118 68 2 85
0.614260 -0.361725 0.099232 68 1 84
-0.557800 -0.337676 0.084911 68 1 84
0.232139 -0.423420 -0.200773 68 1 84
0.108543 -0.406161 -0.261111 68 1 84
0.596742 0.072920 0.304478 68 1 84
0.025581 -0.363793 -0.281034 69 6 90
-0.239292 -0.132440 -0.183566 38 128 142
-0.408718 0.336932 -0.039656 68 1 84
0.602708 0.050878 0.320937 68 1 84
0.494744 0.061502 -0.047665 68 1 84
0.454288 -0.211375 -0.091388 68 1 84
-0.337336 -0.416340 -0.188310 68 1 84
-0.438010 0.450199 0.109116 68 1 84
-0.236484 0.337376 -0.172913 49 102 141
0.478537 -0.354215 -0.097662 68 1 84
0.384495 -0.291771 -0.144763 68 1 84
-0.102822 0.000948 -0.374261 96 201 96
0.352165 0.523665 0.096826 68 1 84
-0.138649 0.287191 -0.260311 43 177 125
0.419738 0.324887 0.007805 68 1 84
-0.523023 0.349067 0.296400 68 1 84
-0.321600 -0.243561 -0.135103 50 99 141
0.663729 -0.170890 0.354098 71 18 101
-0.403300 0.121504 -0.120399 71 42 121
-0.376345 0.216142 -0.124171 71 21 103
-0.583319 -0.085938 0.126314 68 1 84
-0.360234 -0.254933 -0.115247 72 25 107
0.533064 -0.238503 -0.017573 68 1 84
0.078073 0.387647 -0.224391 72 35 116
0.156063 -0.448171 -0.266846 68 1 84
-0.342744 -0.530700 -0.224860 68 1 84
0.618602 0.004735 0.516393 70 11 94
-0.058045 -0.079345 -0.413738 71 192 110
-0.447437 -0.370152 -0.052719 68 1 84
-0.137511 0.093215 -0.243656 89 199 100
0.342397 0.153870 -0.153697 68 1 84
0.617384 -0.008253 0.341830 68 1 84
0.279167 -0.152879 -0.169399 69 6 90
0.470814 -0.108502 -0.110537 68 1 84
-0.346137 0.537345 0.050812 68 1 84
0.630125 -0.244291 0.137695 68 1 84
0.631990 -0.076214 0.278690 68 1 84
-0.593687 -0.380807 0.178364 68 1 84
-0.172823 0.164101 -0.247241 124 210 79
-0.571891 -0.097888 0.077917 68 1 84
0.645938 -0.110090 0.336874 68 1 84
-0.630513 -0.204452 0.494060 31 162 134
0.647791 -0.085184 0.480803 71 37 117
-0.596539 -0.340289 0.175859 71 17 99
0.697542 -0.488814 0.392493 56 86 139
-0.478459 0.199497 0.000588 68 1 84
-0.601965 -0.129977 0.222358 61 75 137
-0.370911 0.297682 -0.099261 68 1 84
-0.044209 0.143197 -0.311113 243 229 30
-0.020013 0.638594 -0.130330 68 1 84
-0.073239 0.592520 -0.206304 68 2 85
0.000811 0.114291 -0.313816 109 206 88
-0.539812 0.290181 0.216714 68 1 84
-0.412870 0.244832 -0.071412 68 1 84
0.090571 0.216255 -0.293256 37 171 129
-0.314724 0.017375 -0.181385 42 118 142
-0.003746 0.641638 -0.118804 68 1 84
0.122607 -0.235157 -0.236347 71 44 123
0.166484 0.389962 -0.172642 68 1 84
-0.540467 0.316579 0.311804 68 1 84
-0.295166 -0.228170 -0.143490 64 68 135
0.111417 -0.235704 -0.252702 65 66 134
-0.602533 0.005399 0.462510 35 135 141
-0.605507 -0.061290 0.403663 48 104 141
-0.046324 -0.329885 -0.228966 68 1 84
0.057965 -0.151983 -0.362972 33 141 140
-0.006854 0.231607 -0.291319 134 212 73
0.622454 -0.320226 0.120406 68 1 84
0.288263 -0.278185 -0.172355 68 1 84
-0.125172 0.588952 -0.197174 72 29 111
0.300745 0.532524 0.009682 68 1 84
-0.160951 -0.237574 -0.164940 68 57 130
0.549192 -0.023999 -0.014440 68 1 84
-0.572980 0.151364 0.511652 54 91 140
0.654782 -0.310825 0.218090 68 1 84
-0.520804 -0.531700 0.001253 68 1 84
-0.481359 0.225109 0.018467 68 1 84
-0.167451 -0.145164 -0.214611 38 128 142
-0.407053 0.065092 -0.122568 63 71 136
-0.451738 0.457355 0.207396 68 1 84
0.678088 -0.388339 0.311500 72 32 113
-0.282692 0.269048 -0.165921 65 65 134
0.116613 -0.274238 -0.221458 60 77 138
-0.202466 0.406553 -0.180353 71 40 120
0.174848 -0.017548 -0.240191 61 75 137
-0.543961 0.065651 0.065544 68 1 84
0.063496 0.447925 -0.213855 68 1 84
0.474607 0.415738 0.293764 68 1 84
-0.523299 0.306460 0.168117 68 1 84
0.304365 -0.452695 -0.214713 68 1 84
-0.042786 0.024488 -0.413563 73 193 109
-0.174710 -0.104071 -0.225185 32 144 140
0.306873 0.343727 -0.109390 68 1 84
0.596659 0.044410 0.247282 68 1 84
-0.628538 -0.309686 0.318386 56 87 140
-0.455324 -0.390937 -0.064183 68 1 84
0.170211 0.415731 -0.161018 68 1 84
0.160738 -0.074666 -0.255102 59 80 138
0.721325 -0.421356 0.488094 33 142 140
0.677104 -0.263154 0.332851 68 1 84
0.079058 0.460661 -0.210464 71 18 101
-0.266406 -0.381747 -0.165608 68 1 84
0.190186 -0.193051 -0.192577 68 57 130
-0.129106 -0.467386 -0.254808 68 1 84
0.552404 -0.007401 -0.000292 68 1 84
-0.518064 0.352438 0.243955 68 1 84
0.494654 0.209597 0.047783 68 1 84
0.127912 -0.010926 -0.355882 39 125 142
0.168150 0.129461 -0.230894 39 125 142
0.556365 0.108461 0.105601 68 1 84
-0.594618 -0.072063 0.207110 70 49 126
0.567219 0.217810 0.327568 68 1 84
-0.045907 -0.333036 -0.229220 68 1 84
-0.495910 0.282913 0.077497 68 1 84
-0.521599 0.106884 0.035764 68 1 84
-0.529317 0.289022 0.167579 68 1 84
-0.503251 0.011620 -0.030289 68 1 84
0.085033 0.559758 -0.202907 68 1 84
0.238618 0.342820 -0.135654 68 1 84
0.151928 0.283369 -0.211151 72 28 110
-0.566322 0.164402 0.205333 68 1 84
-0.523309 0.276135 0.136651 68 1 84
-0.591379 0.135981 0.389780 54 90 140
0.479275 -0.398228 -0.128229 68 1 84
0.133121 -0.389154 -0.228654 68 1 84
-0.002987 -0.015845 -0.468960 85 198 102
0.414848 0.035268 -0.128344 68 1 84
-0.295505 0.106861 -0.190945 38 127 142
-0.458334 -0.441224 -0.108842 68 1 84
-0.566844 -0.145385 0.054693 68 1 84
-0.323814 -0.370483 -0.155080 68 1 84
0.410883 0.002618 -0.137711 68 1 84
0.681194 -0.309181 0.303957 68 1 84
-0.235113 0.287787 -0.171696 55 88 140
0.377883 0.461544 0.057089 68 1 84
-0.004252 0.334579 -0.293544 36 170 130
0.326667 0.040889 -0.178167 68 1 84
0.664809 -0.166250 0.447384 55 88 140
-0.645647 -0.394105 0.428737 38 128 142
0.484407 0.361833 0.167110 68 1 84
-0.158494 -0.357990 -0.149141 71 22 105
0.332613 -0.380930 -0.198535 68 1 84
-0.563841 0.253480 0.296051 70 9 92
0.537644 -0.502514 -0.117242 68 1 84
-0.407692 -0.328676 -0.067431 68 1 84
-0.307000 -0.239634 -0.140678 69 54 129
0.504581 0.362236 0.264774 68 1 84
0.692511 -0.498314 0.359118 59 81 138
-0.460073 0.287834 0.014326 68 1 84
0.318347 0.345030 -0.099644 68 1 84
0.332099 0.388879 -0.060764 68 1 84
-0.076287 -0.253928 -0.226766 72 35 116
0.571701 -0.324259 0.032511 68 1 84
-0.022251 0.039768 -0.400268 73 193 109
0.282847 0.568083 0.039449 68 1 84
-0.321852 -0.519032 -0.226828 68 1 84
-0.510864 -0.395959 0.003795 68 1 84
0.668088 -0.194621 0.374194 72 29 111
0.253155 0.102512 -0.200614 71 20 102
0.657033 -0.312168 0.228784 68 1 84
0.137518 0.635899 -0.040082 68 1 84
0.599117 -0.388336 0.059421 68 1 84
0.593082 -0.433966 0.027953 68 1 84
0.174538 -0.121389 -0.235232 56 86 139
-0.101120 0.634689 -0.127715 68 1 84
-0.620323 -0.208502 0.279078 56 86 139
-0.472177 0.376047 0.100222 68 1 84
0.672249 -0.390494 0.297021 71 24 106
-0.418860 -0.447742 -0.143001 68 1 84
-0.425587 -0.395924 -0.093872 68 1 84
0.016606 -0.183272 -0.363255 40 122 142
-0.569785 0.240749 0.391272 59 81 138
-0.147009 -0.042842 -0.275831 69 191 111
0.339725 -0.397070 -0.206887 68 1 84
0.129056 -0.382283 -0.226640 68 1 84
-0.258996 0.049867 -0.202164 34 139 141
-0.044449 -0.130094 -0.381916 40 174 127
-0.405467 0.498517 0.122209 68 1 84
0.519845 -0.448955 -0.132277 68 1 84
0.137901 -0.313229 -0.177565 68 57 130
-0.608523 -0.447700 0.257318 64 67 135
0.261092 -0.143865 -0.178923 72 29 111
-0.510917 -0.020844 -0.029186 68 1 84
-0.573912 -0.063074 0.099212 68 1 84
0.382542 0.519205 0.256797 68 1 84
-0.395130 0.483944 0.055088 68 1 84
-0.515589 0.131891 0.034741 68 1 84
-0.361996 0.487027 -0.005433 68 1 84
0.568615 0.157981 0.534818 68 1 84
0.711428 -0.321603 0.472586 39 125 142
0.560491 -0.514922 -0.074868 68 1 84
-0.008416 -0.097221 -0.427915 40 174 127
-0.490495 -0.440671 -0.068073 68 1 84
0.595858 -0.495731 0.022739 68 1 84
-0.502161 -0.556704 -0.047132 68 1 84
0.191433 0.216337 -0.225650 44 113 142
0.628855 -0.221232 0.133029 68 1 84
-0.461625 -0.486593 -0.131260 68 1 84
-0.016140 0.432153 -0.231564 71 44 123
-0.517614 -0.005156 -0.014103 71 18 101
-0.646443 -0.586697 0.487746 59 186 117
0.635621 -0.060041 0.415658 71 24 106
0.117620 0.132818 -0.260892 56 185 118
0.222987 0.532143 -0.086105 68 1 84
0.518457 0.306642 0.513948 68 1 84
0.420185 0.479913 0.296393 68 1 84
0.136069 0.381003 -0.198655 68 1 84
0.645067 -0.189464 0.200895 68 1 84
-0.568419 -0.553959 0.158463 68 1 84
0.565269 0.111833 0.148838 68 1 84
0.511958 -0.348851 -0.056369 68 1 84
-0.135586 -0.264736 -0.161458 68 1 84
-0.495770 0.306578 0.093522 68 1 84
-0.579860 0.201334 0.400742 52 95 141
-0.471863 0.271834 0.026503 68 1 84
0.464458 -0.025443 -0.107441 68 1 84
-0.371731 0.337106 -0.082532 68 1 84
0.574608 0.202195 0.382422 68 1 84
0.572814 0.103819 0.180920 68 1 84
0.184043 -0.280521 -0.155765 71 40 120
-0.119984 0.520179 -0.228220 55 89 140
-0.066689 0.593079 -0.206430 68 1 84
0.144889 0.478990 -0.169031 68 1 84
0.164338 -0.233203 -0.186207 68 57 130
-0.444062 0.466902 0.203187 68 1 84
0.579162 0.051401 0.126387 68 1 84
-0.610298 -0.320132 0.216306 68 57 130
0.379691 -0.127904 -0.147555 70 14 97
-0.549059 0.267285 0.478598 61 76 137
-0.432801 0.008654 -0.106805 68 1 84
0.543051 0.286420 0.428228 68 1 84
-0.272745 -0.045860 -0.193908 32 143 140
-0.332051 0.109446 -0.173515 52 94 141
-0.191816 0.609329 -0.100093 68 1 84
-0.461315 0.444865 0.212684 68 1 84
0.228445 -0.151837 -0.190145 71 38 118
-0.627054 -0.179465 0.402764 41 120 142
0.023970 0.343811 -0.288597 31 161 135
0.130958 -0.250865 -0.213250 68 55 129
-0.216206 0.060619 -0.208229 30 151 138
-0.181318 0.271353 -0.214545 44 114 142
0.164807 0.558014 -0.135768 68 1 84
0.136608 -0.251656 -0.204794 70 47 124
0.604800 -0.398747 0.069750 68 1 84
0.618743 -0.029975 0.271914 68 1 84
0.025334 -0.408020 -0.283575 68 1 84
-0.536019 0.271794 0.173141 68 1 84
0.128563 -0.052862 -0.307511 43 115 142
-0.586980 -0.099052 0.135732 70 9 92
0.555497 -0.380906 -0.034253 68 1 84
0.030595 0.331580 -0.292780 30 155 137
0.485699 0.371759 0.188454 68 1 84
-0.535199 0.315385 0.436598 70 9 92
-0.566438 -0.039350 0.082215 68 1 84
-0.051979 -0.003288 -0.439749 62 188 115
-0.494850 0.396032 0.263983 68 1 84
0.594767 -0.395331 0.046588 68 1 84
-0.055600 0.150659 -0.312729 253 231 36
-0.385742 0.288560 -0.086450 68 1 84
-0.491317 0.401988 0.293092 68 1 84
-0.129070 0.066182 -0.241341 32 144 140
0.140408 -0.247832 -0.201762 70 45 124
-0.331036 0.246407 -0.155674 61 76 137
-0.024900 0.625663 -0.165093 68 1 84
-0.597075 -0.232009 0.162955 72 29 111
0.689268 -0.374698 0.347407 70 49 126
-0.248333 -0.479228 -0.221760 68 1 84
-0.282983 0.270569 -0.164930 69 54 129
0.502935 0.365913 0.266287 68 1 84
0.333582 0.559118 0.214255 68 1 84
0.138157 0.269702 -0.228102 67 58 131
-0.596768 0.013769 0.490152 31 149 139
-0.559583 0.147937 0.167329 70 9 92
0.541363 0.295987 0.350307 68 1 84
-0.489824 -0.498301 -0.090725 68 1 84
0.507925 -0.296346 -0.028327 68 1 84
0.289484 -0.019253 -0.194534 68 1 84
0.445003 0.355702 0.073552 68 1 84
0.072049 0.618964 -0.157913 68 1 84
0.676156 -0.279759 0.297011 68 1 84
-0.627752 -0.185077 0.378463 44 113 142
-0.472525 0.228350 0.004849 68 1 84
0.537487 0.083089 0.033784 68 1 84
-0.600876 -0.036346 0.531770 33 166 133
-0.150043 -0.147090 -0.226977 37 131 141
-0.347834 0.469001 -0.040149 68 1 84
0.591789 -0.428642 0.026209 68 1 84
0.257570 -0.385614 -0.193127 68 1 84
0.578456 0.047563 0.117683 68 1 84
-0.133212 0.303947 -0.270460 48 180 122
-0.574838 0.220982 0.401157 58 83 139
0.550841 -0.164444 -0.025463 68 1 84
-0.278010 -0.426169 -0.229703 68 1 84
0.442440 0.453768 0.230170 68 1 84
0.039628 0.074613 -0.318346 43 177 125
-0.561493 -0.231180 0.058728 68 1 84
-0.250135 0.584255 -0.053913 68 1 84
-0.186478 -0.024857 -0.221363 31 148 139
0.672634 -0.244178 0.355375 70 12 95
0.464156 0.020919 -0.095754 68 1 84
-0.625107 -0.332419 0.297089 64 68 135
-0.006309 0.377386 -0.234701 58 83 139
-0.342857 0.087628 -0.167624 47 105 141
-0.070840 0.631171 -0.146474 68 1 84
0.376815 0.024250 -0.153891 68 1 84
-0.442327 0.014539 -0.097587 68 1 84
-0.567746 -0.517076 0.147374 68 1 84
0.248429 0.111929 -0.201692 71 20 102
-0.571834 -0.339575 0.113826 68 1 84
0.552979 -0.170810 -0.020734 68 1 84
-0.144462 0.503645 -0.216492 55 88 140
-0.534929 -0.551474 0.054756 68 1 84
-0.614567 -0.087255 0.475044 37 131 141
-0.510744 -0.025513 -0.030653 68 1 84
-0.046658 0.066850 -0.319013 126 210 78
-0.413014 0.046032 -0.118950 72 35 116
0.444477 0.451976 0.237300 68 1 84
-0.139895 -0.324814 -0.133578 68 2 85
-0.109838 0.470461 -0.227557 45 110 142
-0.572892 0.188989 0.256675 72 28 110
-0.078439 -0.379204 -0.186070 68 1 84
-0.233822 0.516964 -0.144601 71 37 117
0.129007 0.371917 -0.210279 68 1 84
-0.370367 -0.079522 -0.148548 72 29 111
-0.008769 0.621515 -0.175066 68 1 84
0.343452 0.477725 0.018301 68 1 84
-0.575379 -0.211383 0.085384 68 1 84
-0.360693 0.515436 0.032456 68 1 84
-0.577863 -0.135557 0.088667 68 1 84
0.358545 0.435029 0.003538 68 1 84
-0.461641 0.236114 -0.009319 68 1 84
0.668768 -0.180896 0.459608 48 103 141
0.157508 0.486787 -0.159182 68 1 84
0.521649 -0.502338 -0.139028 68 1 84
0.685782 -0.488888 0.329486 66 64 133
0.452171 0.427570 0.440380 68 1 84
-0.319089 -0.144708 -0.152323 47 105 141
-0.525782 0.319281 0.476643 69 8 91
-0.446813 -0.562582 -0.152274 68 1 84
0.591849 0.042907 0.198208 68 1 84
0.540649 -0.475605 -0.111913 68 1 84
0.654161 -0.134081 0.359778 71 24 106
-0.514034 0.355039 0.222071 68 1 84
0.262826 0.598742 0.112246 68 1 84
0.112353 0.632254 -0.092160 68 1 84
-0.258572 -0.572939 -0.266448 71 42 121
0.055424 -0.145132 -0.369709 35 135 141
-0.103962 0.331230 -0.283432 42 176 126
-0.387968 0.477533 0.030422 68 1 84
0.358480 0.352369 -0.055115 68 1 84
-0.556261 0.192671 0.181451 72 32 113
-0.090440 -0.268908 -0.190490 68 1 84
-0.265820 -0.000936 -0.199651 36 132 141
-0.637088 -0.538538 0.379360 33 142 140
0.495025 0.333143 0.159921 68 1 84
0.584753 0.070215 0.202989 68 1 84
-0.386615 0.509448 0.088301 68 1 84
-0.491959 0.370692 0.149696 68 1 84
-0.526019 0.053810 0.022837 68 1 84
0.497916 0.009095 -0.067733 68 1 84
0.588852 -0.038142 0.064486 68 1 84
0.534191 0.129567 0.063332 68 1 84
-0.075785 0.182315 -0.316543 194 223 34
-0.254253 -0.465309 -0.218582 68 1 84
-0.219622 -0.514705 -0.262306 68 1 84
0.622673 -0.006775 0.433806 68 1 84
-0.548342 0.124740 0.110263 68 1 84
0.552958 -0.083360 -0.027295 68 1 84
0.697877 -0.492925 0.392089 56 86 139
-0.396858 0.154242 -0.120895 71 17 99
-0.640660 -0.338047 0.403759 31 146 140
-0.240298 0.590692 -0.056177 68 1 84
-0.471349 0.180848 -0.020215 68 1 84
-0.618763 -0.134696 0.384764 54 90 140
0.393786 -0.113765 -0.145893 71 37 117
-0.223782 0.460729 -0.161022 68 55 129
-0.300045 0.342957 -0.132820 70 12 95
0.535012 0.234893 0.179173 68 1 84
0.200896 -0.107967 -0.220373 59 81 138
-0.432189 -0.379501 -0.073699 68 1 84
0.239002 -0.358471 -0.174806 68 1 84
0.590852 0.029147 0.156667 68 1 84
0.254631 -0.505234 -0.271559 68 1 84
0.096492 0.105792 -0.269109 31 161 135
-0.237312 0.527730 -0.137417 72 25 107
0.716382 -0.337082 0.488149 33 141 140
-0.120416 -0.061374 -0.335723 47 179 123
0.252958 0.096365 -0.201228 72 30 112
0.354637 0.529108 0.118202 68 1 84
-0.602836 -0.012708 0.392802 40 122 142
-0.571919 0.035820 0.147430 68 1 84
0.118695 -0.457788 -0.288497 68 1 84
0.538743 0.222870 0.178544 68 1 84
-0.488950 0.232497 0.036186 68 1 84
0.202612 -0.066774 -0.227213 60 77 138
0.088151 -0.144223 -0.333227 46 108 142
-0.560426 0.223103 0.499306 56 87 140
-0.131349 0.007466 -0.338119 66 190 113
-0.492023 0.174906 0.012204 68 1 84
0.318763 -0.263327 -0.170081 68 1 84
-0.095699 0.169407 -0.305776 223 227 24
0.047308 -0.486583 -0.300599 72 34 115
-0.021584 -0.464041 -0.292606 70 12 95
0.501298 -0.506557 -0.162991 68 1 84
-0.291354 -0.234743 -0.144712 70 47 124
-0.111389 0.368377 -0.243408 51 97 141
0.192025 -0.149563 -0.212243 49 100 141
-0.175708 0.620243 -0.091770 68 1 84
0.560676 0.095657 0.106358 68 1 84
0.469270 0.398993 0.179742 68 1 84
0.640176 -0.322982 0.165777 68 1 84
0.111631 0.474696 -0.194029 68 1 84
-0.220319 0.015053 -0.210258 32 144 140
0.599506 0.077223 0.343818 68 1 84
0.034126 0.317581 -0.291419 46 178 124
-0.449661 0.206589 -0.041388 68 1 84
-0.601982 -0.039792 0.547384 43 177 125
0.281388 -0.352017 -0.177826 68 1 84
-0.638793 -0.286521 0.515925 40 174 127
0.544379 0.175922 0.147385 68 1 84
0.417269 0.063937 -0.118035 68 1 84
0.527607 0.172608 0.087810 68 1 84
-0.057227 -0.265402 -0.249133 68 55 129
-0.553478 0.271132 0.259947 68 1 84
-0.113004 0.537662 -0.228707 57 85 139
-0.126701 0.253898 -0.251960 30 158 136
0.509575 0.204796 0.075026 68 1 84
0.101794 -0.304832 -0.234294 69 53 128
-0.241400 -0.268546 -0.161338 68 1 84
-0.176353 -0.310112 -0.149189 68 1 84
0.672067 -0.214057 0.429819 53 93 140
-0.535348 -0.288473 0.040621 68 1 84
0.443358 0.310741 0.034524 68 1 84
-0.092971 -0.447912 -0.252259 68 1 84
0.526154 0.160033 0.072856 68 1 84
-0.062604 -0.093597 -0.397154 44 177 125
0.216559 0.092391 -0.209693 63 71 136
-0.628356 -0.176840 0.452820 38 128 142
0.418750 0.133808 -0.096173 68 1 84
-0.546595 -0.098137 0.012017 68 1 84
-0.459793 0.199264 -0.029819 68 1 84
0.481613 0.279046 0.079219 68 1 84
-0.039561 0.316830 -0.293796 83 197 103
-0.446693 -0.011564 -0.098057 68 1 84
-0.377628 0.324311 -0.082165 68 1 84
-0.298082 -0.539241 -0.245887 68 1 84
-0.370128 0.518325 0.062930 68 1 84
0.400995 0.221239 -0.080104 68 1 84
-0.564793 0.034257 0.115037 68 1 84
0.203627 -0.245119 -0.165600 68 57 130
0.615469 -0.051376 0.180047 68 1 84
-0.580855 -0.381900 0.145282 68 1 84
0.567669 -0.108577 -0.007335 68 1 84
0.044039 -0.463248 -0.300389 72 30 112
0.078175 -0.252783 -0.293440 45 111 142
-0.556057 0.118410 0.136097 68 1 84
-0.028085 0.369088 -0.246061 57 84 139
-0.239641 0.395767 -0.159476 67 59 131
0.120882 -0.263017 -0.221124 57 84 139
0.659571 -0.278623 0.239200 68 1 84
0.642583 -0.155478 0.215427 68 1 84
0.012375 -0.222969 -0.341706 30 157 136
0.562870 0.103721 0.126467 68 1 84
-0.362654 -0.447738 -0.173121 68 1 84
0.276592 0.456481 -0.068029 68 1 84
-0.566031 -0.251865 0.075828 68 1 84
0.532063 0.210157 0.141514 68 1 84
0.122641 -0.301267 -0.200303 60 77 138
-0.508576 0.362135 0.207669 68 1 84
-0.432876 0.283043 -0.029805 68 1 84
0.400358 -0.490342 -0.217905 68 1 84
-0.575615 0.223102 0.343941 66 61 132
0.476631 -0.257681 -0.062229 68 1 84
0.228685 0.593112 -0.008384 68 1 84
0.141118 0.312504 -0.228231 70 14 97
-0.395441 0.320470 -0.063544 68 1 84
-0.358006 0.252582 -0.130307 69 53 128
-0.548062 0.040489 0.065178 68 1 84
0.065099 -0.277737 -0.293300 58 82 139
-0.645669 -0.473271 0.414261 37 131 141
-0.631919 -0.250211 0.340442 53 93 140
-0.184848 0.169741 -0.239950 170 219 50
0.506111 0.306610 0.161868 68 1 84
-0.492110 0.122879 -0.009404 68 1 84
0.330199 0.427906 -0.036567 68 1 84
0.626653 -0.018753 0.464964 68 1 84
0.343542 -0.454662 -0.214511 68 1 84
0.285695 0.588922 0.162117 68 1 84
0.604991 0.074101 0.457257 68 1 84
0.619852 0.006429 0.473124 68 1 84
-0.622043 -0.419118 0.298099 64 68 135
0.544770 0.254408 0.503863 68 1 84
0.532609 0.102768 0.038298 68 1 84
0.326266 0.540413 0.071140 68 1 84
0.659453 -0.159545 0.326383 68 1 84
0.639198 -0.456836 0.172216 68 1 84
0.601437 0.067917 0.503743 68 3 87
-0.019182 0.189228 -0.326982 173 220 48
-0.593147 -0.508868 0.225656 69 6 90
-0.632914 -0.242486 0.509735 33 166 133
-0.138234 -0.458691 -0.238198 68 1 84
-0.062450 0.177033 -0.319964 210 225 27
-0.511091 -0.496697 -0.038070 68 1 84
-0.584188 0.182239 0.400509 54 91 140
0.304678 -0.224867 -0.161077 68 1 84
-0.430874 0.182038 -0.077323 68 1 84
0.705210 -0.390042 0.403056 67 59 131
0.033275 0.016021 -0.447408 98 202 95
-0.537395 -0.266427 0.034768 68 1 84
-0.435521 0.261999 -0.035339 68 1 84
-0.250245 -0.013129 -0.204103 33 140 141
0.357799 0.540362 0.201113 68 1 84
-0.141432 -0.037572 -0.311254 85 198 102
0.596757 -0.480330 0.028799 68 1 84
0.174208 0.176514 -0.234026 45 111 142
0.298583 0.578770 0.139176 68 1 84
-0.116536 -0.080495 -0.318938 62 188 115
-0.610161 -0.395011 0.247051 69 50 127
-0.348082 0.043372 -0.164653 53 92 140
-0.066102 0.013816 -0.361136 54 184 119
-0.070391 0.221487 -0.292225 81 196 104
0.687791 -0.459035 0.340218 69 50 127
0.172638 0.448607 -0.150869 68 1 84
0.660438 -0.120096 0.464816 70 47 124
0.640302 -0.179314 0.184021 68 1 84
-0.432714 0.435572 0.073220 68 1 84
0.269992 0.516291 -0.045549 68 1 84
0.195173 0.169718 -0.224636 45 111 142
0.295569 -0.540670 -0.270864 69 5 88
0.596276 0.067331 0.290791 68 1 84
-0.321269 -0.586938 -0.241792 67 58 131
-0.538346 -0.548706 0.064754 68 1 84
-0.132543 0.487499 -0.221225 50 98 141
-0.492339 0.092441 -0.019204 68 1 84
0.322831 0.514182 0.023689 68 1 84
-0.403859 0.464037 0.045829 68 1 84
0.661906 -0.182021 0.299388 72 25 107
0.652621 -0.255442 0.210957 68 1 84
-0.534946 0.267172 0.163219 68 1 84
-0.394023 0.149376 -0.124473 71 38 118
0.351330 0.457743 0.011582 68 1 84
0.154787 -0.232127 -0.195838 67 58 131
-0.041040 -0.216292 -0.319338 38 127 142
-0.375634 -0.192350 -0.123054 71 42 121
0.054483 0.377757 -0.240497 71 40 120
-0.077319 0.066108 -0.289347 62 188 115
0.348440 -0.086335 -0.163104 68 1 84
-0.138272 0.041790 -0.262167 36 170 130
-0.072687 0.287620 -0.286450 107 205 89
-0.406234 0.507483 0.219608 68 1 84
0.359586 0.117261 -0.147536 68 1 84
0.446166 0.320896 0.047477 68 1 84
-0.581241 -0.153200 0.098800 68 1 84
0.643724 -0.071549 0.497285 71 44 123
-0.641943 -0.306640 0.509543 38 172 129
-0.225533 0.603741 -0.039795 68 1 84
-0.332821 0.195647 -0.165360 62 72 136
-0.621751 -0.302191 0.285436 57 85 139
0.591440 0.059749 0.236929 68 1 84
-0.471098 -0.323231 -0.014785 68 1 84
0.407925 -0.560157 -0.230313 68 1 84
-0.041718 0.028154 -0.343888 54 184 119
0.239846 0.611049 0.109267 68 1 84
-0.604049 -0.499893 0.254825 72 33 114
0.566804 0.185282 0.503643 68 1 84
-0.418743 0.494604 0.184998 68 1 84
-0.584318 -0.049034 0.153478 70 11 94
0.079418 0.310821 -0.274670 55 89 140
0.186483 0.115340 -0.221185 48 103 141
0.126035 -0.155274 -0.274717 61 75 137
-0.405545 -0.488653 -0.178754 68 1 84
0.110365 0.414227 -0.196947 70 9 92
0.370773 -0.552865 -0.247871 68 1 84
0.482572 0.368441 0.171183 68 1 84
-0.078451 -0.349931 -0.167942 68 1 84
0.047509 -0.134017 -0.384119 37 131 141
0.572163 -0.155545 0.003500 68 1 84
0.444754 -0.204445 -0.099951 68 1 84
0.031547 -0.455358 -0.297589 70 14 97
-0.055182 -0.442389 -0.268684 72 25 107
0.572532 0.180125 0.486030 68 1 84
0.442094 0.455215 0.239251 68 1 84
0.302723 -0.073015 -0.182777 71 15 98
-0.272115 -0.160089 -0.161341 42 117 142
-0.487020 0.043997 -0.042017 68 1 84
0.618667 -0.418720 0.104073 68 1 84
-0.631283 -0.209278 0.397019 45 111 142
-0.644752 -0.322921 0.518976 35 168 131
0.661586 -0.161554 0.431250 60 78 138
0.569876 0.122752 0.196249 68 1 84
0.072928 0.029011 -0.323202 30 158 136
-0.129478 -0.170734 -0.232075 47 106 141
-0.631499 -0.220147 0.491870 30 155 137
0.538006 0.303984 0.373156 68 1 84
-0.094112 0.103030 -0.278933 205 224 29
-0.433454 -0.127245 -0.114569 71 43 122
-0.224656 -0.269350 -0.161738 71 15 98
0.528007 -0.053414 -0.053887 68 1 84
0.569352 0.100606 0.151989 68 1 84
0.386002 -0.251717 -0.142447 68 1 84
0.629989 -0.225548 0.136577 68 1 84
-0.185853 0.057943 -0.214215 30 155 137
-0.305110 0.493670 -0.077190 68 1 84
-0.472569 0.426669 0.309104 68 1 84
-0.594689 0.068147 0.349027 43 116 142
-0.087506 0.471445 -0.235249 47 105 141
-0.332481 -0.452765 -0.198375 68 1 84
-0.577211 -0.146571 0.085371 68 1 84
0.433913 0.321468 0.027485 68 1 84
0.154604 0.242500 -0.246237 48 104 141
-0.529631 0.329351 0.250710 68 1 84
-0.025722 0.180965 -0.326060 167 219 51
0.081338 -0.146291 -0.342027 47 106 141
0.652210 -0.113664 0.429116 71 24 106
0.617789 0.007917 0.545918 72 32 113
-0.512884 -0.354058 0.023123 68 1 84
0.193158 -0.264853 -0.162786 71 42 121
-0.609281 -0.063210 0.469309 46 109 142
-0.107961 0.473449 -0.229043 47 106 141
-0.517543 -0.002500 -0.013327 70 12 95
-0.562855 0.060269 0.123796 68 1 84
-0.338053 0.300534 -0.127697 71 24 106
-0.550316 0.244191 0.203132 68 1 84
0.543980 0.166888 0.134403 68 1 84
-0.405251 -0.507292 -0.186497 68 1 84
-0.062357 -0.123209 -0.371110 30 158 136
-0.122850 0.628026 -0.137761 68 1 84
-0.364112 0.128032 -0.152317 57 85 139
-0.217050 -0.365438 -0.168097 68 1 84
-0.151463 -0.504453 -0.271608 68 1 84
-0.091833 -0.067877 -0.379852 71 192 110
0.068840 -0.102156 -0.393755 32 144 140
0.434247 -0.139912 -0.125211 68 1 84
-0.563344 0.207657 0.505689 46 107 142
0.455049 0.180566 -0.036881 68 1 84
0.579897 0.070769 0.165441 68 1 84
0.569073 0.184606 0.495094 68 1 84
0.282879 0.327892 -0.131285 68 1 84
0.171209 0.482857 -0.147709 68 1 84
0.627704 -0.044382 0.354623 68 1 84
0.235130 -0.199553 -0.169190 72 35 116
-0.593547 0.112186 0.379094 50 98 141
-0.545289 0.205311 0.149254 70 11 94
-0.312438 0.113611 -0.183612 40 122 142
-0.232840 -0.114264 -0.192905 31 149 139
-0.452227 0.455782 0.260497 68 1 84
-0.101945 0.009819 -0.360379 146 215 65
0.575440 -0.403136 -0.008156 68 1 84
-0.005353 0.091335 -0.324045 50 181 122
0.383445 -0.499226 -0.229056 68 1 84
-0.017575 0.119357 -0.311011 167 219 51
-0.128589 -0.062817 -0.312895 94 201 97
0.338340 -0.324690 -0.164631 68 1 84
0.121605 0.443218 -0.186361 69 5 88
0.643046 -0.071762 0.484238 71 42 121
0.150800 0.015587 -0.315303 54 90 140
0.303283 -0.032065 -0.188279 70 12 95
-0.314226 -0.465962 -0.209489 68 1 84
-0.288739 0.168583 -0.192969 43 116 142
-0.272013 0.562814 -0.059227 68 1 84
0.514051 0.125229 0.019040 68 1 84
0.617905 -0.029635 0.262344 68 1 84
-0.230176 -0.487581 -0.230455 68 1 84
0.686721 -0.479629 0.336128 66 61 132
-0.308999 -0.395163 -0.186046 68 1 84
-0.609299 -0.084853 0.425559 48 104 141
-0.336306 0.257855 -0.147725 69 52 127
-0.400210 0.274640 -0.074632 68 1 84
0.266679 0.377485 -0.114096 68 1 84
-0.073054 -0.008707 -0.417133 112 206 86
0.488939 -0.538026 -0.172771 68 1 84
0.268429 0.050941 -0.200582 70 11 94
-0.633889 -0.231917 0.437780 35 135 141
-0.164347 0.053671 -0.219792 36 133 141
0.176415 0.531411 -0.134352 68 1 84
-0.317156 -0.263190 -0.141438 70 49 126
0.132497 0.019261 -0.348425 45 110 142
-0.403259 -0.365163 -0.085419 68 1 84
0.151294 0.512445 -0.161969 68 1 84
0.165142 0.260200 -0.228200 70 49 126
-0.293044 -0.130072 -0.165136 49 100 141
-0.334348 -0.357962 -0.141400 68 1 84
0.092008 -0.198195 -0.303687 57 85 139
-0.321201 -0.243860 -0.135339 52 95 141
-0.350830 0.293673 -0.120500 69 6 90
-0.003211 -0.275974 -0.307124 49 100 141
-0.256781 -0.127729 -0.178524 44 114 142
0.515075 0.299644 0.184195 68 1 84
0.475719 -0.379100 -0.120013 68 1 84
-0.403705 0.461656 0.042534 68 1 84
0.356080 -0.468593 -0.217375 68 1 84
-0.017178 0.006652 -0.458408 89 199 100
-0.528094 0.318305 0.466402 68 1 84
0.549208 -0.313996 0.007102 68 1 84
0.704569 -0.304611 0.457673 51 97 141
-0.575226 -0.442863 0.147454 68 1 84
-0.625381 -0.254773 0.293951 65 65 134
0.600886 0.078683 0.370231 68 1 84
0.176884 0.206574 -0.234418 56 87 140
-0.597255 0.075028 0.418749 48 103 141
-0.309189 0.205994 -0.178652 44 113 142
0.397267 -0.214244 -0.126383 70 9 92
-0.592107 0.036120 0.292905 57 84 139
-0.605438 -0.137644 0.251139 65 66 134
-0.566402 -0.345653 0.103604 68 1 84
-0.107351 0.433539 -0.217567 59 81 138
-0.400691 0.501103 0.112478 68 1 84
0.022631 0.565797 -0.225401 72 26 108
0.252374 0.252536 -0.188624 68 1 84
0.617377 -0.258530 0.107717 68 1 84
0.181773 0.627201 0.018786 68 1 84
-0.534514 0.297082 0.486890 68 1 84
-0.536924 0.242092 0.149759 68 1 84
0.292146 -0.448776 -0.212646 68 1 84
-0.354390 0.207402 -0.146880 65 66 134
0.381218 0.132550 -0.128502 68 1 84
0.566591 0.131041 0.188979 68 1 84
-0.568776 0.098111 0.181813 70 12 95
-0.189384 0.122064 -0.226372 56 185 118
-0.567331 -0.453194 0.128377 68 1 84
-0.444871 -0.121255 -0.107546 71 44 123
-0.529071 0.222202 0.113099 70 11 94
-0.439825 -0.467675 -0.143183 68 1 84
