ply
format ascii 1.0
element vertex 1274
property float x
property float y
property float z
property uchar red
property uchar green
property uchar blue
end_header
0.529464 -0.127234 -0.055711 68 1 84
0.326433 0.218279 -0.125412 71 40 120
0.626849 -0.130746 0.301420 68 1 84
0.132302 -0.244121 -0.206314 48 103 141
-0.518290 0.289754 0.296243 68 1 84
-0.080435 0.333260 -0.228721 68 1 84
-0.203210 0.342049 -0.134480 71 38 118
-0.506064 0.079479 0.010634 68 1 84
0.518950 0.293787 0.327226 68 1 84
0.058887 0.072065 -0.444924 68 1 84
0.467416 0.289126 0.089036 68 1 84
0.524065 0.239041 0.185182 68 1 84
0.546117 -0.025188 0.015267 68 1 84
0.659429 -0.404625 0.397262 72 35 116
-0.462441 0.203026 0.010803 68 1 84
-0.436561 -0.269264 -0.094843 58 82 139
0.438899 0.051963 -0.100228 68 1 84
0.604832 -0.075903 0.208389 68 1 84
-0.542013 0.108328 0.478396 68 1 84
0.601731 -0.058225 0.228666 68 1 84
0.620607 -0.574125 0.241389 77 194 107
-0.551609 -0.002789 0.050682 68 1 84
-0.399049 0.314008 0.000110 72 25 107
0.229483 0.481870 -0.107217 63 71 136
0.098577 0.574445 -0.152471 71 21 103
-0.097276 -0.035012 -0.315460 68 1 84
0.209341 -0.448339 -0.263708 52 95 141
-0.535379 0.097075 0.091820 68 1 84
0.229419 0.465789 -0.108622 58 83 139
-0.260644 -0.351039 -0.196283 56 86 139
0.016773 -0.387119 -0.309475 68 1 84
-0.508206 0.207205 0.096521 68 1 84
-0.141347 -0.136873 -0.229627 68 1 84
0.624318 -0.184902 0.437723 68 1 84
-0.258934 0.031302 -0.210262 68 1 84
-0.306670 -0.344096 -0.189856 46 108 142
-0.318572 -0.471485 -0.267003 41 121 142
0.327747 -0.067297 -0.186454 68 1 84
0.120860 0.057397 -0.345127 68 1 84
0.566252 -0.007047 0.511940 68 1 84
-0.351656 0.207141 -0.105766 68 1 84
-0.008401 0.506311 -0.207103 56 86 139
-0.052868 0.162952 -0.273458 68 1 84
0.554953 0.046626 0.513554 68 1 84
0.365420 0.488496 0.174851 66 62 133
0.562458 -0.314163 0.047509 56 87 140
0.504788 0.311523 0.382166 68 1 84
-0.640164 -0.152194 0.368310 57 84 139
0.164340 0.184232 -0.232368 71 15 98
0.197896 0.587070 -0.040283 66 61 132
-0.510017 0.171907 0.077183 68 1 84
-0.048585 0.361989 -0.209369 68 1 84
-0.505906 0.125365 0.040637 68 1 84
-0.572502 0.084264 0.218136 70 11 94
-0.586274 -0.270295 0.054128 32 143 140
-0.535284 -0.357019 -0.017043 32 165 133
0.028900 0.155884 -0.290860 68 1 84
-0.517336 0.245809 0.421573 68 1 84
-0.476296 -0.301142 -0.063286 38 128 142
0.594780 -0.036134 0.436915 68 1 84
0.489351 -0.392714 -0.062073 30 153 138
0.592565 0.004383 0.288748 68 1 84
-0.222875 -0.205873 -0.200663 70 11 94
0.507049 0.161770 0.066973 68 1 84
-0.380102 -0.208522 -0.149734 70 47 124
-0.623639 -0.083148 0.307406 70 48 125
0.168762 0.592117 -0.068737 64 68 135
0.108617 -0.065647 -0.317459 68 1 84
0.537482 0.223801 0.229372 68 1 84
0.550419 -0.000415 0.048588 68 1 84
0.108615 -0.183439 -0.275663 68 1 84
-0.207593 -0.255544 -0.208357 68 1 84
-0.333462 -0.195106 -0.174903 71 40 120
-0.121554 -0.257411 -0.209884 60 77 138
-0.326033 0.148006 -0.149625 68 1 84
0.644551 -0.267125 0.505686 68 1 84
-0.578467 0.082377 0.304229 68 1 84
0.367955 -0.240712 -0.148331 69 8 91
0.245581 -0.261068 -0.188059 69 50 127
0.585643 0.043316 0.349595 68 1 84
-0.560560 -0.087286 0.013441 58 83 139
-0.337038 0.505662 0.215864 68 1 84
0.619251 -0.201721 0.480219 68 1 84
0.098395 0.088536 -0.274369 68 1 84
0.637810 -0.197245 0.315022 68 1 84
0.278373 -0.226302 -0.176839 68 1 84
0.256853 -0.252443 -0.184695 70 11 94
-0.531172 -0.199604 -0.031819 50 98 141
0.603674 -0.105559 0.136709 68 1 84
-0.510491 0.288549 0.364784 68 1 84
0.136736 0.124807 -0.235730 68 1 84
0.570039 -0.169026 0.012415 68 1 84
0.538053 -0.511195 0.016004 85 198 102
-0.390986 0.314680 -0.008394 68 3 87
-0.489969 0.263305 0.102266 68 1 84
0.564709 0.004088 0.509429 68 1 84
-0.506863 0.129608 0.045153 68 1 84
-0.478375 0.338259 0.380200 68 1 84
-0.450961 -0.324559 -0.095296 40 122 142
-0.575301 -0.112892 0.035708 71 37 117
-0.651395 -0.195823 0.292396 57 85 139
0.435863 -0.216935 -0.116056 72 28 110
0.003932 0.075173 -0.463893 68 1 84
-0.663037 -0.275556 0.275773 42 117 142
-0.668146 -0.278882 0.421528 50 99 141
-0.471218 0.344210 0.149054 68 1 84
-0.390673 0.292428 -0.022869 69 8 91
0.337088 -0.008641 -0.182613 68 1 84
-0.120195 0.046753 -0.314394 68 1 84
-0.558841 -0.004097 0.075129 68 1 84
-0.370655 0.290262 -0.045888 71 21 103
-0.557554 0.087328 0.156026 68 1 84
-0.343309 0.500668 0.178760 68 1 84
-0.632243 -0.127770 0.397620 69 50 127
0.033452 -0.400881 -0.310022 68 1 84
-0.656790 -0.230774 0.432062 59 81 138
0.581462 0.071592 0.321668 68 1 84
-0.296533 0.533547 0.143556 68 1 84
-0.214391 -0.390189 -0.253973 42 119 142
-0.266165 0.145789 -0.178589 68 1 84
0.258099 0.214467 -0.162600 68 1 84
0.504811 0.190662 0.082116 68 1 84
-0.290686 -0.186560 -0.189380 68 1 84
-0.119841 -0.260691 -0.209445 63 69 135
-0.525692 0.247451 0.186243 68 1 84
-0.177472 0.582300 -0.013855 68 1 84
0.613020 -0.521736 0.210559 87 198 101
-0.596027 -0.515637 0.082752 109 206 88
-0.678333 -0.317613 0.388631 49 101 141
0.513589 0.261371 0.459343 68 1 84
-0.411211 0.062896 -0.123551 68 1 84
-0.415609 -0.385559 -0.194070 33 142 140
0.347252 -0.059074 -0.180846 68 1 84
-0.090322 0.564191 -0.153120 58 83 139
-0.669183 -0.384139 0.265261 33 142 140
-0.065850 -0.088709 -0.341919 68 1 84
0.249859 0.179961 -0.179107 68 1 84
-0.642315 -0.164426 0.383730 62 73 137
-0.116606 0.062691 -0.235369 68 1 84
-0.486935 -0.074937 -0.089315 68 2 85
0.005678 0.224725 -0.292073 68 1 84
0.463252 0.221942 0.029847 68 1 84
-0.028053 0.347922 -0.238182 68 1 84
0.092767 -0.433088 -0.303299 69 6 90
0.138294 -0.464480 -0.303212 51 96 141
0.154159 -0.381309 -0.217510 45 111 142
-0.681607 -0.356646 0.337047 45 111 142
0.225819 0.467058 -0.112375 59 81 138
0.631911 -0.277146 0.220745 68 1 84
-0.024224 0.585308 -0.151652 71 38 118
0.322230 -0.238117 -0.169167 68 1 84
0.248635 0.534575 -0.055597 58 82 139
-0.231905 -0.023426 -0.217015 68 1 84
0.242883 0.183033 -0.182007 68 1 84
-0.405490 0.375437 0.055777 68 1 84
0.581695 -0.072473 0.510608 68 1 84
0.226095 0.577901 0.003313 71 44 123
-0.656936 -0.219897 0.306797 59 81 138
0.605390 -0.087226 0.185671 68 1 84
-0.403171 -0.457060 -0.218199 34 167 132
0.335394 -0.389283 -0.203856 71 20 102
0.582880 -0.473939 0.122014 43 177 125
-0.617483 -0.549033 0.121885 218 226 24
-0.638193 -0.143045 0.221393 58 82 139
-0.679360 -0.321958 0.385677 46 107 142
-0.423482 -0.236441 -0.113245 62 73 137
-0.396148 0.148006 -0.096182 68 1 84
-0.196484 -0.427782 -0.272222 62 72 136
-0.087369 -0.121026 -0.293659 68 1 84
-0.508066 -0.126756 -0.070399 71 40 120
0.206469 -0.030508 -0.212285 68 1 84
0.473014 0.370562 0.305132 68 1 84
0.191306 0.305718 -0.171977 71 15 98
-0.238649 0.509019 -0.043342 68 2 85
0.555630 0.092764 0.155818 68 1 84
0.349932 0.141853 -0.133905 68 1 84
-0.257917 0.518676 0.003500 71 17 99
-0.582587 -0.038013 0.123279 68 1 84
0.638241 -0.504736 0.307606 52 94 141
-0.532778 0.255692 0.283339 68 1 84
0.548081 -0.505564 0.040241 73 193 109
0.574451 -0.052500 0.544902 68 1 84
-0.197714 -0.217962 -0.203258 68 1 84
-0.523989 -0.292004 -0.022783 36 134 141
0.422583 0.433136 0.250391 69 6 90
0.475139 -0.272574 -0.063800 66 61 132
-0.617752 -0.179097 0.122539 57 84 139
0.059470 0.489147 -0.209548 71 18 101
0.521846 0.227969 0.162980 68 1 84
0.557831 -0.083132 0.002653 68 1 84
0.048215 0.053060 -0.461923 68 1 84
-0.541941 0.207013 0.374425 68 1 84
-0.115858 0.588922 -0.101234 71 38 118
0.575757 -0.047854 0.079602 68 1 84
-0.500548 0.164364 0.053452 68 1 84
0.258086 0.137864 -0.179486 68 1 84
0.626766 -0.221659 0.454517 68 1 84
-0.609001 -0.052568 0.390856 68 57 130
0.552967 0.025666 0.083007 68 1 84
-0.664845 -0.363142 0.258481 32 144 140
0.112428 0.476809 -0.195060 68 1 84
-0.309263 0.523983 0.138879 68 1 84
0.037645 0.088343 -0.444781 68 1 84
0.492594 0.234368 0.089772 68 1 84
-0.298006 -0.215151 -0.190192 68 1 84
0.552603 -0.218561 -0.005847 63 71 136
0.125860 -0.008595 -0.332036 68 1 84
0.446536 0.380436 0.153652 71 17 99
0.175675 0.481480 -0.158966 64 68 135
0.071849 -0.367817 -0.280797 68 1 84
-0.478569 -0.166569 -0.094021 61 76 137
0.433961 0.398681 0.150472 71 17 99
-0.200582 -0.030726 -0.219048 68 1 84
0.128428 -0.159502 -0.261419 68 1 84
0.641662 -0.267210 0.251768 68 1 84
-0.008966 0.512579 -0.205650 53 93 140
-0.695561 -0.475701 0.315626 119 208 82
0.332211 0.513727 0.139403 58 83 139
-0.406631 0.274619 -0.016348 68 1 84
0.595717 -0.366655 0.140545 41 120 142
-0.648315 -0.183289 0.356916 70 49 126
0.087196 0.213502 -0.280605 68 1 84
-0.610597 -0.321512 0.104508 30 153 138
-0.313129 -0.001426 -0.201028 68 1 84
0.160960 0.236498 -0.222074 68 1 84
0.273831 0.324466 -0.099998 68 1 84
-0.014027 0.575795 -0.164496 71 42 121
-0.254815 0.557953 0.114220 68 1 84
0.132320 -0.113819 -0.270790 71 15 98
0.595770 -0.077529 0.137195 68 1 84
-0.638341 -0.182846 0.186156 66 64 133
0.519392 -0.334150 -0.007291 52 95 141
0.592135 -0.074947 0.471896 68 1 84
0.291522 -0.070078 -0.193448 68 1 84
0.015319 -0.132787 -0.401499 68 1 84
0.563731 0.088757 0.188944 68 1 84
-0.375531 0.472543 0.174820 68 1 84
0.581816 0.063361 0.357288 68 1 84
0.064560 0.084992 -0.314403 68 1 84
0.359321 0.427769 0.045578 71 40 120
-0.682626 -0.392765 0.313066 34 139 141
-0.376203 -0.093522 -0.175848 68 1 84
0.647710 -0.356574 0.345438 72 30 112
-0.357193 -0.098374 -0.184184 68 1 84
0.388235 0.465287 0.173514 66 61 132
-0.672707 -0.358432 0.292761 34 138 141
0.086439 0.046446 -0.421441 68 1 84
0.569167 0.130227 0.340188 68 1 84
-0.637766 -0.147797 0.391275 64 68 135
-0.642064 -0.214429 0.192382 48 104 141
0.667532 -0.294447 0.469523 68 1 84
0.606928 -0.064909 0.269008 68 1 84
-0.646487 -0.175933 0.247993 64 68 135
0.647397 -0.569792 0.347938 48 103 141
0.505686 0.243646 0.131526 68 1 84
-0.498723 0.301090 0.387710 68 1 84
-0.596277 -0.011381 0.383618 71 38 118
-0.412044 0.292048 0.000491 68 1 84
-0.479837 0.081792 -0.032207 68 1 84
-0.005842 0.253486 -0.258165 68 1 84
-0.512047 0.212887 0.487574 68 1 84
0.254690 0.499985 -0.070262 69 54 129
-0.078941 -0.142968 -0.300897 68 1 84
0.145575 0.141887 -0.233567 72 33 114
-0.143327 0.540872 -0.136308 55 89 140
-0.528832 0.047281 0.036487 68 1 84
0.193508 -0.423544 -0.249219 41 120 142
0.275615 0.204418 -0.160269 68 1 84
-0.409316 -0.362829 -0.188332 44 113 142
-0.581112 -0.319599 0.049942 30 160 135
-0.325194 0.486277 0.065813 68 1 84
0.661567 -0.477294 0.412809 69 5 88
-0.421083 -0.140427 -0.143805 66 62 133
-0.405821 -0.320030 -0.130094 54 91 140
-0.584649 0.040681 0.243265 69 8 91
-0.356702 0.490286 0.187257 68 1 84
0.354995 0.474345 0.097745 56 87 140
0.508712 0.132311 0.051057 68 1 84
0.188683 0.589455 -0.046557 65 65 134
-0.610602 -0.072963 0.457101 72 25 107
-0.442112 -0.352762 -0.131215 39 124 142
-0.501717 0.157174 0.051482 68 1 84
0.552979 -0.489604 0.049773 48 180 122
0.432155 0.421647 0.225156 68 1 84
0.475175 0.297174 0.114134 68 57 130
0.662076 -0.295117 0.487578 68 1 84
0.422875 0.029932 -0.124922 68 1 84
0.103292 0.063703 -0.334395 68 1 84
-0.664769 -0.261389 0.400432 52 95 141
-0.615595 -0.208443 0.111554 60 77 138
-0.225008 -0.313586 -0.195441 57 85 139
0.455613 0.168259 -0.014205 68 1 84
-0.514208 0.241586 0.440232 68 1 84
0.603785 -0.071491 0.412275 68 1 84
0.118188 0.169139 -0.260201 68 1 84
0.654019 -0.420957 0.377419 72 29 111
-0.493245 -0.119130 -0.086388 66 64 133
-0.357091 -0.280713 -0.181126 66 62 133
-0.103565 0.547661 -0.158287 57 85 139
0.581737 -0.003352 0.185972 68 1 84
0.520114 0.167102 0.101288 68 1 84
0.378554 -0.194693 -0.153485 68 1 84
-0.544962 0.213218 0.243106 68 1 84
-0.160675 0.272917 -0.159702 68 1 84
-0.110397 0.500190 -0.171858 44 113 142
0.394285 -0.325435 -0.136280 62 73 137
0.351152 -0.295261 -0.178759 68 1 84
-0.135695 0.033543 -0.221763 68 1 84
0.558869 -0.525236 0.070660 71 192 110
-0.139721 -0.009470 -0.229227 68 1 84
0.506613 0.300813 0.405220 68 1 84
-0.573760 0.062951 0.202995 68 1 84
-0.054951 0.085738 -0.288505 68 1 84
0.142277 0.397545 -0.168672 71 15 98
-0.458745 -0.141201 -0.116085 59 80 138
-0.632777 -0.117537 0.252157 71 40 120
-0.564815 -0.240092 0.017480 42 118 142
-0.583098 -0.509265 0.058394 136 213 71
0.284809 0.305835 -0.104109 68 1 84
0.068435 -0.334743 -0.274776 58 82 139
0.034709 0.436791 -0.204475 71 37 117
-0.487473 0.032995 -0.047857 68 1 84
0.532484 0.244988 0.404083 68 1 84
-0.183358 0.194827 -0.201243 68 1 84
-0.569520 -0.430542 0.030558 105 204 91
-0.219191 0.075140 -0.204612 68 1 84
0.570307 -0.399791 0.080897 38 128 142
0.138371 0.275579 -0.222723 68 1 84
0.143308 0.355108 -0.184227 69 52 127
0.360178 0.478922 0.118964 66 62 133
-0.328230 0.511404 0.164309 68 1 84
0.427435 -0.050462 -0.143450 68 1 84
0.472752 0.163998 0.008267 68 1 84
-0.621545 -0.097037 0.416594 63 69 135
-0.657951 -0.222377 0.334426 61 74 137
0.010814 0.177271 -0.290641 68 1 84
0.632487 -0.507882 0.284103 39 124 142
-0.648032 -0.196784 0.452760 58 83 139
0.339958 0.198806 -0.119488 72 32 113
-0.137016 0.432846 -0.156726 42 118 142
0.122896 0.048150 -0.351693 68 1 84
-0.568359 0.097982 0.210022 68 2 85
-0.353667 -0.286043 -0.185044 63 71 136
-0.518681 -0.149000 -0.056263 60 78 138
-0.203183 0.155516 -0.199521 68 1 84
0.644468 -0.307095 0.267163 71 21 103
-0.556393 0.103597 0.163527 68 1 84
0.470158 0.135200 -0.013483 68 1 84
-0.523414 0.219417 0.438504 68 1 84
-0.644471 -0.161826 0.253715 71 39 119
0.424375 0.202904 -0.035346 72 33 114
-0.332676 -0.000243 -0.193750 68 1 84
0.661745 -0.560706 0.460047 70 49 126
0.435825 0.260653 0.015198 68 1 84
0.464868 0.343504 0.146788 72 35 116
-0.133666 0.496844 -0.158171 41 120 142
-0.510928 0.222840 0.479151 68 1 84
0.505297 -0.412178 -0.047813 35 137 141
0.004749 0.595416 -0.130108 61 75 137
-0.603857 -0.050753 0.449922 68 1 84
-0.234580 -0.456089 -0.282917 72 28 110
0.263991 -0.299835 -0.189575 72 26 108
0.212578 0.128717 -0.197866 68 1 84
0.290435 0.532813 0.058368 71 17 99
0.316192 -0.364429 -0.174415 71 38 118
-0.308027 0.350092 -0.072192 71 18 101
0.499155 -0.202608 -0.076070 71 15 98
0.020210 0.301760 -0.264429 68 1 84
0.033453 -0.107393 -0.404119 68 1 84
-0.542442 0.127435 0.461939 68 1 84
0.190743 0.244698 -0.187283 69 5 88
-0.159325 0.551036 -0.114389 57 84 139
-0.624766 -0.132894 0.169287 58 83 139
-0.326425 0.069998 -0.180120 68 1 84
-0.573085 0.103833 0.328208 68 1 84
-0.447014 -0.030871 -0.120978 68 1 84
0.398450 0.290133 -0.015236 68 1 84
-0.111097 -0.018092 -0.298630 68 1 84
0.389370 0.189478 -0.080958 69 8 91
-0.642031 -0.208128 0.193386 44 114 142
0.109495 -0.000225 -0.365314 68 1 84
-0.543843 0.098809 0.116388 68 1 84
0.113184 0.124776 -0.251073 68 1 84
0.462951 -0.026954 -0.110123 68 1 84
-0.016079 0.343837 -0.246691 68 1 84
0.512135 -0.314576 -0.016521 54 91 140
-0.187077 -0.401342 -0.254669 49 100 141
-0.663930 -0.261883 0.452206 40 123 142
0.674302 -0.356581 0.486230 68 1 84
0.674331 -0.341394 0.395828 68 1 84
-0.673405 -0.347725 0.299532 36 134 141
-0.551740 -0.169063 -0.010722 46 108 142
0.615899 -0.167653 0.459625 68 1 84
0.076152 -0.026725 -0.400374 68 1 84
0.577931 -0.065989 0.544841 68 1 84
0.511724 0.235315 0.139205 68 1 84
0.095174 0.117126 -0.265775 68 1 84
-0.498286 0.314469 0.349540 68 1 84
0.532979 0.259721 0.308828 68 1 84
-0.505452 0.304397 0.342535 68 1 84
0.372611 0.444203 0.086718 62 73 137
-0.276460 0.208550 -0.157995 68 1 84
0.638356 -0.544309 0.308405 43 116 142
0.253561 -0.065102 -0.201499 68 1 84
0.570996 -0.520486 0.097643 48 180 122
0.452499 0.398834 0.258293 69 8 91
-0.556537 -0.059124 0.017848 69 6 90
0.059256 0.135558 -0.293584 68 1 84
-0.176934 -0.389223 -0.245453 60 78 138
-0.540627 0.231864 0.320219 68 1 84
-0.509965 0.210110 0.102044 68 1 84
-0.565512 0.077827 0.178734 68 1 84
-0.676305 -0.362063 0.303498 34 138 141
0.091012 0.101716 -0.273357 68 1 84
0.201798 0.550682 -0.105469 58 83 139
0.626513 -0.557669 0.264125 50 181 122
-0.028363 0.091539 -0.331386 68 1 84
-0.314890 0.511626 0.099748 68 1 84
-0.461714 -0.162255 -0.109597 63 69 135
0.460448 -0.433379 -0.130874 50 181 122
0.031552 -0.379271 -0.305388 68 1 84
-0.393193 -0.275037 -0.140099 58 83 139
0.455789 0.393757 0.292899 72 26 108
-0.446408 -0.514220 -0.176857 31 146 140
-0.072221 -0.108015 -0.321705 68 1 84
-0.485311 -0.407226 -0.112240 41 175 127
-0.515331 -0.495543 -0.063598 59 186 117
0.071668 0.091151 -0.301849 68 1 84
0.512509 0.224140 0.129767 68 1 84
-0.057974 -0.059667 -0.377339 68 1 84
0.532539 -0.373265 0.009467 36 134 141
0.476413 0.366211 0.295091 68 1 84
0.476484 -0.324241 -0.046632 59 80 138
0.684387 -0.329357 0.422849 68 1 84
-0.180951 -0.080651 -0.219423 68 1 84
0.462590 0.017499 -0.091034 68 1 84
-0.074749 0.014138 -0.399128 68 1 84
0.333331 0.514195 0.212053 71 43 122
-0.004621 -0.070918 -0.428013 68 1 84
0.608624 -0.109952 0.162795 68 1 84
-0.439896 0.407095 0.202653 68 1 84
-0.278606 0.263057 -0.139646 69 54 129
0.143026 0.584866 -0.108480 70 12 95
0.520191 0.236597 0.475868 68 1 84
-0.528859 0.262704 0.248093 68 1 84
0.184182 0.152191 -0.213531 68 1 84
0.511790 0.253553 0.479727 68 1 84
-0.047885 0.539452 -0.187956 67 58 131
0.252159 0.318055 -0.112515 68 1 84
-0.655076 -0.571091 0.198328 250 230 34
0.538785 0.202708 0.445259 68 1 84
-0.510533 0.051512 0.000587 68 1 84
-0.672019 -0.329363 0.297319 39 126 142
0.623275 -0.359031 0.231403 66 62 133
0.588978 -0.130230 0.061081 68 1 84
0.356430 -0.020444 -0.176610 68 1 84
0.050767 0.343099 -0.247999 68 1 84
0.488704 0.246392 0.092021 68 1 84
0.542453 -0.490106 0.023552 36 170 130
0.156322 -0.090725 -0.244879 69 5 88
-0.672226 -0.291640 0.437666 48 103 141
-0.485635 0.091011 -0.018381 68 1 84
-0.494024 -0.330350 -0.056986 34 167 132
0.328659 0.328986 -0.065408 68 1 84
-0.082800 -0.149547 -0.293283 68 1 84
-0.133650 0.517061 -0.154054 41 121 142
0.480732 0.323743 0.162441 68 1 84
-0.029169 -0.028648 -0.437319 68 1 84
-0.324267 -0.073175 -0.197512 68 1 84
0.291510 -0.395826 -0.236217 49 102 141
0.044960 -0.385309 -0.302882 68 1 84
0.006300 0.089091 -0.454464 68 1 84
-0.037212 -0.077286 -0.399612 68 1 84
-0.581080 0.035720 0.376825 68 1 84
0.508408 -0.505237 -0.061332 189 222 38
0.374410 -0.521328 -0.230013 59 80 138
-0.621473 -0.251970 0.123127 55 88 140
0.236972 0.425222 -0.101967 64 68 135
-0.657141 -0.396064 0.221670 30 151 138
-0.484936 0.341916 0.202438 68 1 84
0.317880 0.526609 0.149243 64 68 135
-0.198002 0.497716 -0.105273 67 59 131
-0.370292 0.036903 -0.165383 68 1 84
-0.389307 0.351065 0.016090 68 1 84
0.569470 0.046250 0.464397 68 1 84
0.582510 0.044236 0.402419 68 1 84
0.299291 0.538320 0.123816 69 52 127
-0.622285 -0.087254 0.366145 67 59 131
-0.617581 -0.230126 0.115897 59 81 138
0.543165 0.119123 0.131072 68 1 84
-0.604480 -0.020581 0.347066 71 44 123
0.094973 -0.023045 -0.370535 68 1 84
0.427415 0.408341 0.149633 71 21 103
-0.052445 0.314156 -0.256877 68 1 84
0.515722 0.187941 0.104971 68 1 84
-0.030775 0.107473 -0.305888 68 1 84
-0.583204 0.063543 0.323781 68 1 84
0.439126 0.090642 -0.080519 68 1 84
0.452328 -0.001479 -0.110798 68 1 84
0.424788 -0.062090 -0.146709 68 1 84
0.182524 0.106055 -0.208748 68 1 84
0.362462 0.036320 -0.163713 68 1 84
0.171800 0.347059 -0.167918 69 52 127
0.646867 -0.215156 0.371855 68 1 84
-0.466914 0.151204 -0.011510 68 1 84
0.035112 0.595300 -0.127581 64 68 135
0.352826 0.499071 0.222079 68 1 84
-0.395414 -0.443813 -0.221769 31 147 139
-0.407387 -0.166927 -0.145337 61 76 137
-0.557378 -0.454523 0.009563 105 204 91
-0.418268 -0.193502 -0.130097 62 72 136
0.277750 0.512404 -0.019509 71 40 120
-0.240292 -0.491800 -0.294487 68 1 84
0.258693 -0.272147 -0.191500 72 25 107
0.065900 -0.279970 -0.280892 63 69 135
0.174149 -0.316711 -0.166543 61 74 137
-0.326257 0.148819 -0.149188 68 1 84
-0.555694 0.110328 0.165887 68 1 84
0.239513 -0.076457 -0.203134 68 1 84
0.159408 -0.187018 -0.216277 68 1 84
-0.634121 -0.341743 0.159788 30 159 136
0.600264 -0.093612 0.135388 68 1 84
-0.581542 0.068426 0.279785 68 1 84
0.102269 -0.465200 -0.314318 68 1 84
-0.610910 -0.518900 0.113269 205 224 29
-0.396011 -0.265469 -0.136033 66 61 132
0.565225 0.071080 0.178214 68 1 84
-0.652474 -0.292033 0.227406 50 98 141
-0.018424 0.055855 -0.463734 68 1 84
-0.004529 -0.185428 -0.373836 68 1 84
-0.372136 0.459792 0.110126 68 1 84
0.364807 0.425952 0.052675 72 29 111
-0.336482 -0.187102 -0.174819 70 14 97
0.326633 0.052030 -0.176407 68 1 84
0.570403 0.068970 0.204493 68 1 84
-0.278039 0.058684 -0.200925 68 1 84
-0.506770 0.260531 0.433689 68 1 84
0.639837 -0.178811 0.383480 68 1 84
0.569700 0.071504 0.203209 68 1 84
0.078165 -0.252155 -0.274545 68 1 84
0.111206 0.339806 -0.227564 68 1 84
-0.491164 0.059579 -0.027121 68 1 84
0.019303 0.605263 -0.097908 58 82 139
0.087393 -0.000882 -0.402348 68 1 84
-0.544624 -0.438001 -0.011651 112 206 86
0.331403 0.515938 0.150997 46 109 142
0.244912 0.547474 -0.043616 60 77 138
0.565713 0.145901 0.321092 68 1 84
-0.525374 0.006826 -0.003323 68 1 84
-0.570155 0.019956 0.429516 68 1 84
-0.131395 -0.001940 -0.236368 68 1 84
-0.562759 0.118760 0.385964 68 1 84
0.252304 0.316665 -0.112661 68 1 84
-0.212630 0.158651 -0.196731 68 1 84
-0.613707 -0.069434 0.227226 71 21 103
-0.037906 0.095040 -0.305613 68 1 84
-0.180810 0.073445 -0.205178 68 1 84
0.512081 -0.550035 -0.050126 178 221 44
-0.256091 -0.211153 -0.198419 68 1 84
0.660370 -0.565953 0.432459 69 50 127
-0.577199 0.028797 0.395965 69 8 91
0.362622 0.128325 -0.131456 69 6 90
-0.707638 -0.515247 0.338377 91 200 98
-0.111749 -0.015991 -0.300580 68 1 84
0.145524 0.585684 -0.105108 72 28 110
0.664820 -0.532582 0.452633 72 33 114
0.039908 -0.449962 -0.322708 68 1 84
-0.662104 -0.243452 0.368414 56 86 139
-0.184207 -0.093106 -0.218549 68 1 84
0.421933 0.244376 -0.014082 68 1 84
-0.141703 0.488487 -0.153281 36 132 141
0.425574 -0.270028 -0.105223 64 68 135
0.526714 0.194567 0.502995 68 1 84
0.600094 -0.325836 0.137422 60 77 138
0.190647 0.397015 -0.140469 63 69 135
0.037942 0.563706 -0.177252 71 17 99
-0.527209 0.072862 0.052732 68 1 84
-0.565642 0.135299 0.308234 68 1 84
0.044348 0.248561 -0.260329 68 1 84
-0.662043 -0.254619 0.431491 51 97 141
-0.342542 -0.266587 -0.190921 65 66 134
-0.305223 0.478781 0.025813 68 1 84
0.629285 -0.199251 0.200820 68 1 84
0.180011 -0.333600 -0.167860 56 86 139
0.625159 -0.329088 0.219379 71 40 120
-0.208978 0.406159 -0.112894 68 1 84
-0.472874 -0.403302 -0.128310 31 150 139
0.551453 0.038833 0.091130 68 1 84
-0.260613 -0.378464 -0.251652 61 76 137
0.298921 0.507193 0.026856 70 48 125
0.590712 -0.298363 0.100337 63 69 135
-0.563893 -0.420375 0.021087 107 205 89
-0.569291 0.019113 0.443046 68 1 84
-0.181281 0.376041 -0.136815 70 9 92
0.168976 0.486026 -0.163920 70 48 125
0.436906 0.016629 -0.117647 68 1 84
-0.456630 -0.092318 -0.120709 72 34 115
0.647534 -0.257762 0.413505 68 1 84
-0.283438 0.542270 0.149314 68 1 84
-0.459319 0.358536 0.404306 68 1 84
0.546408 0.129561 0.152243 68 1 84
-0.205904 0.554575 -0.040142 70 11 94
-0.548246 0.091878 0.125477 68 1 84
0.508268 0.025396 -0.021657 68 1 84
-0.296894 0.263568 -0.126980 71 15 98
0.275786 0.041236 -0.192051 68 1 84
-0.057930 0.060324 -0.428258 68 1 84
-0.557753 -0.343654 0.014529 31 161 135
-0.122530 0.041873 -0.307640 68 1 84
-0.069724 -0.190710 -0.293575 68 1 84
-0.061988 0.098391 -0.271801 68 1 84
0.013970 0.414840 -0.194943 71 44 123
0.218372 0.508337 -0.113090 54 90 140
-0.067413 0.569114 -0.159876 71 40 120
-0.626413 -0.104764 0.386197 61 76 137
-0.393497 -0.082943 -0.166864 68 1 84
-0.158679 0.511191 -0.137580 46 108 142
-0.506195 0.299341 0.356032 68 1 84
0.675393 -0.303675 0.451058 68 1 84
-0.489210 0.300240 0.136182 68 1 84
0.030229 -0.181656 -0.373885 68 1 84
0.420243 -0.128613 -0.150536 68 1 84
-0.681220 -0.382379 0.313196 33 142 140
-0.547397 0.167781 0.402658 68 1 84
-0.640680 -0.163007 0.406781 62 73 137
0.365367 0.363686 -0.000745 68 1 84
-0.649018 -0.182482 0.307651 61 75 137
0.331222 -0.543972 -0.254417 41 121 142
0.280747 -0.047468 -0.197744 68 1 84
0.417658 -0.494522 -0.194858 36 133 141
0.590875 -0.213306 0.066398 71 24 106
0.055734 0.602165 -0.098632 65 66 134
-0.374807 0.189814 -0.094285 68 1 84
-0.050883 0.276709 -0.246328 68 1 84
-0.507577 -0.039169 -0.054840 68 1 84
0.475855 -0.385893 -0.079594 34 137 141
0.539630 0.132835 0.130784 68 1 84
0.341228 0.470625 0.064061 65 65 134
-0.662348 -0.326083 0.260053 34 138 141
0.291432 0.542985 0.120703 71 44 123
0.423047 -0.176357 -0.140242 68 1 84
-0.551459 0.097330 0.447280 68 1 84
0.432072 0.044896 -0.110515 68 1 84
-0.119095 0.565760 -0.134002 61 76 137
-0.529657 0.242372 0.196629 68 2 85
0.158215 0.595420 -0.068651 60 77 138
-0.580837 -0.126651 0.044277 67 60 132
-0.701496 -0.405754 0.433144 30 151 138
-0.098363 0.371027 -0.184271 68 1 84
-0.686922 -0.481409 0.286854 85 198 102
0.152152 -0.446924 -0.284770 49 101 141
0.543394 0.135044 0.491757 68 1 84
-0.135747 -0.425069 -0.285294 72 26 108
-0.577550 -0.061510 0.072441 70 12 95
-0.305643 -0.078159 -0.201672 68 1 84
0.395353 0.053942 -0.137738 68 1 84
0.420637 0.122049 -0.084532 68 1 84
0.157247 -0.216482 -0.203086 65 65 134
-0.453938 0.392717 0.257038 68 1 84
-0.581005 0.071867 0.289512 68 1 84
-0.371831 0.473949 0.161061 68 1 84
0.489260 -0.536623 -0.102023 96 201 96
-0.435719 0.358553 0.088731 68 1 84
0.612620 -0.123551 0.412917 68 1 84
0.024782 -0.365058 -0.305763 68 1 84
-0.518088 0.262031 0.387275 68 1 84
-0.310091 -0.497438 -0.274493 67 59 131
-0.545005 0.088047 0.113504 68 1 84
-0.586959 -0.007164 0.189900 68 1 84
-0.425496 -0.012901 -0.136829 68 1 84
0.458017 -0.101924 -0.126299 68 1 84
-0.067827 0.339448 -0.231648 68 1 84
-0.657296 -0.220194 0.352368 59 80 138
0.556216 -0.486807 0.057385 37 171 129
0.166253 -0.094769 -0.234982 68 1 84
-0.543624 -0.435538 -0.013267 131 211 75
0.205095 -0.357301 -0.182338 58 82 139
0.375113 0.456975 0.111215 61 75 137
0.530930 0.070187 0.058462 68 1 84
0.591511 -0.306699 0.106588 69 52 127
-0.554394 0.169387 0.226698 68 1 84
0.512912 0.054366 0.005930 68 1 84
-0.086523 -0.072832 -0.310667 68 1 84
0.587986 -0.126125 0.059659 68 1 84
0.679007 -0.366421 0.441185 68 1 84
-0.604120 -0.015358 0.333766 72 32 113
-0.365022 0.039454 -0.168118 68 1 84
0.388624 -0.365624 -0.153249 36 134 141
0.561381 -0.486412 0.069876 41 175 127
-0.528853 0.073835 0.057677 68 1 84
0.115071 -0.489257 -0.318220 58 83 139
0.549258 -0.562279 0.042451 85 198 102
0.026156 0.225809 -0.293623 68 1 84
-0.223620 -0.174140 -0.200469 68 1 84
-0.462570 0.193387 0.005677 68 1 84
0.329935 -0.336022 -0.175336 72 32 113
-0.357916 0.119823 -0.142068 68 1 84
0.095275 0.335421 -0.243055 68 1 84
-0.262383 0.360495 -0.096987 68 55 129
0.339286 0.145334 -0.139245 68 1 84
-0.433887 -0.349656 -0.138399 41 121 142
-0.618692 -0.075692 0.367902 69 53 128
0.147325 0.208121 -0.247763 68 1 84
0.383118 0.473573 0.220525 71 24 106
0.632623 -0.165849 0.313025 68 1 84
0.499029 0.312762 0.211131 68 1 84
0.596173 -0.382858 0.146609 48 104 141
0.321502 0.165865 -0.143423 68 1 84
-0.254611 0.035161 -0.210215 68 1 84
0.576113 0.059834 0.427359 68 1 84
0.236579 0.571209 0.007661 67 60 132
-0.022710 -0.472023 -0.328381 71 21 103
-0.491219 0.025203 -0.046837 68 1 84
0.258886 -0.375032 -0.189954 61 75 137
-0.353260 0.491570 0.168139 68 1 84
0.290883 -0.030251 -0.196036 68 1 84
0.414025 0.439548 0.293319 68 1 84
0.552691 0.118147 0.471628 68 1 84
-0.532824 0.135999 0.107349 68 1 84
-0.140759 0.473313 -0.154509 35 136 141
-0.293335 0.207458 -0.146780 68 1 84
-0.330722 0.134676 -0.152976 68 1 84
0.539145 0.101113 0.103157 68 1 84
0.115207 0.000329 -0.356341 68 1 84
-0.239049 -0.222159 -0.202709 68 1 84
-0.280120 -0.376741 -0.223363 66 64 133
0.641376 -0.262225 0.513682 68 1 84
-0.697420 -0.402991 0.384554 35 136 141
0.604660 -0.069333 0.226935 68 1 84
-0.650060 -0.229656 0.234566 53 93 140
0.563592 -0.279506 0.036569 67 60 132
-0.716478 -0.501258 0.394478 81 196 104
0.490222 0.332091 0.214870 68 1 84
-0.094063 0.432557 -0.177399 43 115 142
0.373726 0.468975 0.132306 71 39 119
-0.230024 -0.182955 -0.199268 68 1 84
-0.413465 0.432693 0.169391 68 1 84
0.604616 -0.252458 0.117101 72 35 116
-0.638531 -0.159096 0.202020 66 64 133
-0.515340 -0.040064 -0.044984 68 1 84
-0.154231 -0.220446 -0.206427 72 26 108
-0.085434 -0.303746 -0.221724 69 50 127
-0.619798 -0.069275 0.290125 71 17 99
0.115543 0.384505 -0.178384 67 60 132
-0.341832 0.404083 0.002199 69 5 88
0.059609 -0.277031 -0.291611 68 1 84
0.568477 0.132669 0.353268 68 1 84
-0.446451 0.399381 0.283068 68 1 84
0.555843 0.100537 0.163445 68 1 84
0.048408 0.584894 -0.147747 68 57 130
0.119631 0.153244 -0.254681 71 22 105
-0.442547 -0.496841 -0.182756 42 118 142
-0.143288 0.161525 -0.220164 68 1 84
-0.113344 0.138369 -0.232213 68 1 84
0.671044 -0.364912 0.401823 68 1 84
0.321911 0.523325 0.193115 66 64 133
0.456441 0.392417 0.304009 68 2 85
-0.528330 0.219108 0.161672 68 1 84
0.167929 0.033399 -0.219541 68 1 84
-0.641093 -0.416115 0.189364 30 156 137
0.604524 -0.093797 0.164585 68 1 84
-0.674205 -0.300666 0.404038 42 119 142
0.201010 0.164239 -0.205135 71 37 117
0.038518 -0.300182 -0.306592 71 18 101
-0.351726 0.182467 -0.117310 68 1 84
-0.271515 0.507452 0.010974 71 15 98
0.266014 -0.446293 -0.256302 68 1 84
-0.239055 0.300541 -0.135344 67 59 131
0.634507 -0.174113 0.341260 68 1 84
0.278531 0.240053 -0.140148 68 1 84
0.490287 0.071249 -0.021641 68 1 84
-0.411365 0.261243 -0.019370 72 29 111
-0.226900 -0.423885 -0.270331 48 103 141
-0.564477 -0.026142 0.066977 68 1 84
0.584390 0.050862 0.347380 68 1 84
-0.190608 -0.293324 -0.194646 64 67 135
-0.616222 -0.069461 0.374893 71 24 106
-0.296670 -0.328470 -0.190957 56 87 140
0.529967 0.218345 0.181682 68 1 84
-0.572726 -0.195302 0.023088 53 92 140
0.035694 -0.431943 -0.318765 68 1 84
0.573213 -0.385518 0.085886 55 89 140
0.348257 0.187602 -0.116748 70 47 124
0.072509 -0.332564 -0.267682 66 62 133
0.105519 -0.292120 -0.214496 42 117 142
0.607522 -0.145276 0.122287 68 1 84
-0.617110 -0.177886 0.121142 57 84 139
0.206161 -0.195887 -0.191345 68 1 84
0.504458 -0.166021 -0.082020 68 1 84
0.649565 -0.455791 0.359762 69 52 127
0.589832 0.023862 0.317421 68 1 84
0.577180 0.091209 0.348654 68 1 84
0.377213 -0.058324 -0.170470 68 1 84
-0.693902 -0.368789 0.432900 30 153 138
-0.651523 -0.571473 0.190341 215 226 25
-0.237067 0.472270 -0.071220 71 39 119
-0.034306 -0.031066 -0.431933 68 1 84
-0.455677 0.390845 0.246466 68 1 84
-0.576944 0.071351 0.362135 68 1 84
-0.264470 0.158076 -0.176524 68 1 84
0.322103 -0.319832 -0.181011 68 1 84
-0.500917 -0.344255 -0.055874 31 149 139
0.064038 -0.187657 -0.339416 68 1 84
0.634118 -0.282604 0.228782 66 61 132
-0.665492 -0.407028 0.245077 30 155 137
-0.093932 0.229743 -0.252087 68 1 84
-0.302133 -0.011619 -0.204861 68 1 84
0.136188 0.600701 -0.068466 69 52 127
-0.314669 -0.058162 -0.201158 68 1 84
0.519796 0.285609 0.371553 68 1 84
0.136966 0.075344 -0.268631 68 1 84
0.118407 0.600639 -0.080944 71 39 119
-0.247601 -0.076548 -0.211416 68 1 84
-0.054126 -0.210588 -0.304093 68 1 84
-0.539914 0.131174 0.124823 68 1 84
-0.629318 -0.538017 0.149435 212 225 26
-0.340810 0.453794 0.045761 68 1 84
0.190091 0.565956 -0.100666 57 84 139
0.126140 0.033203 -0.352449 68 1 84
0.584549 0.053471 0.323128 68 1 84
0.526119 -0.054321 -0.040956 68 1 84
-0.564506 0.122695 0.372117 68 1 84
0.160777 0.261705 -0.198147 61 75 137
0.271639 0.546631 0.036962 71 37 117
0.452453 0.331757 0.104059 68 1 84
0.458485 -0.128481 -0.126059 68 1 84
-0.469992 0.346747 0.396282 68 1 84
-0.632631 -0.282341 0.151083 38 128 142
-0.124444 -0.026850 -0.245962 68 1 84
-0.501133 0.272508 0.433332 68 1 84
0.626715 -0.432680 0.260417 35 136 141
-0.574249 0.095737 0.262588 68 1 84
0.268551 0.541710 0.012347 67 58 131
0.547097 0.113930 0.140466 68 1 84
-0.158011 0.578879 -0.073825 68 1 84
-0.538874 0.122663 0.478755 68 1 84
0.067884 0.123352 -0.292701 68 1 84
0.578597 0.060250 0.242707 68 1 84
-0.311940 0.144278 -0.158247 68 1 84
-0.536085 -0.323357 -0.012274 33 166 133
0.543292 -0.340305 0.022304 46 109 142
-0.077878 0.115140 -0.248369 68 1 84
0.363365 0.305994 -0.049205 68 1 84
-0.182796 0.047172 -0.210451 68 1 84
-0.101215 0.503509 -0.176346 45 111 142
0.145166 0.128548 -0.231464 68 1 84
0.296319 -0.013952 -0.194385 68 1 84
0.475199 0.126524 -0.011079 68 1 84
-0.117605 -0.307716 -0.202603 59 81 138
0.553078 0.160219 0.214017 68 1 84
-0.387539 -0.509485 -0.232807 37 131 141
-0.055986 -0.364510 -0.281165 71 21 103
-0.212693 -0.207950 -0.201818 70 12 95
-0.568886 -0.192308 0.016648 49 101 141
0.504896 0.312079 0.379187 68 1 84
-0.632478 -0.161792 0.174818 67 60 132
0.547021 -0.101206 -0.023991 68 1 84
-0.411026 0.211159 -0.047829 68 1 84
0.384294 0.469518 0.174302 70 11 94
-0.487344 0.300324 0.436536 68 1 84
0.110229 0.180958 -0.269485 68 1 84
-0.629145 -0.103617 0.319529 70 49 126
-0.178355 0.397756 -0.134286 71 37 117
0.531454 0.231287 0.435144 68 1 84
0.609261 -0.259415 0.135287 68 55 129
0.198038 -0.166461 -0.202290 68 1 84
-0.575488 0.078796 0.362020 68 1 84
0.491811 -0.035354 -0.081880 68 1 84
0.232209 -0.486262 -0.279693 64 68 135
0.593226 -0.169714 0.066683 68 1 84
-0.147882 0.265465 -0.172171 68 1 84
0.600549 -0.452809 0.175298 31 161 135
0.201069 0.303604 -0.158983 70 49 126
0.667378 -0.475039 0.465735 68 1 84
-0.411139 0.231827 -0.036494 69 8 91
-0.078763 -0.459485 -0.321400 68 1 84
0.528455 0.231116 0.191986 68 3 87
0.592547 -0.013579 0.243478 68 1 84
0.257027 -0.029335 -0.202254 68 1 84
-0.644355 -0.162311 0.330381 68 55 129
-0.575586 -0.341445 0.041571 39 173 128
0.561208 -0.529191 0.076691 51 182 121
-0.408987 -0.284449 -0.120979 60 77 138
-0.528484 0.165369 0.479391 68 1 84
0.567914 -0.013151 0.094342 68 1 84
0.344521 -0.182472 -0.167420 68 1 84
0.115729 0.099872 -0.248164 68 1 84
-0.299353 -0.213751 -0.189516 68 3 87
-0.502473 0.062372 -0.007013 68 1 84
0.098322 -0.457859 -0.312617 70 9 92
-0.260400 0.079712 -0.199493 68 1 84
-0.468602 -0.174727 -0.100746 57 85 139
-0.215301 -0.246605 -0.208761 68 1 84
0.326233 -0.036258 -0.187180 68 1 84
0.520083 0.272770 0.229007 68 1 84
0.344039 -0.232841 -0.160297 68 1 84
0.366647 0.357096 -0.004235 68 1 84
-0.200303 0.061944 -0.207099 68 1 84
-0.011599 -0.377905 -0.306582 68 1 84
-0.299710 0.523033 0.093655 68 1 84
-0.123142 0.266100 -0.197780 68 1 84
-0.557702 0.163885 0.341854 68 1 84
-0.421240 -0.452094 -0.201128 61 187 116
-0.623983 -0.086898 0.271602 66 62 133
0.095002 0.591203 -0.121408 64 67 135
0.398266 -0.080969 -0.161923 68 1 84
-0.515540 -0.409833 -0.060379 79 195 105
-0.617426 -0.093927 0.485671 71 15 98
0.124899 -0.145981 -0.272057 68 1 84
0.323126 0.410077 -0.017865 71 24 106
0.431443 -0.505770 -0.184483 44 177 125
-0.651954 -0.405042 0.211298 30 156 137
0.320720 -0.413066 -0.238531 55 88 140
-0.410152 -0.276021 -0.119930 59 80 138
-0.627205 -0.106966 0.384137 59 81 138
-0.029981 0.109111 -0.305403 68 1 84
-0.579766 0.050625 0.220738 68 1 84
-0.089099 0.496494 -0.183558 44 114 142
-0.380113 -0.227122 -0.147982 70 48 125
0.072869 0.458035 -0.205808 70 11 94
-0.609304 -0.070739 0.496056 72 28 110
-0.303833 -0.277368 -0.206820 70 11 94
-0.623865 -0.104512 0.417443 66 64 133
-0.708720 -0.453251 0.414401 43 177 125
-0.415782 -0.425773 -0.200609 47 179 123
-0.139567 0.201976 -0.224720 68 1 84
-0.047521 0.085661 -0.410064 68 1 84
0.102795 -0.074798 -0.323672 68 1 84
0.628338 -0.148782 0.343142 68 1 84
0.421134 0.053243 -0.116884 68 1 84
0.625036 -0.461865 0.255704 43 116 142
0.052836 -0.432604 -0.315532 68 1 84
0.557779 0.055142 0.496911 68 1 84
0.605436 -0.163977 0.107065 68 1 84
0.653353 -0.269835 0.404217 68 1 84
0.387697 0.416901 0.079630 68 1 84
0.528321 -0.529678 -0.006926 85 198 102
-0.658552 -0.434588 0.228158 32 165 133
-0.470983 0.357145 0.350644 68 1 84
-0.408244 -0.007661 -0.150306 68 1 84
-0.019295 0.608068 -0.082995 68 1 84
-0.655338 -0.221204 0.415694 60 78 138
-0.061743 0.532134 -0.186620 53 93 140
0.568620 0.133380 0.303624 68 1 84
0.438645 0.084191 -0.084478 68 1 84
0.329746 -0.433070 -0.240316 72 32 113
-0.483428 0.019524 -0.060700 68 1 84
-0.285612 -0.062857 -0.207436 68 1 84
0.418672 -0.422437 -0.184324 46 108 142
0.198160 0.307987 -0.161735 69 52 127
0.556960 0.150675 0.221796 68 1 84
0.082953 -0.035506 -0.381092 68 1 84
0.304123 0.277837 -0.112633 68 1 84
-0.303735 -0.394066 -0.257461 49 100 141
-0.580409 -0.072074 0.071151 68 1 84
-0.585358 0.002891 0.196486 68 1 84
0.670025 -0.425128 0.471393 68 1 84
0.494305 0.029989 -0.041602 68 1 84
-0.500894 0.052171 -0.015856 68 1 84
0.561423 -0.200430 0.002894 71 40 120
-0.161128 0.162983 -0.212646 68 1 84
-0.459920 0.200203 0.005618 68 1 84
-0.171061 0.243363 -0.178679 68 1 84
-0.546031 -0.109073 -0.018925 59 81 138
0.523947 -0.352948 -0.002190 47 105 141
-0.545230 0.219863 0.290195 68 1 84
0.385554 -0.514355 -0.222161 70 47 124
0.597476 -0.058719 0.191693 68 1 84
-0.419131 -0.094291 -0.149810 68 1 84
-0.154288 0.080594 -0.209486 68 1 84
0.532059 -0.024199 -0.012223 68 1 84
-0.571355 -0.520482 0.033088 175 220 46
0.479824 0.353294 0.373262 68 1 84
-0.002170 0.418747 -0.194802 71 42 121
0.539549 -0.207645 -0.028607 72 32 113
0.200435 0.236565 -0.190136 71 17 99
-0.555751 0.145446 0.389571 71 20 102
-0.030357 -0.071665 -0.411082 68 1 84
0.284870 0.158706 -0.165624 68 1 84
-0.440208 0.352186 0.090169 68 1 84
-0.006960 -0.225114 -0.345819 68 1 84
-0.267887 -0.165223 -0.195241 68 1 84
-0.347282 -0.232622 -0.172760 69 6 90
0.088929 -0.108532 -0.330257 68 1 84
0.469732 -0.428912 -0.116307 54 184 119
-0.575052 0.093187 0.266335 68 1 84
0.236009 -0.399476 -0.237391 50 99 141
-0.151928 -0.000213 -0.221449 68 1 84
-0.506076 0.314467 0.253790 68 1 84
0.085095 -0.459326 -0.316715 68 1 84
0.594209 -0.054599 0.176241 68 1 84
-0.627052 -0.267269 0.136272 46 109 142
-0.601247 -0.254007 0.081171 55 88 140
0.545392 -0.207233 -0.020606 69 50 127
0.405594 -0.471101 -0.200965 38 129 142
-0.555234 0.166594 0.357441 71 21 103
-0.306582 0.451141 0.000740 68 1 84
0.364838 -0.232036 -0.150143 72 25 107
-0.031326 0.079385 -0.445744 68 1 84
-0.005864 0.109995 -0.382129 68 1 84
-0.287524 0.272130 -0.130488 72 26 108
-0.133710 0.471024 -0.158760 41 120 142
-0.718727 -0.505949 0.411866 61 187 116
0.567811 0.007846 0.124879 68 1 84
0.611336 -0.309917 0.165995 71 38 118
0.512969 -0.212390 -0.058162 68 1 84
0.327826 0.519383 0.169666 58 83 139
0.014985 0.606769 -0.091759 58 83 139
-0.092065 0.326755 -0.224209 68 1 84
0.076187 0.578936 -0.152480 71 20 102
-0.498835 -0.349092 -0.060679 31 147 139
0.612933 -0.180042 0.510578 68 1 84
0.658664 -0.557011 0.405411 67 58 131
-0.582095 -0.285665 0.049124 32 144 140
-0.059137 -0.328233 -0.256848 70 49 126
-0.134431 0.042794 -0.218847 68 1 84
-0.472495 -0.147097 -0.103760 70 48 125
-0.647568 -0.190378 0.417717 64 67 135
-0.070615 -0.129815 -0.317743 68 1 84
0.126233 -0.166274 -0.260966 68 1 84
0.062748 -0.201793 -0.333194 68 1 84
0.102831 0.599461 -0.093576 72 25 107
-0.357496 -0.322219 -0.171968 56 86 139
-0.237656 0.214583 -0.178760 68 1 84
-0.221156 -0.087008 -0.212412 68 1 84
-0.035036 -0.223880 -0.322595 68 1 84
0.494719 0.332918 0.247352 68 1 84
-0.620049 -0.096302 0.202251 67 60 132
-0.374248 -0.512717 -0.242840 36 134 141
0.103656 -0.316567 -0.214605 47 106 141
-0.485001 0.348903 0.235816 68 1 84
-0.639522 -0.182936 0.191118 65 66 134
-0.033153 0.122377 -0.292159 68 1 84
0.157105 0.296444 -0.216537 68 1 84
0.020923 -0.100293 -0.413827 68 1 84
-0.131334 0.323404 -0.188407 68 1 84
0.174264 0.292541 -0.196932 68 1 84
0.257820 0.507993 -0.061674 71 40 120
0.320800 -0.518565 -0.256088 65 66 134
0.010508 0.361870 -0.209407 68 1 84
-0.508978 0.201459 0.094290 68 1 84
0.081754 0.014249 -0.423337 68 1 84
-0.115853 0.231752 -0.237659 68 1 84
0.624232 -0.248797 0.183578 68 57 130
0.387541 -0.343392 -0.140624 50 98 141
-0.215021 0.378955 -0.117074 72 33 114
0.077417 -0.068477 -0.368260 68 1 84
0.616539 -0.103470 0.228396 68 1 84
0.499988 -0.327919 -0.025895 66 64 133
-0.303423 0.268894 -0.119847 68 1 84
0.343294 0.385214 -0.010608 68 1 84
0.437147 -0.244822 -0.103578 68 1 84
0.556448 -0.455913 0.053932 46 178 124
0.034347 -0.173500 -0.375917 68 1 84
0.150047 -0.073532 -0.251589 68 1 84
-0.181916 0.240739 -0.174882 68 1 84
-0.047470 -0.174053 -0.337898 68 1 84
-0.271515 0.397502 -0.072105 68 55 129
0.355465 0.391428 0.009571 70 11 94
0.078168 0.044155 -0.435958 68 1 84
0.608896 -0.238615 0.124822 71 24 106
-0.550034 0.155589 0.183058 68 1 84
0.285072 -0.274770 -0.191443 68 1 84
0.536230 0.115573 0.526459 68 1 84
-0.392205 -0.280433 -0.141602 52 95 141
0.324742 -0.130426 -0.179749 68 1 84
0.491743 -0.166107 -0.094473 68 1 84
0.103684 0.163689 -0.268660 68 1 84
-0.007345 0.046145 -0.468423 68 1 84
0.048289 -0.120839 -0.384439 68 1 84
0.667584 -0.473944 0.470052 68 1 84
0.215039 0.263286 -0.140770 68 1 84
0.224407 0.520584 -0.100688 44 113 142
0.658583 -0.587052 0.431192 70 48 125
-0.037993 -0.364256 -0.293771 71 18 101
0.339097 0.355332 -0.036787 68 1 84
-0.278382 0.545269 0.140001 68 1 84
0.254202 0.564514 0.046103 72 35 116
-0.559430 0.037085 0.124884 68 1 84
-0.192250 0.505230 -0.108376 60 77 138
0.328750 0.179738 -0.134331 68 1 84
-0.558727 0.054019 0.136343 68 1 84
0.548250 0.071585 0.517993 68 1 84
-0.611196 -0.032309 0.286096 71 42 121
0.452277 0.383405 0.387565 71 20 102
0.167868 0.187524 -0.230179 72 25 107
-0.290569 0.233862 -0.140978 71 22 105
0.052734 0.384129 -0.189355 67 58 131
-0.333162 -0.467431 -0.260986 38 127 142
0.662760 -0.458631 0.417628 68 1 84
0.130000 0.230490 -0.246273 68 1 84
0.288340 -0.441041 -0.252285 68 1 84
-0.590655 0.036115 0.316474 69 5 88
-0.040242 0.063600 -0.449508 68 1 84
0.221519 -0.004608 -0.206139 68 1 84
0.492723 -0.484327 -0.101603 116 208 84
0.158694 0.593243 -0.075873 68 57 130
-0.438356 0.131418 -0.060262 68 1 84
-0.038231 0.435398 -0.195122 54 91 140
0.057065 -0.417251 -0.308628 68 1 84
-0.584882 -0.395926 0.057918 68 190 112
-0.582467 0.059247 0.260744 69 6 90
0.519313 -0.429979 -0.027953 30 157 136
-0.690404 -0.498659 0.290601 83 197 103
0.073976 -0.020785 -0.408599 68 1 84
-0.629661 -0.171261 0.160011 63 69 135
0.404320 0.415641 0.109280 72 29 111
0.456433 -0.343463 -0.072775 35 135 141
0.093115 -0.073527 -0.340142 68 1 84
-0.598478 -0.461837 0.084429 105 204 91
0.552769 0.160345 0.430226 68 1 84
0.329644 -0.316094 -0.181805 68 1 84
-0.516817 -0.366838 -0.044817 30 155 137
-0.114797 0.028799 -0.331620 68 1 84
-0.599699 -0.011537 0.361138 70 45 124
0.402454 0.450478 0.178405 70 45 124
0.405885 -0.143133 -0.155903 68 1 84
0.612532 -0.238657 0.136646 71 20 102
0.626728 -0.228903 0.188418 71 22 105
0.451690 -0.071494 -0.128633 68 1 84
-0.457953 0.361169 0.402074 68 1 84
-0.038893 0.586630 -0.148114 71 22 105
0.323031 0.074170 -0.172091 68 1 84
-0.496304 0.327176 0.306777 68 1 84
0.505694 0.284194 0.184287 68 1 84
0.204427 -0.273792 -0.184958 53 93 140
-0.565738 -0.536153 0.017230 220 226 24
0.646397 -0.491546 0.343217 55 89 140
-0.498533 0.315824 0.194689 68 1 84
0.107330 0.067695 -0.310951 68 1 84
0.341385 0.303655 -0.073345 71 15 98
0.396613 0.185745 -0.075852 68 1 84
-0.359782 -0.457825 -0.246831 31 161 135
-0.051024 0.108089 -0.278025 68 1 84
-0.451033 0.292582 0.053614 68 1 84
-0.042707 -0.248143 -0.294980 68 1 84
-0.549561 -0.025974 0.023113 68 1 84
-0.453802 -0.117586 -0.122415 72 30 112
0.238262 0.251237 -0.134201 71 20 102
-0.523054 -0.468189 -0.049812 149 215 63
-0.235282 0.346840 -0.117765 68 3 87
0.066038 -0.247167 -0.297393 68 1 84
0.254563 0.351381 -0.101892 68 1 84
0.206061 0.556709 -0.094439 66 64 133
0.640670 -0.493729 0.318662 41 120 142
0.557924 0.177978 0.359522 68 1 84
0.434255 0.156263 -0.050610 68 1 84
0.278848 -0.183738 -0.178998 68 1 84
0.153002 0.019474 -0.284393 68 1 84
-0.668490 -0.489707 0.236743 109 206 88
-0.161675 0.287636 -0.161783 68 1 84
-0.499907 0.301254 0.381942 68 1 84
-0.664711 -0.317481 0.269316 37 131 141
0.537985 0.133172 0.511225 68 1 84
-0.305146 0.490869 0.041110 68 1 84
-0.390195 -0.266958 -0.143045 57 85 139
-0.454325 -0.338588 -0.103316 37 130 142
0.109729 -0.291900 -0.210208 41 121 142
-0.047354 -0.269120 -0.275611 70 14 97
0.394070 -0.047546 -0.162066 68 1 84
0.154451 -0.406432 -0.243653 56 86 139
-0.692737 -0.470730 0.309085 116 208 84
0.471772 0.318089 0.129514 71 15 98
-0.489873 -0.498470 -0.110500 38 129 142
-0.515420 -0.258675 -0.033994 31 146 140
0.585524 -0.362531 0.111194 59 80 138
0.232838 0.211151 -0.177035 68 1 84
-0.182825 -0.176107 -0.206635 68 1 84
0.462065 -0.476549 -0.146106 68 190 112
-0.497975 0.291096 0.147979 68 1 84
0.584971 -0.511707 0.132553 64 189 114
0.055806 0.051113 -0.457511 68 1 84
0.613339 -0.368458 0.202075 61 76 137
0.195260 0.166749 -0.208541 71 21 103
-0.024850 0.069452 -0.457095 68 1 84
0.020824 -0.286752 -0.317846 68 1 84
0.067787 0.093837 -0.305339 68 1 84
0.596972 -0.368840 0.144898 43 116 142
-0.524499 -0.460284 -0.047301 129 211 76
-0.453356 -0.233614 -0.092446 53 93 140
-0.457464 0.377032 0.348910 68 1 84
-0.341042 0.297593 -0.073288 68 1 84
-0.170833 0.272668 -0.152641 68 1 84
-0.655363 -0.415960 0.219916 40 174 127
0.233673 -0.055693 -0.206389 68 1 84
-0.372819 -0.348564 -0.179938 46 107 142
0.279121 -0.435323 -0.252986 68 1 84
0.568319 0.134646 0.316763 68 1 84
0.370762 -0.295082 -0.164238 70 12 95
-0.270007 0.549570 0.113726 68 1 84
0.151361 0.512716 -0.170671 68 1 84
0.570013 0.046564 0.462319 68 1 84
0.469487 0.373255 0.337232 68 1 84
-0.413626 0.428133 0.328167 68 1 84
0.563190 -0.338491 0.054692 39 124 142
0.532612 -0.052843 -0.029049 68 1 84
0.126678 -0.053624 -0.288704 68 1 84
-0.558822 0.162611 0.257435 68 1 84
0.511371 -0.453418 -0.054133 36 170 130
-0.328933 0.504716 0.120386 69 6 90
0.225975 0.404420 -0.112039 66 62 133
-0.275345 0.546561 0.123848 68 1 84
-0.472033 -0.323998 -0.074803 33 141 140
0.541684 0.234581 0.345349 68 1 84
-0.177453 -0.104744 -0.219225 68 1 84
-0.374190 -0.021051 -0.176008 68 1 84
-0.452692 -0.207773 -0.102185 55 89 140
-0.464036 0.164435 -0.008224 68 1 84
-0.136803 0.592937 -0.060852 68 1 84
-0.348214 0.387330 -0.002769 71 18 101
0.149993 -0.107341 -0.249753 67 60 132
0.138856 -0.119713 -0.261675 72 28 110
-0.523114 -0.489823 -0.049609 146 215 65
0.394774 0.450342 0.146524 62 72 136
-0.092824 0.077675 -0.289832 68 1 84
0.597301 -0.125063 0.089897 68 1 84
-0.288748 0.445484 -0.026083 71 24 106
0.120645 0.235545 -0.242565 68 1 84
-0.639773 -0.318047 0.176428 40 122 142
0.248021 0.453446 -0.088804 53 93 140
-0.615382 -0.126951 0.142752 71 40 120
0.341512 0.172714 -0.127748 72 25 107
-0.110254 0.024086 -0.342108 68 1 84
0.597336 -0.110859 0.099828 68 1 84
0.524464 0.244536 0.444171 68 1 84
0.069059 -0.048837 -0.395408 68 1 84
0.316590 0.467000 0.013700 71 40 120
0.559915 0.050549 0.492778 68 1 84
-0.181430 0.318381 -0.148225 67 58 131
-0.236861 -0.270573 -0.213206 68 1 84
-0.647547 -0.193056 0.235054 61 74 137
-0.081980 -0.088516 -0.311538 68 1 84
0.529613 -0.094935 -0.050278 68 1 84
0.319025 0.525364 0.192778 60 78 138
0.400075 0.174154 -0.078281 68 1 84
0.510595 -0.112656 -0.077561 68 1 84
0.032789 -0.112473 -0.402380 68 1 84
0.599207 -0.036070 0.259267 68 1 84
0.234820 0.363600 -0.111288 57 84 139
-0.497154 -0.223083 -0.059740 40 122 142
0.633177 -0.149456 0.261330 68 1 84
0.560018 0.125137 0.435365 68 1 84
-0.410016 -0.427353 -0.206331 71 192 110
-0.354547 0.195922 -0.108697 68 1 84
0.373802 0.482344 0.212084 71 20 102
0.476417 0.343963 0.420132 68 1 84
0.183149 0.351357 -0.155996 61 75 137
0.425546 -0.441368 -0.177485 39 124 142
-0.029205 -0.050481 -0.424414 68 1 84
-0.017432 0.375349 -0.196948 68 1 84
0.460538 -0.214364 -0.101271 71 37 117
0.555913 0.096152 0.477167 68 1 84
0.390864 -0.233150 -0.136701 68 1 84
0.620053 -0.424551 0.237389 49 102 141
-0.234924 0.340180 -0.120609 70 14 97
0.173007 -0.071086 -0.230425 68 1 84
-0.171978 -0.368324 -0.226804 56 87 140
-0.357971 0.121814 -0.141077 68 1 84
-0.639955 -0.270202 0.174659 47 105 141
-0.067383 0.076179 -0.294671 68 1 84
0.491007 0.316250 0.435492 68 1 84
-0.268982 -0.052490 -0.211387 68 1 84
-0.274265 0.527659 0.049523 68 3 87
0.308342 -0.151661 -0.179250 68 1 84
0.552243 0.197580 0.368316 68 1 84
-0.577948 -0.508278 0.048352 159 217 56
-0.144779 -0.224177 -0.207681 72 32 113
-0.481219 0.029502 -0.058336 68 1 84
0.616720 -0.468589 0.229160 30 155 137
-0.109197 -0.137070 -0.258730 68 1 84
-0.619728 -0.555315 0.125804 253 231 36
-0.625485 -0.303779 0.135302 35 135 141
0.613210 -0.221472 0.134957 71 44 123
-0.671027 -0.345211 0.291623 35 137 141
