ply
format ascii 1.0
element vertex 1261
property float x
property float y
property float z
property uchar red
property uchar green
property uchar blue
end_header
-0.503186 0.185176 0.043921 67 58 131
-0.330423 0.541140 0.127150 32 143 140
-0.231107 0.482458 -0.084927 71 42 121
-0.491120 -0.229614 -0.036981 68 1 84
0.648902 -0.318960 0.371746 68 1 84
-0.558234 0.286240 0.477668 66 190 113
-0.115381 0.611818 -0.066044 69 8 91
0.545751 -0.104539 -0.008557 68 1 84
0.625897 -0.368924 0.284386 68 1 84
0.635408 -0.463280 0.334599 68 1 84
0.648759 -0.320113 0.418590 68 1 84
0.045681 -0.000630 -0.413731 68 1 84
0.527290 0.262817 0.154354 49 102 141
-0.402819 0.075438 -0.126537 70 47 124
0.357097 -0.573317 -0.203471 59 186 117
0.075571 0.029930 -0.342539 68 1 84
-0.669117 -0.283314 0.429283 68 1 84
-0.639216 -0.102797 0.343330 68 1 84
-0.701442 -0.473692 0.438176 68 1 84
0.076817 -0.191961 -0.328360 62 72 136
-0.374973 0.529109 0.212686 30 157 136
0.286685 -0.086326 -0.195231 68 1 84
0.351036 -0.487354 -0.203017 81 196 104
-0.474220 0.320822 0.082576 46 107 142
-0.638908 -0.018455 0.535212 68 57 130
-0.591267 -0.427484 0.124667 68 1 84
-0.662859 -0.263723 0.470416 68 1 84
-0.420433 -0.259894 -0.104648 70 11 94
0.442883 -0.489159 -0.131704 30 153 138
0.109361 -0.094063 -0.326052 68 1 84
0.131341 -0.269020 -0.184573 55 89 140
0.379538 0.010055 -0.158380 68 1 84
-0.675863 -0.334234 0.474902 68 1 84
0.637668 -0.162601 0.449951 68 1 84
-0.070999 -0.001176 -0.400615 68 1 84
-0.281569 0.461339 -0.053669 62 72 136
-0.246844 -0.154840 -0.177544 58 82 139
0.486002 -0.136517 -0.090013 68 1 84
0.637855 -0.244892 0.477949 68 1 84
-0.679838 -0.362685 0.507349 68 1 84
-0.347998 -0.375431 -0.182422 34 137 141
-0.081437 -0.255203 -0.311278 34 137 141
-0.456798 0.343608 0.070381 56 87 140
-0.467156 -0.408684 -0.127062 49 102 141
0.044360 0.034828 -0.372166 68 1 84
-0.420986 -0.029912 -0.131491 68 55 129
0.532626 0.310178 0.364163 31 148 139
-0.568776 0.250454 0.464148 30 158 136
-0.131691 0.115409 -0.277598 68 1 84
-0.303201 0.320482 -0.135462 68 1 84
0.590882 -0.369489 0.167667 68 1 84
0.305404 0.131511 -0.200768 68 1 84
-0.423648 0.215803 -0.058334 64 67 135
0.529929 0.099794 0.052847 71 22 105
0.279253 0.511258 -0.040378 60 77 138
0.326924 0.385331 -0.091805 71 42 121
0.443726 -0.531612 -0.131602 100 203 93
0.458365 -0.373674 -0.057771 68 57 130
-0.638237 -0.497235 0.269128 68 1 84
0.110070 0.517928 -0.194951 68 1 84
0.635496 -0.227505 0.336748 68 1 84
0.636572 -0.242482 0.456481 68 1 84
0.554734 0.241387 0.269845 45 111 142
0.511326 -0.200164 -0.046051 68 1 84
-0.610568 -0.376011 0.180501 68 1 84
0.432049 -0.162609 -0.125239 68 1 84
0.135050 -0.222136 -0.216138 50 98 141
0.284942 0.534593 0.006800 51 96 141
0.242220 0.312579 -0.190382 68 1 84
0.653408 -0.362963 0.502980 68 1 84
0.154178 0.364580 -0.233226 68 1 84
-0.573496 0.212315 0.308078 36 133 141
0.602750 0.056555 0.404692 71 43 122
-0.320263 -0.508335 -0.244366 250 230 34
0.476241 0.407399 0.344428 30 160 135
0.016526 0.320882 -0.307215 68 1 84
0.590418 0.083351 0.296905 70 45 124
-0.458314 -0.385987 -0.117588 62 73 137
-0.164726 -0.355614 -0.177209 30 155 137
0.634273 -0.128372 0.486845 68 1 84
0.134177 -0.267612 -0.183528 55 89 140
0.182192 0.315700 -0.232492 68 1 84
0.409725 0.479640 0.203229 30 154 137
-0.099898 0.059497 -0.287160 68 1 84
0.285596 -0.077303 -0.198184 68 1 84
0.591974 0.085224 0.313409 70 48 125
-0.157404 -0.408623 -0.232114 119 208 82
0.252329 0.344030 -0.176177 68 1 84
0.346851 0.040762 -0.179549 68 1 84
-0.561627 -0.269126 0.059030 68 1 84
0.038605 0.104186 -0.334402 68 1 84
0.544784 -0.012448 0.027841 68 1 84
0.450688 0.300108 0.006831 67 58 131
-0.650774 -0.161269 0.362028 68 1 84
0.595015 -0.219791 0.122373 68 1 84
0.616310 -0.098944 0.293292 68 1 84
0.328088 -0.202758 -0.164526 72 25 107
0.215645 0.569046 -0.050435 65 66 134
-0.635280 -0.186264 0.206200 68 1 84
0.123766 -0.090051 -0.291836 72 25 107
-0.524558 -0.509241 -0.061609 48 104 141
-0.616420 -0.100291 0.156186 68 1 84
-0.316089 -0.480424 -0.236181 183 221 41
0.459182 0.352079 0.068701 47 106 141
-0.245011 -0.459007 -0.243349 189 222 38
-0.211351 0.566867 -0.014242 67 58 131
0.097821 0.364546 -0.258875 68 1 84
-0.007609 0.415827 -0.227475 68 1 84
-0.040763 -0.381578 -0.299270 146 215 65
0.644060 -0.307316 0.475604 68 1 84
-0.351252 0.264960 -0.115854 70 45 124
0.617057 -0.189233 0.201646 68 1 84
-0.197377 0.374115 -0.180127 68 1 84
-0.641474 -0.206292 0.506278 68 1 84
0.043396 -0.437482 -0.289611 149 215 63
-0.500690 0.367985 0.219179 30 160 135
0.550687 0.216442 0.199744 42 118 142
-0.520308 -0.470638 -0.077013 49 101 141
-0.396536 -0.537551 -0.206562 75 194 108
0.149220 -0.036112 -0.259749 68 1 84
0.172182 0.302326 -0.240852 68 1 84
0.055309 0.457247 -0.221144 68 1 84
0.573025 0.190482 0.371903 41 120 142
0.525832 -0.176045 -0.037273 68 1 84
0.107925 0.348609 -0.267315 68 1 84
0.539499 0.188183 0.132133 54 90 140
0.093395 0.220267 -0.314499 68 1 84
-0.381971 -0.109577 -0.144422 72 25 107
-0.288858 0.004960 -0.195936 72 26 108
-0.335835 0.238867 -0.141648 71 22 105
0.244813 0.319944 -0.187467 68 1 84
-0.278813 -0.050701 -0.193208 71 38 118
-0.517511 0.379809 0.426212 50 181 122
0.049620 0.148254 -0.332656 68 1 84
0.234719 0.077529 -0.228689 68 1 84
-0.525155 -0.180848 -0.024856 68 1 84
0.441407 0.443953 0.211660 32 145 140
-0.117727 0.560063 -0.146743 68 1 84
-0.691042 -0.420085 0.501141 68 1 84
0.202907 -0.244323 -0.182973 39 124 142
0.430579 0.178876 -0.076611 71 44 123
-0.467667 0.447323 0.367465 75 194 108
-0.353586 0.299838 -0.097104 69 50 127
0.576238 -0.091020 0.071695 68 1 84
-0.100681 -0.142434 -0.320378 52 95 141
-0.540061 0.266516 0.208962 35 136 141
-0.635156 -0.073200 0.366777 68 2 85
-0.604324 0.097877 0.384759 43 116 142
0.048759 0.410937 -0.230145 68 1 84
0.544713 0.144156 0.124938 61 74 137
-0.430689 0.267854 -0.022215 51 97 141
0.320557 -0.368213 -0.162541 39 125 142
-0.606587 -0.172894 0.111526 68 1 84
-0.223802 -0.380337 -0.192932 37 171 129
0.623052 -0.550544 0.319222 68 1 84
-0.576746 0.018400 0.093999 69 5 88
0.020406 0.365055 -0.261336 68 1 84
-0.083103 -0.128732 -0.411253 54 91 140
0.104945 -0.132225 -0.310559 67 59 131
-0.700769 -0.479399 0.442130 68 1 84
-0.685362 -0.504779 0.403188 68 1 84
0.116151 0.467448 -0.199565 68 1 84
-0.036620 0.055949 -0.357824 68 1 84
-0.317879 0.310576 -0.128321 70 9 92
-0.667273 -0.424948 0.365371 68 1 84
-0.184057 -0.124439 -0.215837 64 68 135
-0.089386 -0.386123 -0.268331 85 198 102
0.259454 -0.023189 -0.218044 68 1 84
-0.173014 -0.472247 -0.278566 231 228 25
0.535706 0.303223 0.330654 31 149 139
-0.256197 -0.269357 -0.177969 49 102 141
-0.443120 -0.293749 -0.074461 70 14 97
0.469592 0.374126 0.130368 42 119 142
0.291079 0.096114 -0.208408 68 1 84
-0.099132 -0.107669 -0.376631 71 37 117
0.094138 -0.144504 -0.325630 69 50 127
-0.191423 0.033140 -0.221402 68 1 84
0.640132 -0.195103 0.511651 68 1 84
-0.288869 -0.136943 -0.168914 66 61 132
0.104513 0.040049 -0.310658 68 1 84
0.144307 0.021162 -0.255221 68 1 84
-0.092866 0.441867 -0.199104 68 1 84
-0.527435 0.335717 0.280295 33 166 133
0.052242 -0.078628 -0.480730 72 34 115
0.447346 -0.402250 -0.090996 44 113 142
-0.083511 -0.008635 -0.454909 70 14 97
-0.086157 0.610578 -0.104916 69 6 90
0.131764 0.461003 -0.193323 68 1 84
-0.441663 -0.312699 -0.076015 71 38 118
-0.560437 -0.345377 0.060707 68 1 84
-0.546201 -0.315136 0.038671 68 1 84
-0.088065 -0.134297 -0.384454 57 84 139
-0.098418 -0.125865 -0.345438 57 85 139
0.403352 0.474704 0.139979 32 143 140
-0.188813 0.567086 -0.053014 71 24 106
-0.109299 -0.425722 -0.274997 173 220 48
-0.555376 0.258488 0.273637 32 143 140
0.649194 -0.383585 0.385092 68 1 84
0.033415 0.581096 -0.185282 68 1 84
-0.441009 -0.254624 -0.083263 72 34 115
0.563933 0.125026 0.182758 61 76 137
-0.211740 -0.099076 -0.207669 58 83 139
0.353882 -0.165386 -0.158843 69 8 91
-0.420492 -0.141294 -0.121624 70 12 95
-0.368672 0.358091 -0.043837 69 52 127
0.571106 0.040125 0.152142 68 1 84
0.645527 -0.317900 0.449451 68 1 84
-0.656687 -0.128436 0.499419 68 1 84
-0.491365 -0.202812 -0.047422 68 1 84
0.621978 -0.138907 0.286049 68 1 84
-0.595528 -0.166630 0.085330 68 1 84
-0.654937 -0.240638 0.323028 68 1 84
0.525115 0.325106 0.295554 38 128 142
0.232488 -0.007381 -0.225174 68 1 84
0.320462 0.475191 -0.026954 58 82 139
0.286226 0.531188 0.002174 54 90 140
0.187557 0.104032 -0.258092 68 1 84
0.197041 -0.114727 -0.221836 71 24 106
-0.273995 0.418231 -0.093844 71 38 118
0.218749 -0.427788 -0.215437 173 220 48
-0.355180 0.081938 -0.160897 72 32 113
0.554384 -0.534667 0.120445 39 124 142
0.542784 0.027412 0.044836 68 1 84
-0.645654 -0.148175 0.304100 68 1 84
-0.094227 -0.117805 -0.384748 67 59 131
0.127778 -0.192117 -0.248303 67 60 132
0.545046 0.279302 0.312521 40 122 142
0.416622 0.192537 -0.089580 71 38 118
-0.007678 0.270575 -0.302444 68 1 84
0.621906 -0.057132 0.481913 68 1 84
0.112222 -0.146088 -0.292420 62 72 136
0.552257 -0.549667 0.114014 37 130 142
0.014068 0.198150 -0.347514 68 1 84
-0.562495 0.268397 0.374039 31 163 134
-0.317692 0.347498 -0.106996 71 17 99
0.247893 0.567666 0.022985 53 92 140
0.029330 0.217971 -0.336753 68 1 84
0.623426 -0.198092 0.232005 68 1 84
0.308516 -0.369616 -0.167239 32 145 140
-0.610780 0.085386 0.492911 66 62 133
-0.673245 -0.365831 0.421961 68 1 84
-0.175956 0.385847 -0.188824 68 1 84
-0.283596 0.559440 0.090619 43 116 142
-0.168308 0.598940 -0.000549 67 59 131
-0.201659 -0.134509 -0.204051 64 67 135
0.424510 -0.103407 -0.136248 68 1 84
0.008470 0.137564 -0.328631 68 1 84
0.428752 -0.495232 -0.148455 33 166 133
-0.587030 -0.478221 0.104498 68 1 84
0.326908 0.148197 -0.185286 68 1 84
-0.165541 -0.366691 -0.185698 31 162 134
-0.351248 0.145309 -0.153786 71 43 122
-0.595211 -0.504867 0.124699 68 2 85
0.592765 -0.264735 0.125839 68 1 84
0.064887 -0.114415 -0.451979 68 1 84
0.554291 -0.188743 0.016219 68 1 84
-0.083263 -0.354266 -0.268167 73 193 109
-0.031048 0.236253 -0.315420 68 1 84
-0.068453 -0.045503 -0.483956 72 32 113
0.174511 0.358846 -0.224201 68 1 84
0.631456 -0.334370 0.292932 68 1 84
0.631254 -0.353650 0.305563 68 1 84
-0.643212 -0.048832 0.482125 70 45 124
-0.050188 -0.139521 -0.446871 55 88 140
0.482556 -0.218865 -0.066646 68 1 84
-0.532499 0.337926 0.494017 38 172 129
0.630565 -0.270067 0.257543 68 1 84
-0.308740 0.232886 -0.168356 71 20 102
0.551903 0.254022 0.408993 40 123 142
0.582057 0.126875 0.288266 69 54 129
-0.623738 0.024189 0.428612 66 62 133
0.143361 0.352383 -0.246477 68 1 84
0.626126 -0.187579 0.259877 68 1 84
0.426991 -0.047898 -0.131263 68 1 84
0.373826 0.279360 -0.106243 71 38 118
-0.461003 0.224085 -0.005913 54 91 140
-0.467370 0.171751 -0.023196 67 59 131
-0.019367 0.487522 -0.218758 68 1 84
0.250100 -0.466760 -0.229801 165 218 53
-0.290929 -0.029211 -0.191757 70 11 94
0.526845 -0.385925 0.045367 70 12 95
0.402565 -0.293455 -0.112955 68 1 84
0.557470 0.225765 0.253112 48 103 141
-0.340948 0.139119 -0.162825 71 37 117
-0.221736 0.207583 -0.233312 68 1 84
-0.570703 0.193978 0.265752 37 131 141
-0.481015 -0.276710 -0.035796 68 1 84
0.584758 -0.025151 0.162093 68 1 84
-0.223950 0.558032 -0.011197 65 66 134
-0.586591 0.176023 0.498417 36 134 141
0.405967 0.047252 -0.135114 68 1 84
0.051719 0.442463 -0.222463 68 1 84
0.198885 0.105661 -0.252726 68 1 84
-0.539028 0.286131 0.235681 31 146 140
0.171456 -0.267502 -0.177846 49 101 141
-0.507581 -0.533173 -0.092029 51 97 141
0.099465 0.091252 -0.300022 68 1 84
-0.472487 0.177966 -0.012856 63 69 135
0.532410 0.303010 0.266703 47 105 141
0.109188 -0.111681 -0.309315 70 47 124
0.452923 0.101058 -0.072928 71 18 101
0.243147 0.139274 -0.237177 68 1 84
-0.000991 0.630439 -0.095754 72 33 114
0.377747 0.143150 -0.143743 71 17 99
-0.102601 -0.336253 -0.223729 50 181 122
0.357219 0.432511 -0.017988 60 77 138
0.141083 0.386900 -0.225491 68 1 84
-0.645881 -0.352250 0.289897 68 1 84
0.198303 0.410228 -0.175293 68 1 84
-0.014059 0.632496 -0.084604 71 44 123
-0.248679 0.292263 -0.177149 68 1 84
-0.550655 -0.329943 0.044930 68 1 84
0.223053 -0.182522 -0.186863 69 52 127
0.528045 0.312952 0.420587 31 148 139
-0.260950 0.571559 0.086543 47 105 141
0.092859 -0.320439 -0.196189 38 129 142
0.602931 0.022199 0.516786 69 50 127
0.095237 -0.111263 -0.355387 68 2 85
-0.444038 -0.414266 -0.148887 37 131 141
-0.329756 0.398367 -0.057999 69 53 128
-0.659124 -0.298605 0.343431 68 1 84
-0.245209 -0.224567 -0.174888 48 104 141
0.563384 -0.370691 0.113727 68 1 84
-0.302596 0.492845 -0.000219 62 73 137
0.302112 0.002500 -0.203772 68 1 84
-0.613237 -0.096763 0.143940 68 1 84
0.103469 -0.416221 -0.246464 191 223 36
-0.633524 -0.318272 0.234305 68 1 84
0.368907 -0.394275 -0.148105 39 126 142
0.587405 -0.356842 0.153318 68 1 84
0.589355 -0.390953 0.175016 68 1 84
0.513655 -0.061310 -0.050393 68 1 84
0.607683 -0.401939 0.233093 68 1 84
-0.380492 0.191101 -0.114855 69 53 128
0.580776 -0.035106 0.126949 68 1 84
-0.155660 -0.254762 -0.175116 46 107 142
0.645039 -0.312392 0.447012 68 1 84
-0.207448 0.344996 -0.184983 68 1 84
0.495692 -0.392633 -0.012086 66 61 132
-0.269814 0.483582 -0.045408 64 67 135
-0.564118 -0.098667 0.007080 68 1 84
0.382614 0.503450 0.191307 30 158 136
-0.608649 -0.054210 0.157218 68 1 84
0.173808 0.536125 -0.146688 68 1 84
0.309634 0.023800 -0.200870 68 1 84
-0.508861 0.378656 0.305710 40 174 127
-0.165959 -0.378665 -0.196078 31 161 135
0.540005 0.211102 0.150076 49 101 141
0.280429 0.216970 -0.212229 68 1 84
-0.018439 0.179569 -0.343233 68 1 84
-0.399047 -0.240716 -0.125297 72 33 114
-0.435382 0.485790 0.283788 30 159 136
-0.518856 0.222797 0.106073 54 91 140
-0.264501 0.483565 -0.051366 65 66 134
0.270072 0.268870 -0.195113 68 1 84
-0.409195 0.197725 -0.083346 71 39 119
0.356574 0.174718 -0.157111 71 15 98
-0.610071 0.051536 0.342158 62 73 137
0.246868 0.404532 -0.143887 68 1 84
-0.546647 0.223912 0.189390 45 111 142
-0.072308 0.482977 -0.201298 68 1 84
-0.221151 -0.057885 -0.212067 69 52 127
-0.069946 -0.196305 -0.371456 46 108 142
0.212614 -0.418051 -0.209863 85 198 102
-0.152773 0.272759 -0.229313 68 1 84
0.210519 0.437106 -0.152799 68 1 84
0.583618 -0.054938 0.124037 68 1 84
0.591987 -0.283767 0.130852 68 1 84
0.068732 0.406897 -0.229690 68 1 84
0.635954 -0.161823 0.535655 68 1 84
-0.555175 0.284927 0.335520 30 157 136
-0.100021 -0.222416 -0.277384 50 98 141
-0.157606 0.554103 -0.113855 71 21 103
0.608837 0.001433 0.364876 68 1 84
0.168512 -0.353944 -0.163987 38 127 142
0.221051 -0.486466 -0.246969 197 223 33
-0.654995 -0.314005 0.317293 68 1 84
-0.125418 -0.381094 -0.227377 62 188 115
0.227746 -0.094096 -0.214490 68 1 84
-0.296147 0.468285 -0.032390 54 90 140
0.546721 0.190590 0.159376 53 92 140
0.356323 -0.345564 -0.135446 49 102 141
0.418988 0.378998 0.021147 47 105 141
0.214126 0.169076 -0.257633 68 1 84
-0.494132 0.159351 0.011722 66 64 133
-0.528369 0.311050 0.228804 31 149 139
0.480024 0.398087 0.379093 32 143 140
-0.206656 0.323689 -0.189037 68 1 84
-0.653104 -0.102359 0.524508 68 1 84
-0.212478 -0.128239 -0.200562 65 66 134
-0.677767 -0.518091 0.380227 68 1 84
0.526541 -0.445188 0.041158 71 39 119
-0.022234 -0.121674 -0.475731 70 45 124
0.006212 -0.230164 -0.395052 41 121 142
-0.378724 0.526098 0.206434 33 167 132
0.511038 0.220893 0.072964 61 74 137
-0.612966 -0.336186 0.178316 68 1 84
0.523974 0.229737 0.111954 65 66 134
0.567813 -0.027654 0.077983 68 1 84
-0.521703 0.339343 0.254931 31 161 135
-0.074069 0.298028 -0.295489 68 1 84
0.156107 0.088824 -0.268557 68 1 84
-0.537805 0.195674 0.137005 55 88 140
-0.182039 0.209610 -0.255921 68 1 84
0.537608 0.295552 0.388137 30 153 138
-0.528582 0.087790 0.030522 64 67 135
0.186626 0.593746 -0.034892 59 81 138
-0.651522 -0.394725 0.315571 68 1 84
0.289819 -0.473133 -0.221773 131 211 75
0.503536 -0.364982 0.006900 68 1 84
-0.658902 -0.216891 0.393634 68 1 84
-0.249757 0.078230 -0.209283 70 14 97
-0.630052 -0.060978 0.326743 68 1 84
-0.016615 0.631853 -0.087586 71 44 123
-0.212879 0.582112 0.031262 56 87 140
-0.585087 0.154267 0.302772 43 116 142
-0.603790 -0.046331 0.140011 72 29 111
0.624664 -0.077573 0.511365 68 1 84
0.574921 0.163789 0.287121 51 97 141
0.276654 -0.112131 -0.191413 70 12 95
-0.651488 -0.402543 0.315041 68 1 84
0.576813 0.135938 0.492125 53 92 140
0.183962 0.478520 -0.158715 68 2 85
-0.641840 -0.367143 0.278190 68 1 84
0.535843 0.292257 0.257462 47 106 141
0.612165 -0.024820 0.364937 68 1 84
-0.633699 -0.005009 0.565727 56 86 139
-0.601576 0.048954 0.268094 62 73 137
-0.019157 -0.372452 -0.306700 121 209 81
0.508661 0.039706 -0.015999 68 1 84
0.248348 -0.519489 -0.250721 181 221 43
-0.527945 0.349746 0.347802 31 161 135
-0.618392 -0.057143 0.215362 68 1 84
0.387524 0.419985 0.013881 52 94 141
-0.267624 -0.178465 -0.169584 63 69 135
0.624532 -0.393326 0.292984 68 1 84
0.062511 0.185790 -0.339646 68 1 84
-0.278839 0.567319 0.105302 40 122 142
0.112448 0.434738 -0.206903 68 1 84
0.043278 0.324900 -0.302313 68 1 84
0.484839 -0.340909 -0.015902 68 1 84
-0.622759 -0.144824 0.162860 68 1 84
-0.300096 0.131287 -0.189535 68 1 84
-0.407219 0.508678 0.306106 31 150 139
0.546459 0.272164 0.288132 36 133 141
0.319773 0.200149 -0.185331 68 1 84
-0.112407 -0.080115 -0.362801 68 1 84
0.140169 0.322152 -0.261942 68 1 84
-0.602961 -0.062549 0.121135 70 11 94
-0.505207 0.229911 0.078147 50 99 141
0.013376 0.060591 -0.373640 68 1 84
-0.103308 0.356394 -0.251385 68 1 84
0.032121 0.333359 -0.297030 68 1 84
0.203857 0.568101 -0.074779 67 58 131
-0.622787 -0.262141 0.179227 68 1 84
-0.515588 0.369331 0.478531 69 191 111
-0.058279 0.590067 -0.162216 68 1 84
-0.511167 0.372684 0.293843 34 167 132
-0.448386 0.471677 0.299416 31 162 134
-0.143868 0.376819 -0.214700 68 1 84
-0.610126 -0.413170 0.182264 68 1 84
0.480054 0.131415 -0.024634 71 44 123
-0.204848 -0.053726 -0.217601 71 44 123
-0.398488 0.514322 0.269928 39 125 142
0.294611 0.271482 -0.181627 68 1 84
0.306509 0.323027 -0.149119 71 21 103
0.392419 0.134393 -0.131764 72 34 115
0.407153 0.326206 -0.038142 65 66 134
-0.647325 -0.500762 0.293635 68 1 84
0.071119 -0.390851 -0.255866 87 198 101
-0.443039 -0.393335 -0.133755 54 90 140
-0.603490 0.017041 0.235364 71 39 119
-0.374803 -0.448781 -0.204818 77 194 107
0.293195 0.494214 -0.041525 62 72 136
0.375529 0.149963 -0.144463 71 24 106
-0.523017 -0.345253 -0.009958 68 1 84
-0.239200 -0.287836 -0.170084 36 132 141
0.020536 0.356177 -0.270782 68 1 84
-0.154317 0.541843 -0.126991 68 1 84
0.116694 0.118809 -0.298841 68 1 84
-0.284027 0.254573 -0.181878 69 5 88
0.596243 0.081780 0.363274 65 66 134
0.486143 -0.090742 -0.088326 68 1 84
-0.379921 0.268755 -0.083199 67 60 132
0.292317 0.084496 -0.207857 68 1 84
0.555079 -0.497588 0.115910 71 42 121
0.157705 0.599093 -0.076028 71 24 106
0.610379 0.021317 0.422445 72 33 114
-0.450539 -0.372842 -0.111940 60 77 138
0.621020 -0.397144 0.280088 68 1 84
-0.454586 0.035909 -0.093159 71 20 102
-0.090911 -0.343157 -0.251604 50 181 122
0.429263 -0.036408 -0.128391 68 1 84
0.578151 -0.165497 0.067311 68 1 84
-0.116551 -0.391216 -0.245618 77 194 107
-0.089724 -0.344782 -0.254614 53 183 120
-0.668626 -0.342292 0.413512 68 1 84
-0.290163 0.287406 -0.163085 68 1 84
0.506431 0.034812 -0.021869 68 1 84
0.632302 -0.115735 0.437069 68 1 84
-0.420950 -0.220598 -0.106086 68 1 84
0.581384 0.094601 0.251296 69 53 128
-0.145412 -0.111748 -0.250247 65 65 134
-0.627033 -0.484698 0.235657 68 1 84
-0.366342 -0.204001 -0.143262 72 35 116
0.116173 -0.013673 -0.381555 68 1 84
0.211608 0.585633 0.002497 51 97 141
0.564891 -0.512700 0.149806 67 58 131
0.607317 0.035575 0.451103 70 48 125
-0.410637 0.045969 -0.126073 71 38 118
0.241889 0.144326 -0.238767 68 1 84
0.596188 -0.219978 0.125542 68 1 84
0.297370 0.427585 -0.088448 72 32 113
0.472100 0.156478 -0.027606 71 40 120
-0.086404 -0.338515 -0.259468 53 183 120
0.552732 0.226856 0.224044 43 115 142
0.001970 0.618940 -0.129957 71 18 101
0.152423 0.125391 -0.283352 68 1 84
-0.486076 0.371951 0.172951 33 142 140
0.299452 -0.073243 -0.193789 68 1 84
0.581169 -0.035004 0.128814 68 1 84
-0.420439 0.250291 -0.045040 65 65 134
-0.676909 -0.338786 0.497034 68 1 84
-0.150506 0.257982 -0.239256 68 1 84
0.360537 0.197563 -0.148243 70 11 94
0.046209 0.185904 -0.343146 68 1 84
-0.580238 -0.232407 0.078367 68 1 84
0.251461 -0.271614 -0.185974 56 87 140
-0.142943 -0.077061 -0.253760 72 32 113
-0.024854 0.115374 -0.330199 68 1 84
-0.583913 -0.011134 0.091871 68 1 84
-0.454485 -0.506643 -0.164295 32 164 133
-0.651152 -0.195297 0.306886 68 1 84
0.578997 0.126780 0.267264 65 66 134
0.530201 0.314862 0.378821 31 150 139
-0.468346 0.185736 -0.015010 65 65 134
0.036117 0.428179 -0.226359 68 1 84
0.298721 -0.443333 -0.208073 79 195 105
0.581954 0.105597 0.504639 65 66 134
-0.242971 -0.118872 -0.189524 61 74 137
-0.340288 -0.433598 -0.210232 47 179 123
-0.547865 -0.007056 0.007413 68 1 84
0.384036 0.334706 -0.062964 61 76 137
0.453389 0.321020 0.027148 61 75 137
-0.207193 -0.077536 -0.213812 69 50 127
0.141880 -0.015719 -0.317902 68 1 84
-0.050348 0.494535 -0.209120 68 1 84
-0.119653 0.051809 -0.263940 68 1 84
0.370733 0.135959 -0.151503 71 17 99
0.214339 0.575582 -0.033114 63 69 135
0.570882 -0.441467 0.148040 68 1 84
-0.141601 0.569042 -0.116882 68 1 84
-0.459336 0.012170 -0.096332 72 32 113
0.593132 0.105182 0.400046 68 55 129
-0.037501 -0.318410 -0.327083 36 170 130
0.586443 0.057083 0.246981 71 15 98
0.314689 0.542228 0.103049 38 127 142
-0.517838 0.326776 0.210417 34 139 141
0.618511 -0.104764 0.309055 68 1 84
0.595518 0.090157 0.447788 62 72 136
-0.675707 -0.366619 0.435899 68 1 84
0.486279 0.344173 0.129120 47 105 141
-0.613693 -0.274645 0.159688 68 1 84
0.383307 -0.150931 -0.150489 68 1 84
0.537994 -0.366191 0.065796 68 1 84
0.454880 -0.218229 -0.090070 68 1 84
0.065248 -0.309482 -0.252112 32 143 140
0.618166 -0.023194 0.453727 70 11 94
0.608178 0.001335 0.549660 50 99 141
-0.616400 0.057827 0.431770 61 76 137
0.153550 -0.292976 -0.168903 47 106 141
0.561553 0.031192 0.100573 68 1 84
0.503191 -0.284944 -0.010120 68 1 84
0.603326 -0.463625 0.254051 68 1 84
0.161546 0.424465 -0.190113 68 1 84
-0.646473 -0.067454 0.469446 71 39 119
0.013100 0.029995 -0.409212 68 1 84
-0.098809 -0.056873 -0.439473 72 28 110
-0.358077 0.444650 0.018951 39 124 142
0.045052 -0.509575 -0.302221 183 221 41
0.565840 0.204520 0.450366 40 122 142
0.628580 -0.318904 0.262580 68 1 84
-0.625426 -0.137477 0.177570 68 1 84
0.624261 -0.261237 0.225673 68 1 84
-0.073125 -0.184587 -0.371333 45 110 142
-0.543478 -0.371384 0.017383 68 1 84
-0.573623 0.232343 0.374926 30 153 138
-0.277047 0.019486 -0.200991 72 26 108
-0.486882 0.416623 0.441575 91 200 98
0.415656 0.259897 -0.064902 67 59 131
0.641034 -0.242872 0.424094 68 1 84
0.421169 0.153171 -0.096257 71 37 117
-0.437116 -0.131586 -0.115379 70 9 92
-0.636566 -0.371272 0.260310 68 1 84
-0.268825 -0.348103 -0.166019 33 141 140
0.205026 0.060386 -0.236062 68 1 84
-0.620487 -0.106723 0.171426 68 1 84
-0.576605 0.206666 0.511225 34 137 141
0.390521 0.497468 0.228307 30 153 138
-0.636176 -0.421419 0.265993 68 1 84
0.651512 -0.399271 0.401715 68 1 84
0.561275 0.157247 0.193635 61 75 137
-0.526797 0.049444 0.003060 71 37 117
0.047299 -0.372908 -0.277015 57 185 118
0.155512 -0.317300 -0.156584 56 86 139
0.574668 -0.332035 0.119476 68 1 84
0.236711 0.547709 -0.053709 67 59 131
-0.149052 0.021159 -0.238999 68 1 84
-0.328130 0.140748 -0.171015 70 14 97
0.614323 -0.071683 0.325547 68 1 84
0.386793 0.365108 -0.037238 62 73 137
0.419254 0.031180 -0.125761 68 1 84
-0.353260 0.516546 0.115770 33 140 141
-0.590538 -0.038259 0.092183 68 1 84
-0.105412 -0.044898 -0.427843 71 21 103
0.585455 0.136398 0.354415 60 78 138
0.598667 0.045406 0.313971 71 37 117
0.566091 0.212155 0.408035 44 114 142
-0.021891 -0.140757 -0.462770 69 54 129
0.058862 -0.226598 -0.343791 61 76 137
-0.573858 -0.138495 0.031364 68 1 84
-0.474522 0.175127 -0.011261 61 75 137
0.627222 -0.223960 0.244149 68 1 84
0.090885 -0.331216 -0.198961 36 133 141
0.651064 -0.322078 0.393417 68 1 84
0.590033 -0.012287 0.210836 68 1 84
0.265359 0.448777 -0.102165 72 26 108
-0.197966 -0.127495 -0.207699 62 72 136
0.225964 0.530419 -0.090418 70 48 125
0.621261 -0.044137 0.450959 68 1 84
-0.061739 -0.193642 -0.387958 44 112 142
-0.481912 -0.365955 -0.081068 68 57 130
0.581109 0.098131 0.252686 64 68 135
-0.309072 -0.421555 -0.217662 126 210 78
-0.593488 0.014088 0.167620 71 17 99
-0.210795 -0.497266 -0.276152 186 222 39
-0.197060 0.063705 -0.225601 68 1 84
0.468268 0.294389 0.032658 69 54 129
-0.284115 0.549038 0.065875 51 97 141
0.074479 0.002369 -0.366776 68 1 84
-0.032687 0.599643 -0.160859 68 1 84
-0.497749 0.408697 0.373759 39 173 128
0.649669 -0.342320 0.426122 68 1 84
0.463987 0.027951 -0.082282 71 17 99
-0.543601 -0.179158 -0.002926 68 1 84
-0.067826 -0.178509 -0.389274 47 106 141
0.262067 -0.201440 -0.178548 70 47 124
-0.459985 -0.274571 -0.057989 69 6 90
-0.268972 0.494790 -0.036610 67 58 131
-0.019667 0.010472 -0.481347 70 9 92
0.074121 -0.155905 -0.378063 72 30 112
0.556542 0.247158 0.355282 36 132 141
-0.227554 0.200966 -0.231874 68 1 84
0.147646 0.482924 -0.181716 68 1 84
-0.060790 -0.498459 -0.301799 199 224 31
0.276526 0.374492 -0.142045 68 1 84
-0.259439 0.128945 -0.210958 68 1 84
0.328138 -0.275333 -0.171436 72 34 115
0.523199 -0.130946 -0.047797 68 1 84
-0.380970 -0.321768 -0.126057 61 74 137
-0.645257 -0.057857 0.556023 70 12 95
-0.555460 -0.054227 0.000880 68 1 84
-0.603538 -0.327642 0.151932 68 1 84
-0.439139 0.225175 -0.034750 61 75 137
-0.078958 0.416215 -0.213817 68 1 84
0.603890 -0.550510 0.270052 70 12 95
-0.563442 0.016145 0.054662 68 1 84
-0.043123 0.302144 -0.305854 68 1 84
0.045780 -0.488049 -0.300645 241 229 28
0.625142 -0.355887 0.269554 68 1 84
-0.145265 0.406398 -0.194575 68 1 84
0.425654 0.467320 0.255209 31 149 139
-0.595276 -0.160185 0.083078 68 1 84
-0.397922 0.513678 0.256018 38 129 142
-0.075628 0.574717 -0.166365 68 1 84
0.575556 -0.363402 0.132563 68 1 84
0.410721 0.448123 0.095838 44 112 142
0.393630 0.483335 0.130447 38 129 142
0.350957 0.119116 -0.170676 70 9 92
-0.403150 -0.406500 -0.165712 37 131 141
-0.109458 -0.297236 -0.206168 30 157 136
0.067130 -0.193491 -0.349963 67 58 131
0.488612 -0.529907 -0.057553 42 176 126
-0.658578 -0.238831 0.451827 68 1 84
0.124387 -0.167152 -0.267142 70 45 124
-0.457256 -0.258831 -0.064052 68 1 84
0.551758 0.094718 0.115216 72 30 112
-0.104004 0.034543 -0.310152 68 1 84
0.140619 0.076885 -0.270908 68 1 84
-0.380221 0.040349 -0.148413 72 35 116
0.019149 -0.506808 -0.303034 79 195 105
-0.569246 0.003570 0.060204 68 1 84
0.466056 0.190114 -0.024555 68 57 130
0.440861 -0.284748 -0.075074 68 1 84
-0.555350 0.289055 0.413261 35 169 130
0.283962 0.315270 -0.167976 68 1 84
0.657466 -0.557664 0.441325 68 1 84
0.476264 -0.187564 -0.087243 68 1 84
0.238275 -0.472043 -0.235268 178 221 44
0.604196 -0.417963 0.231366 68 1 84
-0.594193 -0.394128 0.135894 68 1 84
0.592271 0.102039 0.354475 59 81 138
-0.402377 0.224322 -0.079197 66 61 132
-0.443965 -0.072065 -0.119874 69 52 127
0.471411 0.062002 -0.061445 69 5 88
-0.581495 -0.109510 0.042355 68 1 84
-0.028614 -0.474364 -0.299973 183 221 41
-0.402682 0.137522 -0.110950 71 43 122
0.656280 -0.526726 0.424684 68 1 84
0.151441 -0.231415 -0.193903 53 92 140
0.429753 -0.075343 -0.131779 68 1 84
-0.606865 -0.078870 0.127482 68 1 84
-0.641554 -0.290038 0.254583 68 1 84
-0.551592 -0.349525 0.042281 68 1 84
0.545380 -0.080281 -0.003635 68 1 84
-0.463238 -0.143127 -0.094347 68 1 84
0.521023 0.335697 0.330969 32 145 140
-0.631526 -0.068262 0.327376 68 1 84
0.190083 0.379911 -0.201522 68 1 84
-0.070041 -0.227561 -0.355171 38 128 142
-0.358627 -0.418845 -0.195679 30 160 135
0.373712 0.165794 -0.142586 71 24 106
0.415469 -0.302827 -0.096731 68 1 84
-0.440851 -0.502553 -0.175693 31 163 134
0.115753 0.017229 -0.339213 68 1 84
-0.529638 -0.523672 -0.048272 56 86 139
-0.063543 0.594437 -0.153787 68 1 84
-0.593114 0.101333 0.284895 45 110 142
0.242785 0.156247 -0.239883 68 1 84
0.125807 -0.073110 -0.310073 68 1 84
0.506432 -0.454543 -0.011690 62 73 137
-0.083294 -0.149627 -0.378414 49 102 141
0.355083 -0.437597 -0.184862 30 159 136
0.091879 0.230246 -0.302440 68 1 84
0.508313 -0.518238 -0.008451 40 122 142
-0.225228 0.131186 -0.229679 68 1 84
0.567378 -0.220346 0.055806 68 1 84
-0.348642 0.396380 -0.038191 63 69 135
-0.376287 -0.045247 -0.153993 67 58 131
-0.346267 -0.447274 -0.213838 75 194 108
-0.072363 0.622637 -0.086270 71 15 98
-0.548187 0.302436 0.332833 30 160 135
-0.377712 -0.344975 -0.139978 46 107 142
0.575992 -0.088790 0.071690 68 1 84
-0.267842 -0.291096 -0.170814 38 128 142
-0.540863 0.330477 0.434047 46 178 124
-0.614329 -0.264426 0.157960 68 1 84
-0.377197 0.308618 -0.065441 70 49 126
-0.243670 -0.169142 -0.175876 57 85 139
-0.421770 -0.054602 -0.132400 71 38 118
0.637678 -0.226719 0.514586 68 1 84
0.357089 0.239792 -0.139939 69 8 91
0.570363 0.198966 0.398594 39 124 142
0.268869 0.286735 -0.186461 68 1 84
0.586426 0.129042 0.344193 62 72 136
0.596453 0.087855 0.393029 66 62 133
0.639042 -0.553253 0.358920 71 20 102
-0.275942 -0.229826 -0.174209 56 86 139
0.545541 0.069982 0.076133 68 1 84
-0.090129 -0.003582 -0.387697 68 1 84
-0.025914 -0.303802 -0.341484 30 159 136
0.539086 0.294712 0.360908 31 149 139
0.037322 0.030972 -0.379869 68 1 84
0.658647 -0.425120 0.489194 68 1 84
-0.117503 0.616198 -0.043104 70 49 126
0.550859 -0.352519 0.087116 68 1 84
-0.531777 0.238762 0.153637 44 113 142
-0.517564 0.253596 0.125890 37 130 142
-0.472175 0.444428 0.358518 50 181 122
0.004597 -0.070662 -0.500948 71 24 106
0.458932 0.395955 0.137713 38 127 142
0.484820 -0.103704 -0.091195 68 1 84
0.592294 -0.455322 0.213079 68 1 84
0.635131 -0.225877 0.335199 68 1 84
-0.114667 -0.086386 -0.328881 72 29 111
-0.071259 0.546212 -0.187351 68 1 84
-0.662183 -0.286200 0.377871 68 1 84
-0.632363 -0.200108 0.193956 68 1 84
0.455122 0.408886 0.153879 32 143 140
-0.322555 -0.356156 -0.167840 42 117 142
-0.104854 0.258374 -0.269551 68 1 84
-0.265321 -0.530491 -0.265958 207 225 28
-0.065483 -0.137116 -0.433934 44 112 142
0.276513 -0.499337 -0.234621 105 204 91
0.499859 -0.497534 -0.035562 39 125 142
0.524507 -0.330971 0.032525 68 1 84
0.047177 -0.345853 -0.279663 56 185 118
-0.529978 -0.462897 -0.053076 66 64 133
0.298164 -0.165221 -0.173039 70 49 126
-0.178940 0.457417 -0.143452 68 1 84
-0.647827 -0.253025 0.273499 68 1 84
0.606406 0.037452 0.407796 72 32 113
0.257044 -0.407352 -0.201014 114 207 85
-0.321475 0.439684 -0.031322 52 94 141
-0.505684 -0.114736 -0.066864 68 1 84
0.443412 0.440867 0.208731 33 141 140
0.617277 -0.033673 0.512280 71 22 105
-0.141217 -0.045194 -0.285923 68 1 84
-0.003112 0.050212 -0.390730 68 1 84
-0.130524 0.027330 -0.303665 68 1 84
0.559622 -0.211894 0.036158 68 1 84
0.475324 0.412081 0.313888 30 157 136
-0.324702 0.545934 0.128921 35 135 141
-0.615384 -0.041415 0.220281 70 12 95
-0.659932 -0.306896 0.352382 68 1 84
0.595989 -0.483123 0.236269 68 1 84
-0.653699 -0.094135 0.513146 68 1 84
0.185830 0.588309 -0.056961 65 66 134
0.500078 0.361247 0.422951 34 138 141
0.660724 -0.562702 0.496798 68 1 84
0.166743 0.122398 -0.275190 68 1 84
-0.558350 -0.099327 -0.002789 68 1 84
0.137215 -0.040447 -0.325658 68 1 84
-0.630553 -0.210220 0.188917 68 1 84
0.639942 -0.274139 0.325642 68 1 84
-0.127295 0.028737 -0.306011 68 1 84
0.231115 -0.103036 -0.210687 68 1 84
-0.158691 0.586619 -0.065389 72 35 116
0.327855 0.537103 0.128219 43 115 142
0.414940 0.281039 -0.054941 69 50 127
-0.190827 -0.304034 -0.149145 37 130 142
-0.192430 0.073449 -0.230789 68 1 84
-0.343653 -0.298601 -0.156238 55 89 140
0.603687 -0.129398 0.175439 68 1 84
-0.333495 0.374076 -0.072677 70 45 124
-0.299772 0.192548 -0.184561 70 12 95
-0.097137 0.310073 -0.282525 68 1 84
0.203318 0.300863 -0.215282 68 1 84
-0.039789 0.079666 -0.339969 68 1 84
-0.630736 -0.429848 0.249509 68 1 84
-0.086570 -0.237616 -0.305686 36 133 141
0.565154 0.216877 0.391961 37 130 142
0.269345 0.493854 -0.068533 68 57 130
-0.290368 -0.369995 -0.191876 53 183 120
-0.402415 0.116189 -0.117141 71 38 118
-0.601139 -0.499684 0.143608 68 1 84
0.589861 0.113958 0.351353 57 84 139
0.648764 -0.297064 0.367662 68 1 84
-0.310456 0.410756 -0.067928 71 40 120
0.149137 0.139130 -0.288306 68 1 84
0.274554 0.499936 -0.057904 64 68 135
-0.669167 -0.440563 0.368828 68 1 84
-0.590301 0.132459 0.308641 49 102 141
-0.604664 0.039407 0.275969 66 64 133
0.033469 -0.144956 -0.452329 70 45 124
0.026066 0.215091 -0.338800 68 1 84
-0.647860 -0.243135 0.500260 68 1 84
0.563202 0.216492 0.435459 43 116 142
0.120388 0.007118 -0.352435 68 1 84
0.108289 -0.202749 -0.266741 61 75 137
-0.503801 0.368315 0.234962 32 165 133
-0.669784 -0.350590 0.414802 68 1 84
-0.549099 -0.379575 0.026867 68 1 84
-0.249496 -0.003933 -0.208443 72 34 115
0.378506 -0.172867 -0.148853 68 1 84
0.341437 0.323419 -0.118429 71 37 117
0.509715 0.355884 0.392317 34 167 132
0.520259 -0.114397 -0.051430 68 1 84
0.514022 -0.487895 0.004487 61 74 137
0.643634 -0.296426 0.342591 68 1 84
0.599459 -0.173701 0.135771 68 1 84
-0.033987 0.056868 -0.360167 68 1 84
-0.384295 -0.052887 -0.150314 69 54 129
0.609394 -0.044079 0.307425 68 1 84
0.648795 -0.333190 0.490343 68 1 84
-0.315106 -0.281024 -0.168326 50 98 141
-0.478059 0.303131 0.074821 39 125 142
-0.324993 0.495241 0.032514 50 98 141
0.554591 0.194853 0.194114 49 101 141
-0.480299 -0.516644 -0.133792 31 150 139
0.146304 0.378386 -0.228527 68 1 84
0.103090 0.567487 -0.176018 68 1 84
0.030759 0.331484 -0.298584 68 1 84
0.184633 0.586688 -0.065359 69 54 129
0.549448 -0.058257 0.013466 68 1 84
0.129562 -0.091528 -0.279566 71 22 105
-0.258616 -0.108122 -0.187155 66 64 133
0.058681 -0.260065 -0.316523 55 89 140
0.104120 0.278090 -0.284658 68 1 84
0.252081 0.105968 -0.226803 68 1 84
0.396851 0.454593 0.073698 44 113 142
0.080525 -0.155286 -0.355670 69 53 128
0.054627 -0.470709 -0.296799 241 229 28
0.072568 -0.060175 -0.465217 68 1 84
-0.397596 -0.294138 -0.117272 62 72 136
-0.567649 0.226001 0.291315 32 145 140
-0.477342 0.429493 0.432380 87 198 101
-0.456109 0.163731 -0.041856 69 50 127
-0.583281 0.055684 0.172115 70 45 124
-0.285511 0.573349 0.147813 39 125 142
-0.447611 -0.043560 -0.115576 72 34 115
-0.004270 0.394559 -0.235656 68 1 84
-0.478873 0.413548 0.242107 50 181 122
-0.124618 -0.200660 -0.248679 50 98 141
0.590900 -0.368182 0.167059 68 1 84
0.571069 0.196288 0.334447 42 119 142
0.596371 -0.180021 0.124435 68 1 84
0.360048 0.519201 0.171740 34 139 141
0.333686 -0.287551 -0.169772 67 59 131
0.148302 0.511720 -0.175939 68 1 84
-0.422455 0.432476 0.106756 40 122 142
-0.626203 -0.266283 0.190890 68 1 84
-0.216205 -0.390882 -0.199594 46 178 124
0.598891 0.068137 0.370737 71 43 122
0.561622 -0.404693 0.116913 68 1 84
-0.562744 -0.491178 0.034639 71 24 106
-0.022672 -0.404304 -0.299780 191 223 36
-0.653497 -0.093755 0.499840 68 1 84
-0.142321 -0.024570 -0.325234 68 1 84
-0.169870 0.468057 -0.146842 68 1 84
0.347754 0.464002 -0.001150 58 83 139
0.609987 -0.034291 0.331574 70 12 95
0.541633 -0.484097 0.077836 72 28 110
-0.593920 0.158023 0.435935 33 140 141
-0.255103 -0.519215 -0.267301 248 230 33
0.176764 -0.414681 -0.210927 107 205 89
-0.628075 -0.053240 0.320118 68 1 84
0.034451 -0.188834 -0.412567 65 65 134
0.397481 -0.020139 -0.148553 68 1 84
0.087729 0.566875 -0.184324 68 1 84
0.211441 -0.507144 -0.259330 238 229 27
-0.452976 -0.098482 -0.112081 71 42 121
0.294701 0.167546 -0.208056 68 1 84
-0.416276 -0.351029 -0.114360 59 81 138
-0.612661 0.073757 0.432778 45 110 142
0.014949 0.019257 -0.441342 68 1 84
0.610623 0.015901 0.411818 68 3 87
-0.271048 -0.355725 -0.170577 30 151 138
0.303190 -0.211859 -0.172111 64 67 135
-0.129651 -0.036906 -0.361429 68 1 84
0.438430 0.009357 -0.112789 68 1 84
-0.467978 0.444358 0.302496 32 165 133
-0.105529 -0.228148 -0.262794 32 145 140
0.345107 -0.130548 -0.166304 69 6 90
0.347286 0.444275 -0.021396 60 78 138
-0.600115 0.053860 0.265694 69 52 127
0.649308 -0.356189 0.385085 68 1 84
0.589829 -0.043941 0.174869 68 1 84
0.569292 -0.497386 0.159489 72 28 110
0.142965 -0.120067 -0.258217 70 49 126
-0.292767 -0.227513 -0.171727 55 88 140
-0.143111 -0.167656 -0.240016 46 107 142
0.295089 -0.163077 -0.173769 71 38 118
-0.355236 -0.463685 -0.217293 136 213 71
0.496975 -0.267826 -0.025514 68 1 84
0.516797 0.324251 0.448092 31 150 139
-0.569605 0.137631 0.202344 45 110 142
-0.674497 -0.312827 0.476638 68 1 84
0.556086 -0.310418 0.078943 68 1 84
0.490052 0.340528 0.135504 45 111 142
-0.551516 -0.229514 0.030683 68 1 84
-0.094538 0.157502 -0.312535 68 1 84
0.498159 0.037376 -0.033910 68 1 84
0.117540 0.016566 -0.340340 68 1 84
-0.452154 0.444850 0.217482 30 159 136
0.622686 -0.287604 0.223697 68 1 84
0.223835 0.516695 -0.103771 72 34 115
0.487424 0.333471 0.117841 46 109 142
0.626628 -0.175259 0.280319 68 1 84
0.508906 0.349657 0.415279 32 145 140
-0.135799 -0.385702 -0.223025 71 192 110
-0.259875 0.227996 -0.207622 68 1 84
-0.032145 0.030335 -0.418129 68 1 84
-0.290281 0.565509 0.123404 45 110 142
0.617399 -0.027610 0.478451 70 11 94
0.246827 0.193171 -0.237732 68 1 84
-0.587810 0.184027 0.451153 34 137 141
0.239653 0.570608 0.014400 53 92 140
-0.538181 0.259538 0.194163 37 131 141
-0.072026 0.006813 -0.352374 68 1 84
0.568425 -0.305542 0.097275 68 1 84
0.013751 -0.185234 -0.427308 64 67 135
0.523519 -0.235751 -0.011951 68 1 84
0.106192 0.371244 -0.250903 68 1 84
0.554638 -0.402736 0.102943 68 1 84
0.027761 -0.362228 -0.295654 57 185 118
-0.317342 0.411585 -0.060234 68 57 130
-0.036353 0.607484 -0.148290 68 1 84
-0.062177 -0.251995 -0.355174 33 142 140
0.113938 -0.153013 -0.287196 61 74 137
0.468108 -0.445517 -0.085160 46 107 142
0.268043 0.426187 -0.114063 68 1 84
0.524215 0.157481 0.070199 69 53 128
-0.400833 0.275505 -0.055555 71 43 122
0.200246 0.207186 -0.260364 68 1 84
0.552680 -0.380702 0.096365 68 1 84
-0.665894 -0.267061 0.414699 68 1 84
0.094960 -0.172287 -0.306930 67 59 131
0.632450 -0.176163 0.393912 68 1 84
0.627475 -0.289895 0.245011 68 1 84
-0.353399 0.189970 -0.141099 69 52 127
-0.084894 -0.141479 -0.385577 52 94 141
0.110306 0.023194 -0.330364 68 1 84
-0.195468 0.509798 -0.103883 72 35 116
-0.518001 0.312524 0.188782 38 128 142
-0.296281 0.505572 0.006884 51 96 141
0.616670 -0.012353 0.449056 71 20 102
0.543843 0.146174 0.123283 63 71 136
-0.045587 0.552361 -0.195710 68 1 84
0.556296 -0.003588 0.060276 68 1 84
-0.276780 0.205945 -0.200879 70 9 92
-0.644195 -0.054365 0.478375 70 48 125
0.591627 0.053729 0.273897 64 68 135
-0.419462 -0.373179 -0.131105 59 80 138
-0.320399 -0.379289 -0.199716 59 186 117
-0.139657 -0.057220 -0.270501 68 1 84
0.660285 -0.436025 0.502085 68 1 84
-0.064217 -0.124571 -0.447914 53 93 140
-0.607595 -0.151630 0.111656 68 1 84
-0.477526 0.248375 0.033712 46 107 142
-0.488711 -0.521493 -0.122903 36 132 141
-0.482214 -0.335192 -0.056020 71 38 118
0.332744 -0.375093 -0.158971 48 104 141
0.053173 -0.237316 -0.347946 57 84 139
0.452733 -0.321416 -0.050816 68 1 84
-0.698889 -0.488238 0.480309 68 1 84
-0.065891 0.482639 -0.204159 68 1 84
-0.472221 0.002578 -0.087398 72 25 107
0.368757 0.359672 -0.065297 69 52 127
-0.260395 -0.234440 -0.175574 54 90 140
-0.596557 0.119241 0.520441 66 64 133
0.647398 -0.326889 0.468189 68 1 84
-0.574121 0.131984 0.216159 44 113 142
-0.134321 0.351456 -0.236271 68 1 84
-0.113722 -0.175793 -0.278632 45 110 142
0.414550 -0.558140 -0.159360 105 204 91
-0.307318 -0.320135 -0.157963 36 132 141
-0.646691 -0.135027 0.365893 68 1 84
-0.139957 -0.050762 -0.281427 68 1 84
-0.629541 -0.115378 0.213976 68 1 84
-0.698806 -0.521917 0.472820 68 1 84
0.131342 -0.404661 -0.218307 119 208 82
-0.644987 -0.378348 0.291631 68 1 84
0.093978 0.622632 -0.086564 71 22 105
-0.626397 0.028941 0.535707 59 81 138
0.570376 0.033144 0.140826 69 8 91
0.042180 -0.122487 -0.466098 71 42 121
-0.123796 0.307807 -0.263448 68 1 84
0.129668 0.181350 -0.307733 68 1 84
-0.442466 -0.398864 -0.138463 53 93 140
0.202706 0.181811 -0.262969 68 1 84
-0.166338 0.599473 -0.003567 64 68 135
-0.101053 0.585190 -0.137011 68 2 85
0.138376 0.261633 -0.257840 68 1 84
-0.107226 -0.000685 -0.375940 68 1 84
0.037105 -0.340237 -0.294646 40 174 127
-0.650587 -0.180101 0.458273 68 1 84
-0.597700 -0.143619 0.085362 68 1 84
-0.130912 0.424561 -0.191132 68 1 84
0.132828 0.599973 -0.107190 71 18 101
0.384951 0.164259 -0.131775 71 17 99
-0.526306 -0.227652 -0.002117 68 1 84
-0.577243 -0.404471 0.089383 68 1 84
0.635642 -0.181375 0.424026 68 1 84
0.510446 -0.258594 -0.015432 68 1 84
0.197411 -0.440403 -0.227049 186 222 39
-0.613530 0.064735 0.413940 58 82 139
0.412195 0.117986 -0.115649 70 12 95
0.617214 -0.202558 0.197876 68 1 84
-0.452869 0.171556 -0.042552 69 53 128
0.640263 -0.237261 0.364097 68 1 84
-0.419462 -0.272083 -0.103437 69 53 128
0.255115 0.565971 0.033926 50 99 141
-0.104867 0.414532 -0.207714 68 1 84
-0.195385 -0.082461 -0.218087 64 67 135
-0.660187 -0.224645 0.404023 68 1 84
0.203741 -0.032078 -0.230587 68 1 84
-0.578122 -0.361042 0.096221 68 1 84
-0.609367 -0.058374 0.156807 68 1 84
0.480728 0.205282 0.004987 72 28 110
0.504527 0.112703 0.008698 71 20 102
0.559514 0.197478 0.222364 56 87 140
-0.663649 -0.448625 0.344060 68 1 84
-0.600599 0.112441 0.374763 39 126 142
-0.152846 0.112034 -0.265278 68 1 84
-0.403472 -0.239054 -0.121225 72 35 116
-0.589585 0.014443 0.146036 72 26 108
0.351502 -0.568615 -0.207582 64 189 114
0.583679 0.038177 0.219583 69 6 90
-0.499773 0.360059 0.198433 34 167 132
0.557069 0.205745 0.491393 43 116 142
-0.398191 0.132584 -0.116452 70 45 124
-0.030901 0.621890 -0.117613 69 5 88
0.622120 -0.170788 0.245412 68 1 84
-0.454273 0.462553 0.292359 44 177 125
0.033391 0.444214 -0.224826 68 1 84
-0.090580 -0.263478 -0.271968 30 154 137
-0.122139 0.403957 -0.207976 68 1 84
-0.250587 0.006469 -0.208447 72 33 114
0.511291 0.203090 0.063201 61 76 137
0.325616 0.314421 -0.137936 71 37 117
0.634055 -0.247133 0.287081 68 1 84
0.052077 -0.296577 -0.296850 30 157 136
0.408466 0.091849 -0.125603 68 1 84
0.553247 0.255985 0.356587 33 140 141
-0.160130 0.594212 -0.042468 70 48 125
0.574019 -0.546298 0.183768 64 68 135
0.636796 -0.215723 0.384619 68 1 84
-0.229591 -0.355583 -0.173328 30 153 138
-0.558602 0.183633 0.198319 44 112 142
-0.274793 -0.161742 -0.169378 51 96 141
-0.652403 -0.157156 0.400266 68 1 84
-0.257287 0.225239 -0.209908 68 1 84
-0.443784 0.042960 -0.100560 69 6 90
-0.414911 0.435256 0.095513 40 122 142
-0.151439 0.339423 -0.230171 68 1 84
0.259103 -0.454157 -0.222014 87 198 101
0.064041 -0.354542 -0.250127 35 168 131
0.527138 0.321579 0.300423 34 138 141
0.375944 0.003251 -0.160944 68 3 87
-0.055551 -0.185089 -0.403911 46 107 142
0.652585 -0.376721 0.435604 68 1 84
0.480240 -0.086349 -0.093637 68 1 84
0.260445 -0.111693 -0.197395 68 1 84
-0.584912 0.100753 0.236042 48 104 141
0.163662 -0.365084 -0.173601 31 161 135
-0.635249 -0.493046 0.258946 68 1 84
-0.124742 -0.352806 -0.202654 48 180 122
0.648484 -0.328805 0.439061 68 1 84
-0.604662 0.101419 0.400556 44 114 142
0.096124 -0.234728 -0.258360 49 100 141
0.143348 -0.038831 -0.286839 68 1 84
-0.377314 -0.027899 -0.153876 71 21 103
-0.352008 0.373336 -0.052549 61 74 137
0.273729 -0.347539 -0.168920 32 144 140
-0.116288 -0.228441 -0.243118 34 139 141
0.517540 0.329495 0.244826 33 142 140
-0.363592 0.265134 -0.102752 70 47 124
-0.131775 0.248122 -0.260978 68 1 84
-0.144604 0.365419 -0.221126 68 1 84
-0.328003 0.116505 -0.174200 68 3 87
0.522483 0.170015 0.072497 59 80 138
-0.450838 -0.087971 -0.114661 72 33 114
-0.490400 0.165885 0.008728 65 65 134
-0.193965 0.036561 -0.220931 68 1 84
0.572458 -0.540218 0.179072 61 76 137
0.513432 -0.344142 0.019151 68 1 84
0.508385 0.360165 0.365425 31 148 139
0.377346 0.283147 -0.100591 70 47 124
0.210087 -0.046821 -0.228267 68 1 84
0.590796 -0.122747 0.116092 68 1 84
-0.334989 -0.147758 -0.154495 69 52 127
0.535226 -0.387134 0.062026 68 1 84
-0.456893 -0.519155 -0.160007 31 149 139
-0.225202 0.349840 -0.170740 68 1 84
-0.099276 -0.037523 -0.442501 72 25 107
0.157166 0.604407 -0.058435 70 47 124
-0.614319 -0.129021 0.134543 68 1 84
-0.629861 -0.164871 0.187864 68 1 84
-0.173286 -0.488607 -0.284710 241 229 28
0.396728 0.481478 0.136786 33 141 140
-0.236971 0.016111 -0.211991 71 37 117
-0.522608 -0.225061 -0.007091 68 1 84
-0.424512 -0.221848 -0.103108 68 2 85
0.416801 -0.106903 -0.140354 68 1 84
-0.110776 -0.177262 -0.283077 43 116 142
0.254002 0.557199 0.001856 59 81 138
-0.339227 0.175714 -0.156564 72 33 114
0.578052 0.088592 0.225674 71 38 118
0.227749 -0.214327 -0.182501 71 44 123
-0.538037 -0.431050 -0.025569 68 1 84
0.622523 -0.402361 0.290259 68 1 84
0.582048 -0.281306 0.109000 68 1 84
0.106303 -0.038915 -0.408181 68 1 84
0.477877 0.145751 -0.022793 69 50 127
0.156938 0.601934 -0.068082 71 42 121
0.507805 0.325802 0.172653 42 119 142
-0.388868 -0.299406 -0.124009 58 83 139
-0.087289 -0.005917 -0.443635 68 3 87
0.385605 -0.012432 -0.155607 68 3 87
-0.173918 -0.446600 -0.260254 199 224 31
0.430854 0.453409 0.192830 30 157 136
-0.677985 -0.350102 0.479697 68 1 84
0.417013 0.273475 -0.056174 70 47 124
-0.648472 -0.380551 0.304417 68 1 84
0.213380 -0.378846 -0.182375 85 198 102
-0.534326 -0.373638 -0.004272 68 3 87
0.555153 0.230792 0.246056 49 101 141
-0.334083 -0.431239 -0.211653 64 189 114
0.253827 0.348097 -0.173773 68 1 84
-0.235508 0.199329 -0.227590 68 1 84
-0.218222 0.401957 -0.147418 68 1 84
-0.383290 -0.243461 -0.138755 71 38 118
-0.237496 -0.430656 -0.227792 165 218 53
-0.283466 0.575016 0.150948 38 129 142
0.436889 0.309222 -0.007985 70 49 126
0.237538 -0.253759 -0.184214 52 94 141
0.379981 -0.281764 -0.135879 69 5 88
0.286651 -0.162850 -0.175351 71 38 118
-0.042393 0.021709 -0.453059 68 1 84
-0.160082 0.255313 -0.236564 68 1 84
-0.453194 0.467223 0.334734 39 173 128
-0.563020 -0.137083 0.010557 68 1 84
-0.614438 -0.099162 0.148040 68 1 84
-0.453657 0.386653 0.110279 41 120 142
-0.300782 0.126963 -0.189450 68 1 84
0.077281 -0.009385 -0.416723 68 1 84
-0.636682 -0.092830 0.333293 68 1 84
-0.094681 -0.289999 -0.242927 33 166 133
0.614566 -0.015068 0.398011 68 1 84
0.133209 -0.011901 -0.354235 68 1 84
-0.167013 0.594255 -0.026606 68 55 129
-0.468989 0.442184 0.401427 85 198 102
-0.376741 0.482292 0.095503 35 136 141
-0.364286 0.219232 -0.120642 69 52 127
0.662112 -0.463484 0.471582 68 1 84
0.235156 -0.399011 -0.197929 98 202 95
-0.514968 -0.400537 -0.062170 71 39 119
-0.625149 -0.492857 0.227212 68 1 84
-0.180633 0.564054 -0.071582 72 33 114
-0.535376 0.326995 0.307997 33 167 132
0.141442 0.164339 -0.298094 68 1 84
-0.499543 -0.331771 -0.034315 72 34 115
0.364850 -0.520457 -0.200771 57 185 118
0.149177 0.481824 -0.180994 68 1 84
-0.008580 -0.240049 -0.390554 39 126 142
0.256070 0.486916 -0.088149 71 42 121
-0.589379 0.098181 0.256605 54 90 140
0.467951 -0.389699 -0.055637 71 42 121
0.613048 -0.062987 0.324819 70 14 97
-0.105696 -0.127687 -0.315688 60 78 138
-0.483529 0.281862 0.068298 46 108 142
0.153292 0.535601 -0.163464 68 1 84
0.015520 0.033705 -0.401766 68 1 84
0.407486 -0.041173 -0.143699 68 1 84
-0.018407 0.548370 -0.203896 68 1 84
0.265727 0.444646 -0.104316 71 21 103
0.622851 -0.304628 0.230117 68 1 84
0.478714 -0.544569 -0.072798 69 191 111
-0.672924 -0.405867 0.398150 68 1 84
0.274714 0.228240 -0.212186 68 1 84
-0.136244 -0.335469 -0.181239 30 155 137
0.388785 0.019393 -0.151415 68 1 84
-0.651632 -0.097099 0.466032 68 1 84
0.377123 0.269692 -0.106906 71 40 120
0.386321 0.210495 -0.117969 72 26 108
0.473656 -0.546603 -0.081812 62 188 115
-0.064139 -0.244224 -0.357214 33 140 141
-0.153387 0.540288 -0.128879 68 1 84
0.351073 0.106868 -0.172226 69 6 90
0.026083 0.519004 -0.217489 68 1 84
-0.641477 -0.085047 0.406620 70 9 92
-0.510946 0.160063 0.043601 60 77 138
0.109536 0.108564 -0.299072 68 1 84
0.609920 -0.007040 0.364638 68 1 84
-0.263475 0.480958 -0.054850 66 64 133
-0.557659 -0.289665 0.057249 68 1 84
-0.020811 0.571207 -0.190740 68 1 84
-0.311883 0.038258 -0.186993 71 17 99
0.357729 0.508966 0.101132 40 123 142
0.300418 -0.376924 -0.170747 30 152 138
0.354255 0.522407 0.161143 34 139 141
0.000493 -0.409166 -0.298271 107 205 89
0.314335 0.487379 -0.022136 54 91 140
0.265551 0.001290 -0.217614 68 1 84
0.170669 -0.433064 -0.227331 183 221 41
-0.545145 -0.230271 0.022007 68 1 84
0.568966 -0.158411 0.041952 68 1 84
0.547653 -0.496426 0.094885 72 32 113
-0.638613 -0.267033 0.233558 68 1 84
-0.674891 -0.321329 0.443470 68 1 84
