ply
format ascii 1.0
element vertex 1285
property float x
property float y
property float z
property uchar red
property uchar green
property uchar blue
end_header
-0.623604 -0.286454 0.115465 68 1 84
0.093001 -0.071056 -0.246859 36 134 141
0.030851 -0.119229 -0.336370 39 173 128
-0.107571 0.240627 -0.257263 69 191 111
0.622465 -0.491290 0.210728 68 1 84
0.012279 0.058763 -0.305073 107 205 89
-0.702042 -0.305854 0.366655 68 1 84
-0.565425 0.082714 0.492666 68 1 84
0.020880 -0.499447 -0.300302 68 1 84
0.558734 0.225498 0.471116 68 1 84
-0.273897 -0.129572 -0.169380 71 44 123
-0.595828 -0.004867 0.500789 68 1 84
0.464051 0.419745 0.278981 68 1 84
0.373725 0.019279 -0.147934 68 1 84
0.551037 0.201009 0.133894 68 1 84
0.101222 -0.055060 -0.236588 38 129 142
0.155495 0.097610 -0.231498 34 139 141
-0.107433 0.629522 -0.084203 68 1 84
0.405344 0.359080 -0.029210 68 1 84
-0.620301 -0.398676 0.087306 68 1 84
-0.606713 -0.225289 0.093883 68 1 84
-0.571053 -0.176949 0.036642 68 1 84
0.563312 -0.425162 0.080452 68 1 84
-0.170477 -0.177850 -0.203435 51 97 141
-0.196196 0.168324 -0.220382 30 155 137
-0.414834 -0.168707 -0.123720 68 1 84
0.406931 0.029623 -0.123035 68 1 84
0.565621 -0.175060 0.073451 68 1 84
-0.517016 0.154763 0.061100 68 1 84
0.617267 -0.087466 0.342467 68 1 84
0.007489 0.302704 -0.285666 91 200 98
0.696474 -0.525104 0.425630 68 1 84
-0.549526 -0.105695 0.000164 68 1 84
-0.234860 0.111211 -0.196688 45 111 142
0.626740 -0.188612 0.359855 68 1 84
-0.318027 -0.434294 -0.220067 68 1 84
0.358165 -0.045125 -0.158572 68 1 84
-0.502160 0.264653 0.111264 68 1 84
-0.103789 0.160336 -0.269996 71 192 110
0.068971 0.627251 -0.131140 68 1 84
0.683100 -0.599655 0.367537 68 1 84
0.468327 0.007905 -0.065369 68 1 84
-0.458801 0.387914 0.185084 68 1 84
-0.653173 -0.355127 0.179361 68 1 84
-0.064845 -0.123714 -0.396632 48 104 141
-0.745171 -0.452175 0.442662 68 1 84
0.622885 -0.106791 0.409427 68 1 84
-0.129924 -0.158222 -0.283559 30 155 137
0.355112 -0.337530 -0.142083 68 1 84
0.515787 0.342883 0.302050 68 1 84
-0.339270 -0.416537 -0.222195 68 1 84
-0.298605 -0.270398 -0.186426 70 12 95
0.469934 -0.371557 -0.037861 68 1 84
-0.707435 -0.484047 0.291124 68 1 84
-0.522332 0.209683 0.468127 68 1 84
-0.232513 0.577646 0.040701 68 1 84
-0.617181 -0.477744 0.057486 68 1 84
0.510885 0.351468 0.195023 68 1 84
0.097965 0.369363 -0.229105 50 98 141
0.287764 0.533373 -0.049424 68 1 84
-0.396294 0.081864 -0.123846 68 1 84
-0.463210 0.383934 0.216376 68 1 84
0.420464 -0.440210 -0.127187 68 1 84
0.485749 0.389751 0.161074 68 1 84
0.079866 -0.041464 -0.306630 32 145 140
-0.585424 0.035677 0.306986 68 1 84
-0.449196 0.266929 0.002574 68 1 84
0.470271 0.159850 -0.035157 68 1 84
0.571460 -0.115439 0.111359 68 1 84
-0.568451 -0.166867 0.032065 68 1 84
0.605099 -0.315441 0.149021 68 1 84
-0.193160 -0.270637 -0.174756 71 18 101
0.558666 0.227927 0.467425 68 1 84
0.372800 0.018242 -0.148600 68 1 84
-0.669439 -0.192642 0.367044 68 1 84
0.511357 0.177646 0.032308 68 1 84
0.208570 0.565502 -0.129847 68 1 84
0.550056 0.273817 0.389211 68 1 84
0.561684 -0.044714 0.100888 68 1 84
0.064417 0.003009 -0.345358 33 166 133
0.590485 -0.338349 0.116544 68 1 84
0.457084 -0.173441 -0.095457 68 1 84
0.547575 -0.517002 0.062033 68 1 84
-0.576975 -0.037671 0.093818 68 1 84
-0.508904 0.069169 -0.001435 68 1 84
0.204043 0.460273 -0.150798 68 1 84
0.443947 0.287795 -0.020931 68 1 84
-0.648411 -0.382335 0.164455 68 1 84
-0.211358 -0.497458 -0.289659 72 34 115
-0.553237 0.138563 0.439442 68 1 84
0.255309 0.057376 -0.203194 63 71 136
0.591850 -0.410290 0.130452 68 1 84
0.212430 0.361520 -0.175517 57 84 139
0.484693 -0.419508 -0.034736 68 1 84
-0.277269 -0.022188 -0.183282 49 100 141
-0.000559 0.038266 -0.322400 124 210 79
0.597903 -0.361953 0.134240 68 1 84
0.167370 0.208884 -0.236774 39 126 142
-0.378982 0.107897 -0.132076 71 20 102
0.603252 -0.096581 0.263719 68 1 84
-0.325235 -0.424964 -0.219512 68 1 84
0.442862 -0.007878 -0.094849 68 1 84
-0.264769 0.435272 -0.065960 68 1 84
0.525430 0.326206 0.310773 68 1 84
-0.292879 -0.432195 -0.216854 68 1 84
-0.434940 0.254142 -0.027093 68 1 84
-0.385428 0.469174 0.288087 68 1 84
-0.352325 -0.344000 -0.191163 68 1 84
-0.582743 0.046550 0.328346 68 1 84
-0.709501 -0.412433 0.322544 68 1 84
-0.557672 0.137913 0.402991 68 1 84
0.632631 -0.472758 0.237752 68 1 84
-0.663927 -0.377937 0.203818 68 1 84
-0.573351 0.074715 0.255711 68 1 84
-0.150640 -0.357852 -0.200002 68 2 85
0.015915 -0.402183 -0.254829 68 55 129
0.031607 -0.510893 -0.302869 69 6 90
-0.245325 0.117276 -0.194583 39 126 142
0.056754 -0.143089 -0.279412 33 140 141
0.026486 -0.146973 -0.317776 31 161 135
0.100278 -0.014991 -0.244847 31 149 139
0.501855 0.054576 -0.011629 68 1 84
0.466960 -0.358944 -0.039510 68 1 84
-0.040309 -0.429164 -0.289389 69 52 127
0.093664 -0.479534 -0.276177 71 15 98
0.639419 -0.259088 0.356254 68 1 84
0.035572 0.441443 -0.224739 56 86 139
-0.181804 0.054710 -0.199156 38 129 142
0.264465 -0.370579 -0.194898 68 1 84
-0.071248 0.426374 -0.197478 70 49 126
-0.373207 0.488441 0.152207 68 1 84
0.553676 -0.520685 0.074260 68 1 84
0.677437 -0.378327 0.446688 68 1 84
-0.600844 -0.455015 0.026204 68 1 84
-0.255953 -0.420613 -0.212231 68 1 84
-0.098533 0.137368 -0.270368 47 179 123
-0.745559 -0.451500 0.447323 68 1 84
-0.065282 0.044234 -0.354122 197 223 33
-0.230940 0.410377 -0.101662 68 1 84
0.197287 -0.237835 -0.186868 68 1 84
-0.135116 0.036051 -0.308377 129 211 76
0.393016 -0.389185 -0.120058 68 1 84
-0.643037 -0.325863 0.155139 68 1 84
-0.047963 0.354942 -0.242668 30 153 138
0.177916 0.479675 -0.169061 70 12 95
-0.391731 0.011193 -0.135599 71 22 105
0.604224 0.082312 0.414184 68 1 84
-0.535420 0.197667 0.168929 68 1 84
0.259988 0.343493 -0.147429 71 39 119
-0.082358 0.418970 -0.194531 63 71 136
0.694756 -0.525256 0.380264 68 1 84
-0.743275 -0.416371 0.482924 68 1 84
-0.479409 -0.403150 -0.154275 68 1 84
-0.440077 -0.085779 -0.114820 68 1 84
-0.331396 -0.242815 -0.183419 71 38 118
-0.460895 -0.373513 -0.152239 68 1 84
-0.429639 0.161430 -0.075179 68 1 84
0.025978 -0.084471 -0.385154 47 179 123
-0.518600 0.075013 0.018674 68 1 84
0.546045 -0.251508 0.030894 68 1 84
-0.203490 0.502514 -0.089240 68 1 84
0.123635 0.057970 -0.225436 40 123 142
-0.435634 0.111834 -0.082699 68 1 84
-0.355662 -0.493170 -0.259937 68 1 84
0.108826 0.159696 -0.266539 87 198 101
-0.432748 0.413023 0.319200 68 1 84
-0.342309 -0.175394 -0.154357 68 1 84
-0.187474 0.557881 -0.080606 68 1 84
0.628439 -0.164743 0.467917 68 1 84
-0.610386 -0.119541 0.143105 68 1 84
-0.472539 -0.152352 -0.088085 68 1 84
0.239319 0.116594 -0.208801 62 72 136
0.464028 0.210252 -0.028462 68 1 84
0.497805 -0.003762 -0.030304 68 1 84
-0.341602 0.097464 -0.157733 70 48 125
0.577799 0.192729 0.380233 68 1 84
-0.281803 -0.124385 -0.168282 71 39 119
-0.282316 0.486756 -0.016854 68 1 84
0.289218 -0.501756 -0.250687 68 1 84
-0.150928 0.479667 -0.138231 68 1 84
-0.184778 0.382674 -0.154756 53 93 140
0.290052 -0.292007 -0.184118 68 1 84
0.099042 0.330624 -0.259699 42 176 126
0.092130 0.630663 -0.119954 68 1 84
0.577244 -0.337351 0.092373 68 1 84
0.531570 -0.164737 -0.002328 68 1 84
-0.677675 -0.203887 0.421151 68 1 84
0.156588 -0.212212 -0.187586 71 38 118
0.585400 0.072808 0.215841 68 1 84
-0.203167 -0.022311 -0.200489 32 144 140
-0.548233 -0.063149 0.008781 68 1 84
-0.679967 -0.208643 0.421980 68 1 84
-0.549449 -0.411140 -0.070175 68 1 84
0.680187 -0.427282 0.435479 68 1 84
0.075956 -0.503863 -0.297938 71 18 101
-0.028657 0.642624 -0.084473 68 1 84
-0.150756 0.006431 -0.332138 119 208 82
-0.486718 -0.317205 -0.079943 68 1 84
0.612170 -0.018172 0.420108 68 1 84
-0.431220 0.196040 -0.061640 68 1 84
-0.485708 0.045056 -0.046591 68 1 84
0.597413 0.055970 0.481324 68 1 84
-0.242990 -0.469121 -0.267598 68 1 84
-0.152026 0.056009 -0.211943 30 156 137
0.610757 -0.128079 0.292382 68 1 84
0.198173 -0.482110 -0.252918 68 1 84
-0.283120 0.414672 -0.068098 68 1 84
0.174752 -0.221295 -0.187127 71 24 106
0.439604 -0.173233 -0.109612 68 1 84
0.563157 -0.322689 0.067801 68 1 84
0.345620 -0.456840 -0.205987 68 1 84
-0.136881 0.479846 -0.149922 68 1 84
-0.416696 -0.313229 -0.159581 68 1 84
-0.015034 0.118438 -0.297903 116 208 84
-0.371061 0.476680 0.313354 68 1 84
-0.716828 -0.328599 0.417481 68 1 84
0.237152 0.198689 -0.208861 57 85 139
-0.458485 -0.322527 -0.125212 68 1 84
0.615377 -0.278085 0.186661 68 1 84
-0.276216 0.564876 0.167691 68 1 84
-0.104788 0.110248 -0.260693 85 198 102
-0.486052 0.002390 -0.061327 68 1 84
0.445757 0.364433 0.025616 68 1 84
-0.132223 0.474208 -0.154607 68 1 84
0.604590 -0.099034 0.270133 68 1 84
0.331959 -0.384675 -0.189618 68 1 84
0.151774 0.281305 -0.239336 31 147 139
-0.349167 0.467994 0.048265 68 1 84
0.079144 -0.010315 -0.330534 31 150 139
-0.037206 0.538973 -0.204256 60 78 138
-0.031672 0.321479 -0.277378 71 192 110
0.435177 -0.531973 -0.130511 68 1 84
0.585488 0.094451 0.223497 68 1 84
0.317940 0.141026 -0.172779 71 17 99
-0.450179 0.036890 -0.087640 68 1 84
-0.406182 -0.343556 -0.196272 68 1 84
0.370324 -0.272006 -0.131793 68 1 84
-0.119187 0.468647 -0.164263 68 1 84
0.343744 0.523935 0.028466 68 1 84
-0.498894 -0.414878 -0.146668 68 1 84
-0.507252 0.231967 0.494707 68 1 84
-0.131755 -0.137390 -0.289729 31 150 139
-0.241736 0.025046 -0.194299 35 136 141
-0.408681 -0.470405 -0.223527 68 1 84
0.302209 0.452825 -0.077610 68 1 84
0.576662 0.189294 0.428417 68 1 84
0.640816 -0.263830 0.339635 68 1 84
-0.646899 -0.388388 0.159648 68 1 84
-0.408805 -0.206200 -0.123493 68 1 84
-0.416573 0.383936 0.054766 68 1 84
-0.553589 0.137107 0.440544 68 1 84
0.202252 0.614113 -0.062259 68 1 84
-0.278570 0.260168 -0.157902 61 75 137
0.547112 -0.307659 0.040973 68 1 84
0.266077 -0.289023 -0.194176 68 1 84
-0.310062 0.024644 -0.175890 65 66 134
-0.392179 0.448357 0.352676 68 1 84
-0.052463 0.282295 -0.271122 44 177 125
0.379325 -0.248501 -0.131564 68 1 84
-0.668101 -0.281751 0.232393 68 1 84
0.496560 0.369375 0.156228 68 1 84
-0.616017 -0.054210 0.432013 68 1 84
-0.567499 0.080774 0.483494 68 1 84
0.526805 0.123420 0.049954 68 1 84
0.577111 -0.008264 0.169189 68 1 84
0.571892 -0.036249 0.143848 68 1 84
-0.052060 0.642542 -0.080859 68 1 84
0.439871 -0.175332 -0.109367 68 1 84
-0.494409 0.330347 0.218675 68 1 84
-0.695128 -0.362136 0.301155 68 1 84
-0.350341 -0.496879 -0.264763 68 1 84
0.001606 0.132107 -0.296304 197 223 33
-0.428073 0.146367 -0.081277 68 1 84
0.165056 -0.256525 -0.187992 72 35 116
-0.440210 0.416292 0.229720 68 1 84
-0.056910 0.231261 -0.281865 124 210 79
-0.592181 -0.110030 0.094057 68 1 84
-0.479865 0.101654 -0.031812 68 1 84
0.467190 -0.109547 -0.083670 68 1 84
-0.586626 0.043050 0.407145 68 1 84
0.476964 0.014953 -0.053621 68 1 84
0.126503 -0.478012 -0.263333 68 1 84
0.370667 0.073354 -0.147137 68 1 84
0.575289 -0.236220 0.090227 68 1 84
0.266100 0.178721 -0.198232 71 43 122
0.091742 -0.211151 -0.209445 65 65 134
0.356998 0.479501 -0.006710 68 1 84
-0.596050 -0.000877 0.295388 68 1 84
-0.523815 0.234764 0.410071 68 1 84
0.290140 -0.127972 -0.178047 69 8 91
0.645252 -0.438186 0.271437 68 1 84
0.005736 -0.007884 -0.409686 105 204 91
-0.571211 0.021316 0.136636 68 1 84
0.362472 -0.386595 -0.156781 68 1 84
0.575235 0.203097 0.372163 68 1 84
0.621347 -0.081317 0.430325 68 1 84
0.117999 -0.475602 -0.263504 68 1 84
0.557347 -0.461912 0.075480 68 1 84
-0.354323 -0.495159 -0.261952 68 1 84
-0.451627 0.359867 0.092125 68 1 84
-0.503729 -0.147969 -0.061680 68 1 84
-0.650412 -0.214774 0.196266 68 1 84
-0.032318 0.116945 -0.298009 91 200 98
0.600159 -0.078392 0.254712 68 1 84
-0.260238 -0.172839 -0.170617 71 18 101
-0.475694 0.363884 0.276814 68 1 84
0.290076 0.506587 -0.065749 68 1 84
-0.574715 -0.038922 0.085405 68 1 84
0.201998 -0.557041 -0.302673 68 1 84
-0.165265 0.594661 -0.071959 68 1 84
-0.480106 0.355640 0.294143 68 1 84
-0.282570 0.499268 -0.005231 68 1 84
-0.233897 0.196838 -0.202894 39 124 142
0.402062 0.496714 0.141530 68 1 84
-0.437006 0.205320 -0.050637 68 1 84
-0.558006 -0.440187 -0.059700 68 1 84
0.085878 0.629450 -0.123444 68 1 84
-0.472618 -0.483826 -0.186140 68 1 84
0.053580 0.629534 -0.127983 68 1 84
0.491542 0.385953 0.215237 68 1 84
0.075489 -0.524189 -0.303865 68 1 84
-0.602198 -0.016464 0.353527 68 1 84
0.453003 -0.238996 -0.085953 68 1 84
0.143331 0.362733 -0.217617 57 85 139
0.213099 -0.463682 -0.246613 68 1 84
0.606421 0.036112 0.371351 68 1 84
0.166386 0.159459 -0.240673 34 137 141
-0.089404 0.254613 -0.247143 34 167 132
0.524724 0.306179 0.148868 68 1 84
-0.356030 0.472108 0.065540 68 1 84
-0.185655 -0.412432 -0.224262 68 1 84
0.270474 0.545672 -0.065186 68 1 84
0.550123 0.273858 0.386614 68 1 84
-0.558616 0.032787 0.093211 68 1 84
0.202126 0.243051 -0.193678 65 66 134
0.207008 0.524461 -0.145938 68 1 84
-0.534928 -0.412378 -0.097707 68 1 84
-0.338664 0.521356 0.158962 68 1 84
-0.133302 -0.137402 -0.285733 33 142 140
-0.026792 -0.250153 -0.321797 49 100 141
-0.165401 -0.169870 -0.212724 44 112 142
-0.009731 0.307529 -0.283264 109 206 88
0.294121 0.379600 -0.110537 68 1 84
-0.358927 0.462961 0.057177 68 1 84
0.585147 -0.013447 0.202099 68 1 84
0.587520 0.038098 0.217281 68 1 84
-0.689650 -0.249380 0.377326 68 1 84
0.202321 0.037149 -0.211090 56 87 140
0.571841 -0.296133 0.080303 68 1 84
-0.698805 -0.221831 0.473669 68 1 84
-0.620662 -0.087406 0.542903 68 1 84
-0.740325 -0.463574 0.403413 68 1 84
-0.245140 -0.381420 -0.200227 68 1 84
-0.402243 0.447130 0.316544 68 1 84
0.481279 -0.102571 -0.068239 68 1 84
0.688717 -0.480709 0.438384 68 1 84
0.224702 0.184783 -0.216560 45 110 142
0.682547 -0.521060 0.341185 68 1 84
-0.630366 -0.452844 0.096678 68 1 84
0.363063 0.275208 -0.115839 68 1 84
0.566572 -0.415729 0.084488 68 1 84
-0.024340 0.005147 -0.421054 46 178 124
0.636462 -0.266504 0.416752 68 1 84
-0.300908 0.196368 -0.161025 57 85 139
0.464401 -0.091839 -0.085114 68 1 84
0.436347 -0.328632 -0.068693 68 1 84
0.535452 0.307504 0.346111 68 1 84
0.101993 0.638560 -0.092159 68 1 84
-0.547605 0.180566 0.367743 68 1 84
0.555229 0.245564 0.449728 68 1 84
0.500353 0.307856 0.076614 68 1 84
0.450158 0.442227 0.155915 68 1 84
-0.298840 -0.435657 -0.218686 68 1 84
-0.643956 -0.159574 0.519798 68 1 84
-0.713175 -0.431783 0.314909 68 1 84
-0.044260 0.325983 -0.272203 57 185 118
-0.329952 0.227722 -0.134556 70 14 97
0.451407 0.388634 0.055986 68 1 84
0.644856 -0.316740 0.297377 68 1 84
-0.417935 0.268075 -0.040903 68 1 84
0.300411 -0.532733 -0.259224 68 1 84
-0.224577 -0.400068 -0.203514 68 1 84
0.314174 0.560685 0.048210 68 1 84
-0.562963 -0.382042 -0.033612 68 1 84
-0.384789 -0.493835 -0.247304 68 1 84
-0.562225 0.082295 0.516856 68 1 84
-0.516706 0.280959 0.323599 68 1 84
-0.499364 0.323169 0.256644 68 1 84
-0.128601 -0.332683 -0.212440 72 32 113
0.608285 -0.001546 0.342359 68 1 84
0.608824 -0.004091 0.464834 68 1 84
-0.172362 0.163515 -0.231964 34 138 141
0.425638 0.050497 -0.104537 68 1 84
0.033574 0.024333 -0.305134 61 187 116
-0.208726 0.586423 0.011337 68 1 84
-0.687426 -0.327521 0.302786 68 1 84
0.377853 -0.046420 -0.147903 68 1 84
0.263666 -0.519367 -0.269683 68 1 84
0.096141 0.027189 -0.228398 34 137 141
0.165365 0.617022 -0.108904 68 1 84
-0.690520 -0.221540 0.439990 68 1 84
0.182016 0.377266 -0.189340 54 91 140
0.357410 -0.500510 -0.215688 68 1 84
-0.540409 0.179262 0.428712 68 1 84
0.620520 -0.212944 0.250976 68 1 84
0.121883 0.384283 -0.214320 63 69 135
-0.097788 0.516692 -0.178696 71 43 122
-0.159202 0.167167 -0.238788 31 149 139
-0.232575 0.588246 0.111515 68 1 84
-0.107843 -0.286646 -0.259302 48 104 141
0.470696 -0.536101 -0.072400 68 1 84
-0.568811 0.042962 0.153197 68 1 84
-0.473555 0.311352 0.477270 68 1 84
-0.561225 -0.248899 0.026525 68 1 84
-0.183778 -0.439596 -0.254644 72 32 113
-0.375163 -0.312583 -0.162643 68 1 84
-0.096561 -0.149115 -0.361158 40 122 142
0.688999 -0.572759 0.379040 68 1 84
-0.653893 -0.463364 0.161450 68 1 84
0.543038 0.123695 0.085141 68 1 84
-0.542826 0.207483 0.311186 68 1 84
-0.536820 0.141303 0.115515 68 1 84
-0.630376 -0.112589 0.489361 68 1 84
-0.745193 -0.440522 0.453528 68 1 84
0.192586 -0.245559 -0.187209 68 1 84
-0.438256 -0.177827 -0.107864 68 1 84
-0.506474 -0.302096 -0.047715 68 1 84
0.593828 0.122335 0.440892 68 1 84
0.462403 0.217483 -0.027993 68 1 84
0.518333 -0.097665 -0.018054 68 1 84
-0.248494 -0.124413 -0.176386 65 65 134
0.648996 -0.300167 0.454529 68 1 84
-0.016763 0.638206 -0.103862 68 1 84
0.690923 -0.496032 0.421645 68 1 84
-0.418603 0.414584 0.383759 68 1 84
0.638769 -0.329695 0.246302 68 1 84
-0.575899 -0.429270 -0.024054 68 1 84
0.562281 -0.092594 0.086054 68 1 84
-0.700181 -0.431719 0.288103 68 1 84
-0.338776 -0.345731 -0.188323 68 1 84
-0.619332 -0.058746 0.404958 68 1 84
-0.103300 0.023583 -0.363369 107 205 89
0.328706 0.520986 -0.001453 68 1 84
-0.001668 -0.293386 -0.275857 46 109 142
0.619689 -0.286443 0.196540 68 1 84
0.052182 0.280850 -0.278266 91 200 98
-0.702074 -0.467856 0.284703 68 1 84
-0.333356 0.413758 -0.027169 68 1 84
-0.435597 0.408727 0.134586 68 1 84
-0.672430 -0.202108 0.370028 68 1 84
-0.384376 -0.148904 -0.140018 68 1 84
-0.489693 -0.404255 -0.147759 68 1 84
0.432574 0.019751 -0.101551 68 1 84
0.440769 0.323535 -0.006425 68 1 84
-0.202320 0.276310 -0.169353 54 90 140
-0.549321 0.057976 0.082092 68 1 84
0.083698 0.271337 -0.269771 71 192 110
-0.164507 0.521289 -0.123259 68 1 84
-0.141769 0.328755 -0.215270 32 164 133
0.598573 0.095775 0.342365 68 1 84
0.078275 0.033998 -0.292332 30 160 135
-0.273885 0.286136 -0.146604 49 100 141
-0.059457 0.017408 -0.416577 100 203 93
0.572575 0.060662 0.164188 68 1 84
-0.175772 -0.381904 -0.201870 68 1 84
0.152038 0.400155 -0.196636 61 75 137
-0.589230 0.016486 0.272975 68 1 84
0.152795 -0.206200 -0.189400 72 34 115
-0.531140 -0.179553 -0.022081 68 1 84
0.560264 -0.032033 0.100392 68 1 84
0.450316 -0.455345 -0.099229 68 1 84
-0.006800 0.232477 -0.284434 121 209 81
0.597576 -0.479349 0.156703 68 1 84
0.562223 -0.099072 0.084282 68 1 84
-0.031601 -0.331409 -0.289699 54 90 140
-0.164011 0.000938 -0.261267 73 193 109
-0.407352 -0.377998 -0.196108 68 1 84
-0.549606 0.103031 0.528039 68 1 84
0.347463 -0.446517 -0.204350 68 1 84
0.609080 -0.067674 0.302973 68 1 84
0.236779 0.313665 -0.172295 70 45 124
-0.353414 0.287942 -0.097048 67 60 132
-0.073873 -0.181690 -0.361850 49 101 141
-0.075522 0.608185 -0.140406 68 3 87
-0.543935 -0.010439 0.022803 68 1 84
0.587236 0.140795 0.277362 68 1 84
-0.418597 0.425941 0.120438 68 1 84
0.446753 0.448867 0.171505 68 1 84
0.337667 0.512008 0.000911 68 1 84
0.155612 0.572271 -0.162884 70 11 94
0.084958 0.488099 -0.219258 60 77 138
0.580165 0.154425 0.461849 68 1 84
0.506297 -0.532705 -0.014002 68 1 84
0.560269 0.238643 0.224090 68 1 84
-0.531773 0.248369 0.284585 68 1 84
-0.036679 0.058526 -0.356621 202 224 30
0.261343 0.218879 -0.191879 56 87 140
-0.652587 -0.400282 0.172531 68 1 84
-0.282972 0.454377 -0.040911 68 1 84
-0.597759 -0.074334 0.143603 68 1 84
0.104831 0.608262 -0.153188 70 11 94
-0.142699 -0.071212 -0.294168 30 157 136
0.202460 -0.071158 -0.205428 49 100 141
0.102164 -0.321172 -0.177292 68 1 84
-0.681731 -0.279173 0.317147 68 1 84
-0.417397 0.431692 0.313998 68 1 84
-0.278534 0.427206 -0.062643 68 1 84
-0.573072 -0.062266 0.065105 68 1 84
-0.115854 0.245607 -0.247517 31 162 134
0.012319 -0.206822 -0.301356 35 137 141
0.064688 -0.078283 -0.299077 30 153 138
0.292559 0.538318 -0.036517 68 1 84
0.363619 0.409438 -0.045607 68 1 84
-0.349824 0.504061 0.117198 68 1 84
0.238719 -0.260763 -0.188293 68 1 84
-0.145831 0.014749 -0.337601 139 213 70
-0.238191 -0.155194 -0.174717 66 61 132
-0.559805 0.140923 0.320579 68 1 84
0.401963 0.011225 -0.128258 68 1 84
0.547312 0.282663 0.297327 68 1 84
-0.202916 0.600398 0.062180 68 1 84
-0.628966 -0.221168 0.138201 68 1 84
-0.275710 -0.341949 -0.191453 68 1 84
-0.295918 0.305133 -0.127602 56 86 139
-0.508338 -0.393819 -0.124739 68 1 84
0.563545 -0.448690 0.084493 68 1 84
-0.340745 -0.099159 -0.154715 71 18 101
0.627528 -0.386048 0.210923 68 1 84
-0.256358 0.438377 -0.069968 68 1 84
-0.452373 0.183348 -0.039289 68 1 84
-0.169025 0.589824 -0.073169 68 1 84
0.529722 -0.432863 0.027182 68 1 84
0.556463 -0.482391 0.076385 68 1 84
-0.640771 -0.142031 0.225090 68 1 84
0.015334 0.338534 -0.265237 59 186 117
0.019120 0.017358 -0.327078 44 177 125
0.622016 -0.091895 0.416680 68 1 84
0.575544 -0.597901 0.127694 68 1 84
0.466537 -0.335841 -0.041570 68 1 84
-0.522096 -0.229566 -0.019090 68 1 84
0.117704 -0.231241 -0.188225 70 47 124
0.525537 0.171725 0.056363 68 1 84
0.007507 0.213490 -0.303653 253 231 36
0.420762 0.337341 -0.023314 68 1 84
0.371066 -0.293845 -0.128419 68 1 84
-0.376522 0.298015 -0.070739 71 42 121
0.502459 -0.300078 -0.016582 68 1 84
0.350641 -0.479110 -0.210422 68 1 84
0.023769 0.375382 -0.227106 53 92 140
0.619102 -0.202114 0.255541 68 1 84
0.678378 -0.389514 0.448709 68 1 84
0.656937 -0.317798 0.419271 68 1 84
-0.123840 -0.055006 -0.394520 31 162 134
0.377035 0.517232 0.106195 68 1 84
-0.514278 0.180725 0.534061 68 1 84
0.624362 -0.393737 0.206783 68 1 84
0.174242 0.394008 -0.186857 65 65 134
0.256262 -0.225080 -0.181170 68 2 85
-0.489556 -0.362842 -0.119886 68 1 84
-0.062132 -0.341735 -0.289714 46 108 142
0.625058 -0.183268 0.420308 68 1 84
0.292694 0.540462 -0.033682 68 1 84
0.088046 0.235251 -0.252498 40 174 127
0.003795 -0.357932 -0.255506 55 88 140
-0.562342 -0.159662 0.021562 68 1 84
0.609773 -0.098640 0.297635 68 1 84
0.155690 -0.382068 -0.205903 68 1 84
-0.127494 -0.229643 -0.241295 43 115 142
0.481650 -0.057702 -0.061452 68 1 84
0.602705 0.021811 0.311528 68 1 84
-0.141358 0.005457 -0.351210 81 196 104
0.161875 0.062268 -0.218429 37 130 142
0.512882 -0.351973 0.004897 68 1 84
0.644019 -0.338886 0.287172 68 1 84
-0.611810 -0.073758 0.201783 68 1 84
0.501912 0.233612 0.033252 68 1 84
0.388033 -0.079704 -0.142297 68 1 84
0.636007 -0.338468 0.231006 68 1 84
0.676534 -0.463942 0.383202 68 1 84
-0.462183 0.087137 -0.060429 68 1 84
-0.040153 -0.066358 -0.427026 39 124 142
-0.538302 0.167019 0.147095 68 1 84
-0.674619 -0.266585 0.268198 68 1 84
-0.119579 0.471518 -0.163757 68 1 84
0.614582 -0.053293 0.354925 68 1 84
-0.589395 0.017305 0.277536 68 1 84
-0.727589 -0.404056 0.389032 68 1 84
0.156556 0.559579 -0.168916 71 21 103
-0.002383 0.403794 -0.216969 65 65 134
-0.665611 -0.191711 0.497827 68 1 84
0.129540 0.180282 -0.260179 46 178 124
-0.461772 -0.526797 -0.195189 68 1 84
0.183391 0.609866 -0.104570 68 1 84
-0.588400 -0.188430 0.065715 68 1 84
-0.714169 -0.244185 0.508119 68 1 84
0.208748 0.167052 -0.224431 52 94 141
-0.430973 -0.405828 -0.182080 68 1 84
0.621885 -0.199701 0.277592 68 1 84
-0.524569 0.269147 0.274857 68 1 84
-0.654128 -0.373213 0.180208 68 1 84
0.125650 0.593274 -0.161049 71 38 118
0.649770 -0.412830 0.287537 68 1 84
-0.042438 -0.008820 -0.434352 48 180 122
0.599002 0.105872 0.431979 68 1 84
0.497018 -0.519802 -0.030337 68 1 84
0.593783 0.119190 0.446130 68 1 84
0.433010 0.325333 -0.014934 68 1 84
0.565619 0.199073 0.474707 68 1 84
-0.592539 -0.300144 0.058123 68 1 84
-0.510982 -0.165220 -0.050159 68 1 84
-0.486246 -0.264728 -0.052035 68 1 84
0.168841 0.143913 -0.237956 35 137 141
-0.225038 0.222382 -0.202726 33 140 141
-0.618451 -0.056401 0.406473 68 1 84
0.238855 0.094768 -0.207776 64 68 135
0.592973 -0.004615 0.236172 68 1 84
-0.116260 0.042591 -0.290619 141 214 68
0.606613 0.028053 0.365146 68 1 84
-0.520992 -0.374073 -0.096368 68 1 84
-0.056374 0.050192 -0.369368 191 223 36
0.556077 -0.028272 0.085719 68 1 84
0.453206 0.198561 -0.046253 68 1 84
-0.285238 0.556036 0.111448 68 1 84
-0.449122 0.135109 -0.060454 68 1 84
0.522168 0.180396 0.052081 68 1 84
-0.662326 -0.170309 0.424526 68 1 84
-0.601309 -0.005946 0.391290 68 1 84
-0.201706 0.584564 -0.010094 68 1 84
-0.289585 0.149341 -0.176653 59 81 138
-0.031214 -0.119252 -0.393388 35 136 141
0.464825 0.222154 -0.023111 68 1 84
-0.334747 0.160707 -0.150936 72 29 111
0.692675 -0.579590 0.417448 68 1 84
-0.254353 0.501054 -0.034940 68 1 84
-0.386776 0.158397 -0.116032 68 1 84
0.083787 -0.497137 -0.293235 70 9 92
-0.616836 -0.395887 0.079187 68 1 84
0.321521 0.456023 -0.060016 68 1 84
-0.288192 0.542386 0.067243 68 1 84
-0.010195 -0.079385 -0.414428 33 142 140
-0.674538 -0.378286 0.229008 68 1 84
-0.447671 -0.302013 -0.108105 68 1 84
0.256754 0.469792 -0.109615 68 1 84
-0.102924 0.632628 -0.079023 68 1 84
-0.147189 -0.017304 -0.349468 43 177 125
-0.537926 0.107379 0.085851 68 1 84
-0.259190 -0.089089 -0.178900 63 69 135
-0.354077 0.506738 0.224507 68 1 84
0.577042 0.191510 0.417904 68 1 84
-0.643643 -0.310089 0.157493 68 1 84
0.455005 -0.112414 -0.095181 68 1 84
-0.346589 -0.328240 -0.170995 68 1 84
-0.433950 0.230326 -0.042459 68 1 84
0.608882 -0.061341 0.303981 68 1 84
0.622360 -0.104074 0.391403 68 1 84
-0.617574 -0.068195 0.460480 68 1 84
0.412207 0.467285 0.078513 68 1 84
-0.646563 -0.264550 0.168818 68 1 84
0.152386 0.248935 -0.223684 32 145 140
-0.431886 -0.190076 -0.110178 68 1 84
0.132647 0.034404 -0.213913 48 103 141
0.312680 0.439981 -0.074381 68 1 84
-0.176091 0.574288 -0.082918 68 1 84
-0.503170 0.288802 0.399289 68 1 84
0.631764 -0.273224 0.246248 68 1 84
0.584414 0.086596 0.216190 68 1 84
-0.478006 -0.226416 -0.066527 68 1 84
-0.392900 0.467868 0.254487 68 1 84
0.544981 0.276998 0.202275 68 1 84
-0.346524 0.420906 -0.005100 68 1 84
-0.157017 -0.062544 -0.243625 30 155 137
-0.247879 0.370422 -0.113231 65 65 134
-0.544391 0.132518 0.498569 68 1 84
-0.481345 -0.478235 -0.177643 68 1 84
0.586587 0.153878 0.421116 68 1 84
-0.305007 0.533443 0.081844 68 1 84
-0.020857 0.546325 -0.205228 64 67 135
-0.068528 -0.503054 -0.303489 71 42 121
-0.042855 -0.518366 -0.303830 70 12 95
-0.001070 0.025664 -0.378877 162 218 55
-0.635132 -0.093176 0.371344 68 1 84
0.551723 0.021106 0.084776 68 1 84
-0.143438 -0.078271 -0.281796 33 167 132
0.059558 0.449450 -0.224825 53 93 140
-0.265879 0.363137 -0.108285 68 57 130
-0.402766 0.400675 0.050683 68 1 84
0.550971 -0.082761 0.053766 68 1 84
0.286072 -0.468598 -0.235072 68 1 84
-0.656652 -0.180798 0.248540 68 1 84
-0.708134 -0.242084 0.456955 68 1 84
0.597691 -0.134630 0.214519 68 1 84
-0.547636 0.153806 0.181707 68 1 84
-0.562374 0.122816 0.401257 68 1 84
0.599691 0.054608 0.467129 68 1 84
0.288674 -0.013266 -0.190860 70 9 92
0.492194 -0.003064 -0.037612 68 1 84
0.025063 0.369031 -0.231997 35 137 141
0.404506 0.028841 -0.125126 68 1 84
0.093798 0.578511 -0.179854 67 60 132
-0.416065 -0.247579 -0.123784 68 1 84
0.189428 -0.459263 -0.242327 68 1 84
-0.511235 0.252460 0.442790 68 1 84
0.546700 -0.570254 0.063851 68 1 84
0.596323 0.066608 0.287411 68 1 84
-0.136576 -0.084859 -0.316823 34 167 132
-0.144754 -0.487092 -0.295061 68 57 130
0.375923 0.431379 -0.018488 68 1 84
0.579286 0.102469 0.199679 68 1 84
0.383524 0.429839 -0.009921 68 1 84
-0.226083 -0.481127 -0.280180 71 24 106
0.588317 -0.021612 0.214663 68 1 84
0.078701 -0.123856 -0.260005 44 112 142
0.550568 0.112475 0.102100 68 1 84
0.509563 0.350488 0.340451 68 1 84
-0.675312 -0.402709 0.229062 68 1 84
-0.108092 0.134568 -0.263273 40 174 127
0.694033 -0.511842 0.420039 68 1 84
0.020184 -0.351510 -0.228703 55 88 140
0.191606 0.450581 -0.159907 71 15 98
0.691947 -0.587088 0.420161 68 1 84
-0.140657 0.437288 -0.155288 68 2 85
-0.639484 -0.141421 0.482530 68 1 84
-0.419872 0.318875 -0.000055 68 1 84
-0.745574 -0.438546 0.460169 68 1 84
-0.178588 0.602984 -0.014893 68 1 84
-0.634973 -0.216260 0.153013 68 1 84
0.468588 0.044517 -0.058927 68 1 84
0.170603 0.066825 -0.217675 41 120 142
0.545037 0.287890 0.300895 68 1 84
-0.600756 -0.013106 0.313957 68 1 84
0.658981 -0.420969 0.315529 68 1 84
-0.127338 -0.310356 -0.210652 72 26 108
-0.076938 0.018429 -0.407885 85 198 102
-0.647920 -0.358134 0.165562 68 1 84
0.084024 0.613927 -0.150580 69 6 90
0.013589 -0.091629 -0.391324 32 165 133
0.421864 0.258794 -0.060803 68 1 84
-0.389753 -0.508129 -0.247592 68 1 84
-0.251162 0.043060 -0.193152 40 122 142
-0.596979 -0.047773 0.176230 68 1 84
0.359576 -0.451525 -0.197201 68 1 84
0.291730 0.204483 -0.179837 70 48 125
0.202524 0.513735 -0.150762 68 1 84
-0.523495 0.263213 0.325012 68 1 84
-0.088903 -0.109385 -0.394578 40 123 142
0.340995 -0.093955 -0.164150 68 1 84
-0.514521 -0.350114 -0.084304 68 1 84
0.057329 0.166532 -0.292684 191 223 36
-0.182994 0.480415 -0.111996 68 1 84
0.584944 0.149868 0.271311 68 1 84
0.570287 0.221418 0.366106 68 1 84
-0.084567 0.030990 -0.386478 162 218 55
0.494681 0.379420 0.256365 68 1 84
0.498141 0.347675 0.119625 68 1 84
0.681408 -0.431477 0.446742 68 1 84
0.385525 0.260228 -0.100254 68 1 84
-0.355543 -0.022669 -0.154153 71 42 121
-0.180957 0.327088 -0.182635 39 125 142
-0.584787 0.038408 0.313874 68 1 84
0.197418 -0.492435 -0.261943 68 1 84
-0.393701 0.351756 -0.007477 68 1 84
0.497948 -0.425764 -0.018928 68 1 84
0.346525 -0.295651 -0.147955 68 1 84
0.490044 -0.151261 -0.061670 68 1 84
-0.548229 0.065886 0.084692 68 1 84
-0.464773 0.380617 0.262198 68 1 84
-0.253073 -0.121436 -0.175496 65 66 134
-0.539676 0.119487 0.103934 68 1 84
0.632536 -0.222915 0.495516 68 1 84
-0.675852 -0.240278 0.305620 68 1 84
-0.685985 -0.247369 0.359371 68 1 84
0.640852 -0.508305 0.246279 68 1 84
0.132206 0.348632 -0.231093 36 132 141
0.398050 0.068671 -0.127654 68 1 84
-0.536107 0.232700 0.294987 68 1 84
0.079705 0.639340 -0.094451 68 1 84
-0.515671 0.287688 0.233395 68 1 84
0.352781 0.011277 -0.161590 68 1 84
-0.103434 0.451078 -0.176735 71 24 106
0.208686 0.283593 -0.195471 48 103 141
0.069948 -0.095579 -0.277621 30 153 138
0.631394 -0.237304 0.456737 68 1 84
0.008461 0.253843 -0.260318 32 165 133
-0.537186 0.223465 0.230099 68 1 84
0.069533 0.436970 -0.221823 66 61 132
-0.523212 0.024764 0.001881 68 1 84
0.077958 0.218329 -0.276463 197 223 33
0.176754 0.617050 -0.097315 68 1 84
-0.691197 -0.225103 0.435617 68 1 84
0.585404 -0.431666 0.121326 68 1 84
-0.618232 -0.065812 0.524520 68 1 84
-0.461424 -0.436772 -0.185095 68 1 84
-0.143848 -0.060512 -0.300785 37 171 129
0.254437 0.137973 -0.204204 70 45 124
0.611652 -0.413035 0.181299 68 1 84
-0.405363 0.458904 0.223410 68 1 84
0.028056 -0.312914 -0.220326 60 77 138
0.556965 0.259848 0.335627 68 1 84
0.547618 -0.022018 0.059927 68 1 84
-0.254369 -0.202731 -0.172485 72 30 112
-0.127310 0.170280 -0.257271 53 183 120
-0.404249 -0.227906 -0.128822 68 1 84
-0.567908 -0.417477 -0.037002 68 1 84
0.034390 -0.066134 -0.389140 41 175 127
-0.165278 0.456048 -0.130238 68 1 84
0.642455 -0.284523 0.482316 68 1 84
-0.449552 0.388631 0.136176 68 1 84
0.592937 0.117910 0.453159 68 1 84
-0.634657 -0.386579 0.128251 68 1 84
0.207670 -0.246468 -0.187856 68 1 84
0.502449 -0.431600 -0.013564 68 1 84
0.625198 -0.517314 0.213528 68 1 84
0.630995 -0.459676 0.238375 68 1 84
0.580845 -0.272317 0.099324 68 1 84
-0.510853 0.088552 0.011807 68 1 84
0.460691 0.346766 0.034665 68 1 84
-0.596231 -0.020617 0.226687 68 1 84
0.279504 -0.465817 -0.237094 68 1 84
-0.191049 -0.325558 -0.171747 68 1 84
0.179381 0.084556 -0.220060 35 136 141
-0.519309 0.264946 0.354854 68 1 84
-0.710457 -0.306504 0.410552 68 1 84
0.580530 0.182574 0.375285 68 1 84
-0.579472 0.057707 0.305131 68 1 84
0.608543 0.010042 0.384142 68 1 84
0.622306 -0.258188 0.220632 68 1 84
-0.084691 -0.202588 -0.344198 39 125 142
-0.112651 -0.320169 -0.240993 62 72 136
0.391928 0.289784 -0.081479 68 1 84
0.345502 0.527427 0.038602 68 1 84
-0.590480 0.017540 0.298134 68 1 84
-0.548433 -0.320286 -0.012280 68 1 84
-0.045910 0.050789 -0.380299 167 219 51
-0.164674 0.165175 -0.235867 31 150 139
-0.551386 0.174748 0.268907 68 1 84
0.263725 -0.397326 -0.224294 68 1 84
-0.330981 0.287033 -0.114390 65 66 134
0.093109 -0.473066 -0.269300 69 6 90
-0.481270 -0.257578 -0.057209 68 1 84
0.042766 0.640181 -0.104044 68 1 84
-0.726326 -0.468198 0.334130 68 1 84
-0.643014 -0.334919 0.154545 68 1 84
-0.473243 0.333192 0.420426 68 1 84
-0.298101 0.204069 -0.160409 64 67 135
0.015133 -0.214838 -0.292246 40 122 142
-0.240444 0.447366 -0.076387 68 1 84
0.546616 -0.021267 0.057290 68 1 84
0.390624 0.370142 -0.039139 68 1 84
-0.009329 -0.224795 -0.320849 43 115 142
0.333221 0.067361 -0.170607 68 1 84
0.577539 -0.009514 0.170765 68 1 84
-0.636199 -0.220317 0.154371 68 1 84
-0.571339 -0.095903 0.046476 68 1 84
-0.087363 0.594562 -0.148716 68 1 84
0.264272 -0.039398 -0.196149 69 50 127
0.057045 0.597530 -0.171714 72 25 107
0.053812 0.021522 -0.314692 75 194 108
-0.680877 -0.281282 0.311672 68 1 84
-0.479932 0.356017 0.205026 68 1 84
0.672683 -0.335510 0.423965 68 1 84
-0.641954 -0.232200 0.164008 68 1 84
0.559100 -0.173627 0.055772 68 1 84
0.210228 -0.191473 -0.186457 72 28 110
0.513234 -0.022986 -0.011377 68 1 84
0.243785 -0.282954 -0.196884 69 6 90
-0.658313 -0.283852 0.199333 68 1 84
-0.437704 0.419079 0.237979 68 1 84
0.563653 0.239126 0.284973 68 1 84
-0.557426 0.149287 0.268909 68 1 84
-0.677382 -0.477253 0.221598 68 1 84
-0.654431 -0.141718 0.315753 68 1 84
-0.421754 0.424882 0.127749 68 1 84
0.523760 -0.054956 0.000309 68 1 84
-0.543042 0.150003 0.476484 68 1 84
0.121568 -0.311784 -0.180652 68 1 84
-0.070876 0.639528 -0.081400 68 1 84
0.280452 0.236858 -0.176140 63 69 135
-0.229582 0.045412 -0.195397 35 135 141
0.564791 0.221231 0.219985 68 1 84
0.051788 0.242945 -0.257564 35 169 130
-0.532249 0.153586 0.513483 68 1 84
-0.708535 -0.312476 0.395211 68 1 84
0.623810 -0.113000 0.427551 68 1 84
-0.078721 0.428013 -0.194185 69 53 128
-0.631005 -0.094127 0.270789 68 1 84
0.304785 0.251930 -0.159744 72 30 112
-0.415798 0.198512 -0.078354 68 1 84
0.294917 0.567616 0.018904 68 1 84
-0.552260 0.163879 0.371743 68 1 84
0.203025 -0.469343 -0.246512 68 1 84
0.473804 -0.387473 -0.037005 68 1 84
-0.068009 0.437990 -0.198457 72 34 115
-0.678362 -0.258845 0.305913 68 1 84
-0.348978 -0.464498 -0.237230 68 1 84
-0.385666 0.466371 0.301616 68 1 84
-0.440929 -0.235270 -0.098267 68 1 84
-0.136786 0.428560 -0.161244 72 26 108
-0.314997 -0.143412 -0.160281 71 15 98
0.365307 0.530596 0.124144 68 1 84
0.526397 0.239789 0.085345 68 1 84
0.243383 -0.112711 -0.191406 50 99 141
-0.126877 0.306876 -0.235063 32 165 133
0.330894 -0.411443 -0.215153 68 1 84
0.438530 0.409520 0.054131 68 1 84
-0.086537 0.581625 -0.159692 71 24 106
0.424048 0.437611 0.059171 68 1 84
0.288416 0.313883 -0.142456 72 35 116
-0.523302 0.196612 0.487268 68 1 84
-0.205407 0.330863 -0.160353 52 95 141
0.436896 0.424877 0.069347 68 1 84
0.472294 0.200644 -0.020650 68 1 84
0.428604 -0.502507 -0.143717 68 1 84
-0.154926 0.360627 -0.187719 44 112 142
-0.185580 -0.353002 -0.184033 68 1 84
0.027557 0.134008 -0.293497 157 217 58
-0.274204 -0.135836 -0.168705 69 54 129
0.355823 0.384653 -0.066137 68 1 84
0.223035 0.260308 -0.182530 67 59 131
-0.363842 0.495114 0.250514 68 1 84
0.622339 -0.104855 0.387009 68 1 84
0.500454 -0.144132 -0.048506 68 1 84
0.144788 0.266949 -0.236992 32 145 140
-0.543968 0.002064 0.031349 68 1 84
-0.250710 0.544177 0.003412 68 1 84
-0.067071 0.531539 -0.194284 72 34 115
0.498196 0.372687 0.182153 68 1 84
0.555855 0.033775 0.101020 68 1 84
-0.536424 0.080443 0.060707 68 1 84
0.316968 0.552226 0.029326 68 1 84
-0.650186 -0.155469 0.250533 68 1 84
-0.351582 -0.095976 -0.151772 72 28 110
0.457830 0.141394 -0.056839 68 1 84
-0.490068 -0.500978 -0.168179 68 1 84
0.458214 0.057183 -0.069485 68 1 84
0.643572 -0.291507 0.301874 68 1 84
-0.329467 0.515802 0.093828 68 1 84
0.399362 0.501251 0.166795 68 1 84
-0.430699 -0.308093 -0.137431 68 1 84
-0.079506 0.142603 -0.284105 87 198 101
-0.362590 0.501629 0.188326 68 1 84
-0.142841 0.375462 -0.186976 46 109 142
-0.158432 0.576895 -0.104168 68 1 84
0.458771 -0.272280 -0.070149 68 1 84
-0.034129 0.575958 -0.185440 69 53 128
-0.347958 -0.365804 -0.236760 68 1 84
0.098884 -0.007867 -0.273394 38 129 142
0.567804 0.149966 0.170686 68 1 84
0.323249 0.557275 0.063087 68 1 84
0.642583 -0.305220 0.281872 68 1 84
-0.216101 0.082364 -0.197823 36 132 141
0.209979 -0.531871 -0.293024 68 1 84
-0.265593 -0.174568 -0.169934 71 42 121
-0.083318 0.215935 -0.286370 144 214 67
-0.190435 -0.217328 -0.177418 67 59 131
0.646870 -0.309133 0.326412 68 1 84
0.071227 0.444096 -0.222776 60 78 138
-0.625072 -0.391630 0.102049 68 1 84
-0.417184 -0.363246 -0.190308 68 1 84
-0.038156 -0.262520 -0.320583 44 114 142
-0.537723 0.174797 0.152853 68 1 84
0.370005 0.019042 -0.150389 68 1 84
-0.635245 -0.103494 0.277593 68 1 84
0.600147 0.096433 0.359612 68 1 84
0.647354 -0.551894 0.259780 68 1 84
-0.596913 -0.134487 0.096346 68 1 84
0.543163 -0.232537 0.023607 68 1 84
0.631627 -0.539498 0.224673 68 1 84
0.191127 0.616483 -0.077315 68 1 84
0.015906 0.355317 -0.244801 36 133 141
-0.501750 -0.362117 -0.107753 68 1 84
0.528797 0.165283 0.060885 68 1 84
-0.184791 0.101456 -0.210969 33 142 140
-0.503384 -0.483619 -0.153641 68 1 84
0.428143 0.253366 -0.055620 68 1 84
0.660878 -0.567948 0.297835 68 1 84
-0.185216 0.321683 -0.180058 48 104 141
-0.501518 -0.484037 -0.155967 68 1 84
-0.506387 0.273327 0.422936 68 1 84
-0.361917 -0.381269 -0.223377 68 1 84
0.682610 -0.514590 0.343078 68 1 84
0.355317 0.529828 0.066639 68 1 84
-0.640002 -0.442450 0.127500 68 1 84
0.367078 0.526189 0.099691 68 1 84
-0.412102 0.065711 -0.113968 68 1 84
-0.083390 0.634640 -0.088597 68 1 84
-0.512400 -0.321883 -0.058413 68 1 84
0.549237 0.058783 0.088114 68 1 84
0.119416 0.249184 -0.241358 31 146 140
0.536873 -0.397965 0.036735 68 1 84
0.389661 0.193827 -0.116220 68 1 84
-0.211027 0.330468 -0.155317 53 92 140
0.076720 0.022160 -0.312349 36 170 130
0.581816 -0.236006 0.105805 68 1 84
0.505265 0.198309 0.027626 68 1 84
0.619666 -0.171813 0.303688 68 1 84
-0.192283 -0.246699 -0.176322 69 53 128
0.658780 -0.436917 0.302238 68 1 84
-0.382496 0.463454 0.327272 68 1 84
0.562460 0.178382 0.164710 68 1 84
-0.552352 0.147891 0.422063 68 1 84
0.316658 -0.246100 -0.162892 68 1 84
0.461538 0.346681 0.035916 68 1 84
-0.355297 -0.476378 -0.246578 68 1 84
-0.205347 0.597350 0.047968 68 1 84
-0.069122 0.377587 -0.218849 37 131 141
0.484977 0.396409 0.207859 68 1 84
0.370710 -0.236940 -0.138915 68 1 84
-0.473813 0.000537 -0.075225 68 1 84
0.298069 -0.388982 -0.212830 68 1 84
-0.158494 0.006032 -0.306302 114 207 85
-0.675121 -0.455362 0.223584 68 1 84
-0.718794 -0.371203 0.384804 68 1 84
-0.593347 0.016190 0.447091 68 1 84
-0.297557 0.019783 -0.180390 47 105 141
0.066778 -0.167567 -0.254006 44 112 142
0.400429 0.474504 0.063053 68 1 84
-0.649068 -0.127848 0.317313 68 1 84
0.384329 0.021741 -0.140569 68 1 84
0.245692 -0.472278 -0.245950 68 1 84
0.487518 0.163817 -0.008663 68 1 84
-0.274058 -0.025972 -0.183889 53 93 140
-0.122783 -0.257465 -0.233567 58 82 139
-0.312995 0.393064 -0.063686 69 8 91
0.517974 0.293962 0.109570 68 1 84
0.273718 -0.259341 -0.181028 68 1 84
-0.628971 -0.119143 0.207223 68 1 84
0.215628 -0.398390 -0.222208 68 1 84
-0.571579 -0.127889 0.040683 68 1 84
-0.682029 -0.217407 0.409278 68 1 84
0.613619 -0.249888 0.194546 68 1 84
0.249268 0.587778 -0.033557 68 1 84
0.532527 -0.325279 0.024295 68 1 84
-0.188359 0.408235 -0.135096 72 34 115
-0.270065 0.236690 -0.172875 42 117 142
0.030103 0.071906 -0.290495 105 204 91
-0.247640 0.275414 -0.159157 54 90 140
0.238358 0.197020 -0.208763 57 84 139
-0.009118 -0.157897 -0.354223 34 139 141
-0.521628 -0.486207 -0.129021 68 1 84
0.552374 -0.305518 0.048522 68 1 84
0.477816 0.398047 0.145725 68 1 84
-0.088800 0.027920 -0.348593 129 211 76
0.636560 -0.259313 0.290352 68 1 84
-0.193576 0.062350 -0.198303 32 143 140
0.378189 -0.201958 -0.142748 68 1 84
0.625209 -0.225038 0.263427 68 1 84
0.491390 -0.280005 -0.035335 68 1 84
0.575961 -0.056764 0.154070 68 1 84
0.159171 0.308160 -0.233162 30 155 137
0.655601 -0.506559 0.279095 68 1 84
-0.237286 -0.452603 -0.251033 68 1 84
0.509054 -0.464044 -0.007056 68 1 84
0.188349 -0.534569 -0.301437 68 1 84
0.511153 -0.046680 -0.018972 68 1 84
0.155416 -0.497189 -0.277705 68 1 84
0.659241 -0.399912 0.334773 68 1 84
-0.114139 0.548843 -0.159854 71 22 105
0.586854 0.042511 0.215402 68 1 84
-0.536524 0.181248 0.448708 68 1 84
-0.542027 -0.417355 -0.086059 68 1 84
-0.040247 -0.508348 -0.303609 71 17 99
0.464799 0.061407 -0.061217 68 1 84
0.511214 0.353111 0.236905 68 1 84
-0.557671 -0.006708 0.056845 68 1 84
0.215528 -0.525171 -0.287178 68 1 84
-0.312867 -0.482402 -0.264190 68 1 84
-0.156967 0.206101 -0.243282 35 169 130
-0.264659 -0.335968 -0.187290 68 1 84
-0.394100 0.147718 -0.112588 68 1 84
-0.142427 0.622725 -0.037646 68 1 84
0.686882 -0.552406 0.353534 68 1 84
0.388317 0.355954 -0.050333 68 1 84
0.188385 0.398609 -0.175920 61 75 137
-0.377648 0.308277 -0.063163 72 29 111
-0.676639 -0.443549 0.231351 68 1 84
-0.230646 -0.239990 -0.175730 71 20 102
0.352544 -0.013710 -0.161758 68 1 84
-0.564468 0.068319 0.532032 68 1 84
0.563296 0.160711 0.157313 68 1 84
0.613962 -0.031237 0.495912 68 1 84
-0.475314 -0.474132 -0.183163 68 1 84
0.321819 0.392081 -0.088870 68 3 87
0.596710 0.101356 0.327937 68 1 84
-0.459101 -0.108076 -0.102838 68 1 84
0.459571 0.315090 0.013330 68 1 84
0.246229 0.297507 -0.167583 68 55 129
0.554552 -0.318483 0.053439 68 1 84
0.652611 -0.402722 0.302349 68 1 84
-0.107731 -0.424171 -0.278387 62 72 136
-0.096358 0.624370 -0.105942 68 1 84
0.032514 -0.386463 -0.227486 67 59 131
0.565911 -0.024166 0.123979 68 1 84
0.394922 0.111520 -0.126333 68 1 84
-0.354038 0.113439 -0.148108 71 40 120
-0.607739 -0.032494 0.327316 68 1 84
-0.105401 -0.193301 -0.322960 39 125 142
0.563240 0.174170 0.164847 68 1 84
0.619239 -0.078303 0.386626 68 1 84
0.141561 -0.495604 -0.280275 68 1 84
-0.552215 0.032220 0.071785 68 1 84
0.283255 -0.147224 -0.178133 68 1 84
-0.094325 0.122920 -0.272091 44 177 125
-0.104520 0.447171 -0.176977 71 17 99
0.158904 -0.359178 -0.192956 68 1 84
0.580608 0.031262 0.189322 68 1 84
0.626301 -0.218062 0.281766 68 1 84
0.206851 -0.220628 -0.186552 68 1 84
0.579843 -0.313592 0.096182 68 1 84
-0.238656 -0.003982 -0.194934 38 128 142
0.490119 -0.027545 -0.044940 68 1 84
0.338843 -0.161895 -0.162738 68 1 84
-0.578665 0.005558 0.156894 68 1 84
-0.534234 0.219159 0.196673 68 1 84
0.461068 0.301838 0.007575 68 1 84
-0.084471 -0.183614 -0.354255 42 118 142
-0.115387 -0.258562 -0.250321 52 95 141
-0.596360 -0.160405 0.086739 68 1 84
-0.628101 -0.105250 0.464354 68 1 84
0.633104 -0.231472 0.487645 68 1 84
-0.437586 0.317070 0.023997 68 1 84
0.518882 0.202118 0.052169 68 1 84
-0.678609 -0.263658 0.304374 68 1 84
-0.070928 -0.456918 -0.295316 66 62 133
0.276512 0.559614 -0.035106 68 1 84
0.564648 0.064079 0.137736 68 1 84
-0.097218 0.071184 -0.275957 103 204 92
-0.581663 -0.006513 0.151297 68 1 84
0.064707 -0.163818 -0.258823 43 115 142
-0.537005 0.040666 0.037327 68 1 84
-0.160920 -0.358326 -0.194535 68 1 84
0.276018 0.573815 -0.008181 68 1 84
0.398858 -0.374970 -0.106111 68 1 84
0.241472 0.107088 -0.207581 63 71 136
-0.607518 -0.473839 0.037056 68 1 84
0.154671 -0.380540 -0.204679 68 1 84
-0.552221 -0.162060 0.004899 68 1 84
0.471674 0.394715 0.113892 68 1 84
-0.620645 -0.086530 0.219574 68 1 84
0.292050 -0.314223 -0.187014 68 1 84
0.644022 -0.566139 0.255545 68 1 84
-0.416336 -0.301113 -0.138414 68 1 84
0.567797 0.193583 0.471405 68 1 84
-0.591870 -0.280176 0.061725 68 1 84
-0.273227 0.189102 -0.179689 50 98 141
-0.456203 0.360769 0.104505 68 1 84
-0.627927 -0.489531 0.078570 68 1 84
0.594865 -0.482452 0.151986 68 1 84
-0.571290 -0.151072 0.037747 68 1 84
-0.091160 0.004027 -0.412315 69 191 111
0.385956 0.436841 -0.001785 68 1 84
0.567637 0.228587 0.392147 68 1 84
-0.676852 -0.222130 0.349984 68 1 84
0.429633 0.468671 0.219282 68 1 84
-0.467750 -0.272513 -0.072691 68 1 84
-0.326880 0.526966 0.236468 68 1 84
-0.474837 0.169427 -0.012487 68 1 84
0.504697 0.251582 0.045715 68 1 84
-0.039589 -0.450283 -0.292947 70 47 124
0.468980 0.364970 0.065624 68 1 84
0.596271 0.108645 0.337642 68 1 84
-0.543336 -0.422462 -0.084991 68 1 84
-0.455158 -0.486052 -0.201331 68 1 84
0.510084 0.302996 0.096882 68 1 84
0.161522 -0.301559 -0.193325 71 39 119
-0.356289 0.498800 0.121773 68 1 84
0.397860 -0.305278 -0.104926 68 1 84
-0.339122 0.507671 0.096612 68 1 84
0.612873 -0.025146 0.409252 68 1 84
-0.220210 0.526421 -0.058119 68 1 84
0.579020 0.090757 0.195042 68 1 84
-0.446060 0.406352 0.256609 68 1 84
0.584308 0.168496 0.362676 68 1 84
-0.084986 0.638400 -0.075036 68 1 84
0.488124 0.196849 0.000484 68 1 84
0.225168 0.559101 -0.117147 68 1 84
-0.397890 0.378854 0.022186 68 1 84
0.354655 -0.171166 -0.156751 68 1 84
0.589761 -0.272497 0.119192 68 1 84
0.464306 -0.214143 -0.082744 68 1 84
0.251509 -0.513948 -0.270359 68 1 84
0.570652 -0.575040 0.116298 68 1 84
-0.231160 -0.241462 -0.176006 71 21 103
0.516501 -0.006786 -0.002378 68 1 84
-0.244045 -0.245561 -0.179239 71 15 98
-0.664345 -0.306581 0.214683 68 1 84
0.526771 0.111528 0.048211 68 1 84
-0.563780 0.122218 0.356546 68 1 84
-0.216263 0.167596 -0.210756 32 145 140
-0.064261 0.154937 -0.290373 89 199 100
0.527744 -0.176626 -0.008665 68 1 84
0.172348 -0.240282 -0.187211 72 35 116
0.559684 -0.478766 0.081949 68 1 84
-0.506691 -0.059527 -0.054202 68 1 84
-0.167767 0.260197 -0.205949 34 138 141
-0.162287 -0.022299 -0.238744 71 192 110
0.622070 -0.186778 0.298847 68 1 84
-0.470273 0.364409 0.325997 68 1 84
0.377147 -0.493500 -0.198846 68 1 84
-0.535255 0.069831 0.050959 68 1 84
0.263652 -0.154710 -0.181797 69 6 90
-0.142997 0.161381 -0.246831 51 182 121
-0.457672 -0.478815 -0.198870 68 1 84
0.529121 -0.102551 0.000037 68 1 84
0.501480 -0.532368 -0.022310 68 1 84
-0.175638 0.599566 -0.035809 68 1 84
0.517404 0.310764 0.128602 68 1 84
-0.600891 -0.407211 0.036839 68 1 84
0.019767 0.618033 -0.150941 69 6 90
-0.530562 0.230569 0.193493 68 1 84
0.437437 0.078989 -0.090236 68 1 84
0.565341 -0.570585 0.102417 68 1 84
0.308465 0.399199 -0.094159 68 1 84
-0.046412 0.630500 -0.116158 68 1 84
0.089217 -0.226670 -0.203064 66 62 133
0.630034 -0.224227 0.450579 68 1 84
0.012282 -0.184150 -0.312632 31 147 139
-0.356312 0.088898 -0.149845 70 11 94
0.027228 -0.067684 -0.396455 33 167 132
-0.245790 -0.482524 -0.277057 71 21 103
-0.582372 -0.224640 0.053743 68 1 84
-0.292020 -0.385463 -0.214994 68 1 84
-0.172917 0.614897 0.047627 68 1 84
-0.156584 -0.326733 -0.185763 68 1 84
-0.124957 0.126447 -0.250617 38 172 129
0.341877 0.181102 -0.153366 68 1 84
-0.731020 -0.360362 0.498538 68 1 84
-0.516575 0.247328 0.143859 68 1 84
-0.467262 0.252754 0.021549 68 1 84
-0.449940 0.375424 0.388457 68 1 84
-0.638035 -0.126459 0.235912 68 1 84
-0.139618 -0.062982 -0.350603 30 156 137
0.270695 0.589681 0.040671 68 1 84
0.607195 -0.025935 0.308990 68 1 84
0.274307 0.233443 -0.179981 66 64 133
0.218610 0.302182 -0.188018 47 105 141
0.562488 0.184756 0.169977 68 1 84
0.564274 -0.520133 0.096063 68 1 84
0.586352 0.109611 0.237042 68 1 84
-0.403354 0.302890 -0.035725 68 1 84
0.080871 -0.334746 -0.183504 72 28 110
-0.293770 0.060653 -0.182588 51 96 141
-0.392777 0.436218 0.078401 68 1 84
0.387253 -0.160721 -0.143474 68 1 84
0.000615 0.101465 -0.301983 83 197 103
0.431287 0.418900 0.051088 68 1 84
-0.261492 0.573186 0.131274 68 1 84
0.558248 0.065821 0.115467 68 1 84
-0.616778 -0.433554 0.067233 68 1 84
-0.330192 0.432366 -0.013899 68 1 84
-0.420390 0.405429 0.410784 68 1 84
-0.037696 -0.048071 -0.434257 33 141 140
0.513466 -0.486862 -0.000887 68 1 84
0.552631 0.267144 0.399364 68 1 84
0.475846 0.211846 -0.012011 68 1 84
0.412855 -0.167594 -0.128597 68 1 84
-0.645889 -0.139833 0.254519 68 1 84
-0.576056 0.008673 0.145434 68 1 84
-0.293715 -0.017408 -0.178644 54 91 140
-0.449115 0.102542 -0.070478 68 1 84
0.513775 0.219420 0.048731 68 1 84
-0.241449 -0.219813 -0.174620 72 32 113
-0.352647 0.221473 -0.123286 71 37 117
-0.090453 -0.417056 -0.283378 55 89 140
-0.076431 0.418750 -0.196811 69 53 128
0.077992 -0.365592 -0.191646 72 32 113
0.605262 0.051106 0.365326 68 1 84
0.564237 -0.539946 0.098297 68 1 84
0.649050 -0.480029 0.266918 68 1 84
-0.473965 0.160673 -0.017489 68 1 84
0.226184 0.206570 -0.210345 49 100 141
-0.444796 0.371441 0.426597 68 1 84
-0.058889 0.270085 -0.261877 34 167 132
0.645815 -0.388281 0.280428 68 1 84
0.160276 -0.353771 -0.192207 68 1 84
-0.636359 -0.115582 0.433306 68 1 84
-0.118415 0.091710 -0.245281 61 187 116
0.671610 -0.430738 0.367491 68 1 84
0.234599 -0.086549 -0.196708 52 94 141
-0.564472 0.118643 0.292800 68 1 84
0.058033 0.315832 -0.280474 98 202 95
-0.671034 -0.214580 0.309805 68 1 84
0.612989 -0.601846 0.199589 68 1 84
0.031007 0.029997 -0.299051 61 187 116
0.347093 0.543073 0.089023 68 1 84
-0.296157 0.149191 -0.173644 62 72 136
