ply
format ascii 1.0
element vertex 1272
property float x
property float y
property float z
property uchar red
property uchar green
property uchar blue
end_header
0.210896 0.052499 -0.221100 70 11 94
-0.661579 -0.393948 0.318631 68 1 84
0.094259 -0.238583 -0.299425 71 43 122
-0.150938 0.446773 -0.164079 70 48 125
-0.547680 0.246762 0.409993 68 1 84
-0.317294 0.313459 -0.117828 68 1 84
0.346705 -0.086050 -0.200735 68 1 84
-0.421259 0.390285 0.059153 68 1 84
-0.005722 -0.267508 -0.361637 63 71 136
-0.618652 -0.167994 0.078399 68 1 84
-0.540437 0.221873 0.174571 68 1 84
0.245934 0.523681 -0.099638 68 1 84
-0.674290 -0.529969 0.321644 68 1 84
-0.528768 0.293188 0.260424 68 1 84
-0.314259 -0.355107 -0.190952 39 124 142
0.537760 -0.057988 -0.083476 68 1 84
-0.141871 -0.391764 -0.279699 30 153 138
-0.541374 0.030636 -0.021064 68 1 84
-0.517258 0.000930 -0.075404 68 1 84
0.653956 -0.178550 0.508627 68 1 84
0.479933 0.420432 0.239837 70 11 94
0.192229 0.324300 -0.189138 55 88 140
-0.129718 0.435749 -0.179953 58 82 139
0.057847 -0.277373 -0.332672 72 29 111
0.631706 -0.051195 0.233305 68 1 84
0.218315 -0.055265 -0.221167 68 3 87
-0.324696 -0.495657 -0.297037 96 201 96
-0.674250 -0.309426 0.342198 68 1 84
-0.464947 0.204977 -0.026334 68 1 84
0.463430 0.230009 -0.017390 68 1 84
-0.631439 -0.287030 0.128905 68 1 84
-0.477482 -0.156559 -0.121664 68 1 84
-0.423691 -0.415531 -0.207702 42 119 142
0.668338 -0.503303 0.364337 68 1 84
-0.611940 -0.000821 0.432638 68 1 84
0.161498 -0.411396 -0.277061 149 215 63
0.222062 -0.122830 -0.214106 72 30 112
0.592626 -0.343289 0.039967 68 1 84
-0.491171 -0.170448 -0.108590 68 1 84
0.370546 0.191510 -0.140088 59 80 138
0.071317 0.021101 -0.406143 56 86 139
0.178690 0.232411 -0.206928 139 213 70
-0.577455 0.135108 0.412071 68 1 84
-0.555217 0.155532 0.523241 59 80 138
-0.584623 0.108109 0.320805 68 1 84
-0.395573 0.486396 0.204160 68 1 84
-0.352423 -0.432269 -0.256216 37 130 142
-0.407565 0.048498 -0.167298 68 1 84
-0.676468 -0.355699 0.369155 68 1 84
0.611254 0.060302 0.416463 68 1 84
-0.320314 0.333064 -0.103465 68 1 84
0.096296 0.640532 -0.156426 55 89 140
0.187611 -0.449013 -0.316199 98 202 95
-0.098243 -0.314192 -0.234132 35 168 131
0.174842 -0.020945 -0.240735 71 39 119
-0.613503 -0.019338 0.358193 68 1 84
0.671403 -0.235091 0.246155 68 1 84
-0.426130 0.439288 0.339105 68 1 84
0.118083 0.637373 -0.150338 72 33 114
-0.675122 -0.463420 0.373414 68 1 84
-0.168245 0.634912 -0.026422 68 1 84
-0.403973 0.476257 0.237032 68 1 84
0.585275 0.152511 0.480550 68 1 84
0.657686 -0.549501 0.308782 68 1 84
-0.153541 -0.028649 -0.333885 49 101 141
-0.166588 -0.147405 -0.239391 38 127 142
-0.592328 0.072354 0.326788 68 1 84
0.462153 0.319273 0.040389 72 28 110
-0.002765 0.426467 -0.220125 32 144 140
-0.539918 0.274588 0.291297 68 1 84
0.263498 -0.390263 -0.255031 35 169 130
0.303537 0.242903 -0.156198 57 185 118
-0.364187 -0.521896 -0.276347 77 194 107
0.590246 0.155491 0.240207 68 1 84
-0.626207 -0.444808 0.197772 68 1 84
0.115194 0.060564 -0.270363 33 167 132
-0.269384 -0.217920 -0.179697 30 156 137
0.637045 -0.270101 0.101743 68 1 84
0.398525 -0.155798 -0.171962 68 1 84
0.678100 -0.498618 0.437178 68 1 84
-0.566484 0.154048 0.476687 58 82 139
0.518743 0.157870 -0.000375 68 1 84
-0.620033 -0.062183 0.525456 68 1 84
-0.344739 0.440805 -0.003245 68 1 84
0.638629 -0.094977 0.429950 68 1 84
-0.035875 -0.111398 -0.464099 71 20 102
0.350357 -0.447960 -0.250675 40 122 142
0.109514 0.168694 -0.293894 56 185 118
-0.276272 -0.360635 -0.225997 49 100 141
0.543589 0.244573 0.129785 68 1 84
-0.512928 0.332236 0.278562 68 1 84
0.502925 0.139551 -0.036788 68 1 84
-0.051230 0.356123 -0.257056 103 204 92
0.648879 -0.303063 0.146707 68 1 84
-0.119549 0.227478 -0.255938 129 211 76
-0.437241 0.400372 0.101046 68 1 84
-0.608622 -0.418081 0.123838 68 1 84
0.584195 0.195509 0.298781 68 1 84
0.231218 0.148160 -0.226465 52 95 141
0.576684 -0.436819 0.035712 68 1 84
0.354841 0.539181 0.109639 64 67 135
0.138921 -0.079507 -0.340628 68 1 84
0.654760 -0.149493 0.395171 68 1 84
-0.497334 -0.489998 -0.138094 48 104 141
0.052476 -0.130006 -0.446283 68 1 84
0.554085 -0.124515 -0.072134 68 1 84
-0.061491 -0.462182 -0.337816 141 214 68
-0.558675 0.156798 0.179457 68 1 84
0.258161 -0.091182 -0.213507 66 61 132
-0.556095 -0.448014 0.010086 68 1 84
0.525590 0.255960 0.096198 68 1 84
-0.205529 0.279198 -0.162679 48 104 141
-0.566195 0.130177 0.509658 57 85 139
0.232637 -0.364080 -0.237388 48 180 122
-0.047279 -0.341752 -0.314385 57 185 118
-0.213749 0.032483 -0.220090 44 112 142
0.046947 -0.286609 -0.336241 72 34 115
0.110471 0.537034 -0.213226 38 128 142
-0.051972 0.608964 -0.189249 71 40 120
-0.526362 0.293546 0.243800 68 1 84
0.156306 -0.173931 -0.230846 33 141 140
0.538995 0.017654 -0.056645 68 1 84
-0.400985 0.475105 0.270348 68 1 84
-0.400962 0.184798 -0.114295 68 1 84
-0.599878 -0.402425 0.094571 68 1 84
-0.487886 0.369572 0.351994 71 18 101
-0.281466 0.098967 -0.211257 51 96 141
0.574627 0.200526 0.442912 68 1 84
-0.378214 0.243042 -0.106700 68 1 84
0.651336 -0.205642 0.143393 68 1 84
0.617575 -0.406836 0.113096 68 1 84
0.606574 0.089688 0.329045 68 1 84
-0.325003 0.268360 -0.139614 68 1 84
0.451454 -0.457939 -0.192221 71 37 117
0.027708 0.616433 -0.191218 55 88 140
0.436191 -0.253899 -0.127360 68 1 84
-0.161897 -0.045516 -0.296756 32 145 140
-0.659014 -0.448332 0.306129 68 1 84
0.619645 0.016777 0.410295 68 1 84
-0.193716 0.530045 -0.117617 70 48 125
-0.420780 -0.403814 -0.201700 51 97 141
-0.610934 -0.037859 0.529871 69 5 88
0.211879 0.314966 -0.171573 31 150 139
0.517548 0.285085 0.105757 68 1 84
-0.458835 0.350961 0.088883 68 1 84
0.545512 -0.034888 -0.068149 68 1 84
-0.659403 -0.252849 0.246854 68 1 84
0.619515 -0.588762 0.182808 48 103 141
0.650165 -0.227002 0.135860 68 1 84
-0.011694 0.662519 -0.126667 71 38 118
-0.641699 -0.254828 0.154913 68 1 84
-0.236435 0.299057 -0.146422 60 77 138
0.274665 0.192149 -0.197799 36 133 141
0.492853 0.394020 0.189951 71 17 99
0.523739 0.349351 0.256269 68 1 84
0.442258 -0.458239 -0.200958 72 25 107
-0.323402 0.180514 -0.178683 71 43 122
0.489964 0.331244 0.092424 72 26 108
-0.469642 0.070897 -0.106712 68 1 84
-0.534166 0.107663 0.023981 68 1 84
0.402729 -0.484715 -0.239663 54 91 140
0.092791 -0.210354 -0.327637 59 80 138
-0.292428 0.479516 -0.032205 68 1 84
0.494117 -0.435355 -0.128669 68 1 84
0.666394 -0.520954 0.349027 68 1 84
0.387288 0.154019 -0.142077 70 12 95
0.509610 -0.221570 -0.095069 68 1 84
-0.139845 0.160464 -0.272003 66 190 113
-0.349377 0.294480 -0.106204 68 1 84
-0.585369 -0.409858 0.065052 68 1 84
0.681633 -0.338925 0.332025 68 1 84
0.059996 -0.428634 -0.321949 66 190 113
-0.659793 -0.216481 0.269421 68 1 84
-0.319743 -0.153160 -0.179358 62 73 137
-0.342828 -0.124099 -0.185246 68 1 84
0.633947 -0.051305 0.274618 68 1 84
0.285130 -0.373179 -0.249605 36 132 141
-0.483281 0.190788 -0.011147 68 1 84
-0.386214 0.148966 -0.146570 68 1 84
0.612819 -0.566217 0.166095 71 43 122
-0.611877 -0.051009 0.153682 68 1 84
0.674937 -0.218715 0.299846 68 1 84
-0.527943 0.289141 0.241632 68 1 84
-0.535505 0.178015 0.098702 68 1 84
0.298620 0.518734 -0.029573 72 30 112
-0.244908 0.527588 -0.059050 69 5 88
-0.235806 0.158245 -0.224801 39 125 142
-0.644701 -0.384356 0.226867 68 1 84
-0.605219 0.025775 0.458011 70 14 97
-0.576891 -0.519176 0.076552 72 28 110
-0.658649 -0.249108 0.488840 71 20 102
-0.666951 -0.551625 0.281085 68 1 84
-0.596833 0.052189 0.351722 68 1 84
0.558560 0.250770 0.432868 68 1 84
0.413606 0.093528 -0.149654 68 1 84
-0.313076 0.297338 -0.130179 68 1 84
-0.240555 0.319048 -0.140592 71 17 99
0.588769 0.106234 0.517178 68 1 84
0.167018 -0.476793 -0.333377 89 199 100
0.122984 0.373881 -0.221144 53 183 120
-0.580717 0.035809 0.110213 68 1 84
-0.186128 -0.120439 -0.231298 41 120 142
-0.372153 -0.122243 -0.178598 68 1 84
-0.587694 0.085646 0.289786 68 1 84
0.619207 0.006684 0.246992 68 1 84
-0.626169 -0.069552 0.473590 69 6 90
-0.510060 0.269285 0.116847 68 1 84
-0.071733 -0.448120 -0.333138 199 224 31
0.093277 -0.154810 -0.375544 71 24 106
-0.667261 -0.389424 0.340350 68 1 84
0.434681 0.278285 -0.025147 69 54 129
-0.533173 0.148894 0.059835 68 1 84
0.598585 -0.432417 0.081650 68 1 84
-0.465438 0.402993 0.305562 68 1 84
0.374085 -0.039898 -0.198196 68 1 84
0.542671 0.210839 0.092755 68 1 84
0.172105 -0.186224 -0.210778 56 185 118
0.078138 -0.232998 -0.337475 71 17 99
0.287697 -0.236417 -0.182514 41 121 142
0.350594 0.367619 -0.062136 49 102 141
0.548227 -0.500030 -0.010255 62 73 137
-0.517493 0.315131 0.246627 68 1 84
0.498894 0.376554 0.337160 68 1 84
0.653822 -0.137527 0.325384 68 1 84
0.350705 0.124836 -0.175429 68 1 84
-0.426987 -0.238735 -0.122635 68 1 84
-0.418229 0.390351 0.054244 68 1 84
0.066093 -0.246674 -0.344712 68 1 84
-0.598288 0.046913 0.387038 68 1 84
-0.416838 0.401995 0.063206 68 1 84
-0.353068 0.521198 0.226703 68 1 84
-0.051027 -0.114502 -0.455462 68 1 84
-0.552028 0.127405 0.102673 68 1 84
-0.120699 -0.400906 -0.300956 103 204 92
-0.155870 -0.415954 -0.305786 37 171 129
-0.637165 -0.093893 0.361892 68 1 84
-0.183777 0.624974 -0.023444 68 1 84
0.103160 0.023202 -0.299963 48 104 141
-0.329688 0.405096 -0.045109 68 1 84
0.500924 0.264977 0.058259 68 1 84
0.673212 -0.201811 0.363025 68 1 84
-0.133074 -0.095533 -0.316785 71 22 105
-0.650040 -0.314777 0.208098 68 1 84
0.333729 -0.064614 -0.206361 68 1 84
0.344866 -0.519507 -0.283304 57 185 118
0.434995 -0.341161 -0.114328 68 1 84
0.436403 -0.454247 -0.204854 71 43 122
0.468017 0.109840 -0.097211 68 1 84
0.048975 0.234649 -0.283949 77 194 107
-0.266269 -0.220745 -0.180113 32 164 133
0.449858 0.331965 0.031034 71 38 118
-0.452752 -0.109475 -0.145636 68 1 84
0.384279 -0.363526 -0.177369 63 71 136
0.050516 -0.386728 -0.310646 30 160 135
-0.199164 0.098781 -0.233235 66 64 133
0.675421 -0.537120 0.397472 68 1 84
-0.009045 0.370692 -0.250967 129 211 76
0.085072 0.369124 -0.239771 77 194 107
-0.673909 -0.449074 0.388951 68 1 84
0.593326 0.121985 0.211153 68 1 84
-0.612534 -0.044541 0.550339 69 8 91
0.621691 -0.498288 0.185786 68 1 84
0.220295 -0.274190 -0.184124 39 173 128
0.641992 -0.093568 0.224836 68 1 84
0.517762 0.316543 0.140203 72 30 112
0.249954 -0.268811 -0.186289 30 160 135
0.532174 0.299518 0.442338 68 1 84
-0.428350 0.031770 -0.157149 68 1 84
0.599945 0.066242 0.180575 68 1 84
-0.003608 0.367181 -0.254649 96 201 96
0.328514 0.271583 -0.131719 38 129 142
-0.402909 0.024472 -0.175337 68 1 84
0.628889 -0.481938 0.202347 68 1 84
0.034438 0.423738 -0.220594 121 209 81
-0.524615 -0.360114 -0.035463 68 1 84
0.628301 -0.027667 0.349594 68 1 84
0.113031 0.199852 -0.284680 32 145 140
0.415096 -0.414481 -0.201937 72 35 116
-0.432444 0.432390 0.339493 68 1 84
0.509310 0.368083 0.304320 68 1 84
0.594455 0.146158 0.411114 68 1 84
-0.301167 0.125908 -0.201848 71 42 121
-0.491290 0.295888 0.100579 68 1 84
-0.626815 -0.182970 0.101894 68 1 84
0.072636 0.077625 -0.307609 42 119 142
-0.171928 0.261039 -0.188841 38 172 129
0.447077 -0.371246 -0.142324 68 1 84
0.331342 0.023210 -0.204607 68 1 84
-0.424743 -0.346607 -0.139839 68 1 84
0.081426 0.518165 -0.224179 36 132 141
0.489926 -0.385934 -0.108602 68 1 84
-0.681612 -0.403997 0.446064 68 1 84
-0.224086 -0.449836 -0.320082 68 190 112
-0.195810 0.155945 -0.241537 33 141 140
-0.162891 0.092132 -0.246931 52 94 141
-0.650316 -0.461653 0.265517 68 1 84
0.563872 0.259824 0.305409 68 1 84
-0.395094 -0.036448 -0.184799 68 1 84
-0.230149 0.244733 -0.172027 33 166 133
0.225010 -0.061700 -0.220863 70 11 94
0.437154 0.315228 0.002095 66 61 132
0.035964 -0.275364 -0.350565 70 45 124
0.451679 -0.403943 -0.166851 68 1 84
-0.310639 0.552982 0.161007 68 1 84
-0.131395 -0.435151 -0.324249 116 208 84
0.645249 -0.133516 0.534654 68 1 84
0.109676 -0.008609 -0.413433 68 1 84
0.484076 -0.292818 -0.076871 68 1 84
-0.603932 -0.022415 0.168739 68 1 84
0.555848 0.250947 0.185553 68 1 84
0.063920 0.428106 -0.217110 39 173 128
-0.182420 -0.044717 -0.231919 51 97 141
0.094203 0.426785 -0.211206 39 173 128
0.014083 0.050241 -0.372757 47 105 141
-0.586733 -0.047255 0.032366 68 1 84
-0.545870 0.229755 0.220763 68 1 84
0.656302 -0.156733 0.411446 68 1 84
-0.462803 -0.419855 -0.172278 57 85 139
-0.011953 0.062330 -0.328645 33 142 140
-0.643191 -0.340382 0.191499 68 1 84
-0.251158 -0.319026 -0.175776 40 122 142
0.600527 -0.089542 0.012919 68 1 84
0.318850 -0.260899 -0.183005 69 54 129
-0.511111 0.070820 -0.049517 68 1 84
0.396357 0.509281 0.218868 68 2 85
0.231951 0.612311 -0.018761 68 1 84
-0.564067 0.202872 0.323077 68 1 84
0.465997 0.349190 0.066852 72 34 115
-0.653921 -0.247849 0.213385 68 1 84
0.268082 0.597494 0.066579 69 6 90
0.472476 0.326655 0.060904 70 9 92
0.307262 0.320577 -0.112925 37 130 142
-0.420036 0.400400 0.067210 68 1 84
0.298793 0.572615 0.057910 71 18 101
-0.529664 0.276877 0.461339 69 53 128
-0.609187 -0.007115 0.321755 68 1 84
-0.650917 -0.135749 0.407513 68 1 84
0.415139 0.201426 -0.095440 72 25 107
-0.195752 -0.000377 -0.221094 30 159 136
0.163854 0.650456 -0.076941 68 1 84
0.526016 0.322273 0.176151 68 1 84
-0.485851 -0.248441 -0.083569 68 1 84
-0.577794 0.123726 0.270041 68 1 84
-0.420578 0.327763 0.005157 68 1 84
0.663020 -0.576187 0.332421 70 11 94
0.540178 0.306866 0.352947 68 1 84
-0.573420 -0.374456 0.036719 68 1 84
0.122939 -0.360229 -0.225814 100 203 93
-0.672742 -0.484507 0.325096 68 1 84
0.171802 0.001996 -0.285885 68 2 85
0.133311 0.231437 -0.242389 139 213 70
0.265560 0.500017 -0.081300 69 5 88
0.657064 -0.512020 0.308024 68 1 84
0.296097 0.560930 0.020346 69 53 128
-0.486816 0.203168 0.004307 68 1 84
-0.570837 -0.256152 0.006723 68 1 84
-0.068302 0.217397 -0.290436 71 192 110
0.589978 0.111506 0.510872 68 1 84
0.675332 -0.364104 0.302116 68 1 84
0.589521 -0.097574 -0.013880 68 1 84
0.122609 0.372062 -0.222239 61 187 116
-0.231634 0.200881 -0.216106 33 142 140
0.513191 0.363240 0.212929 68 3 87
-0.014176 0.043303 -0.383512 61 75 137
-0.361597 -0.310943 -0.155475 68 1 84
0.404682 -0.094891 -0.182246 68 1 84
0.298959 0.581107 0.116550 71 21 103
0.664720 -0.243470 0.458577 68 1 84
-0.427700 -0.255575 -0.116708 68 1 84
0.665035 -0.294883 0.209149 68 1 84
-0.589843 0.048280 0.227572 68 1 84
0.640861 -0.086085 0.355280 68 1 84
0.015890 -0.257116 -0.367338 71 44 123
-0.438798 0.438819 0.270630 68 1 84
-0.638162 -0.094238 0.399979 68 1 84
-0.465692 -0.080040 -0.138219 68 1 84
0.211112 0.628583 -0.007653 68 1 84
-0.588067 -0.123200 0.005150 68 1 84
0.083746 -0.168159 -0.378618 68 1 84
0.570365 0.219687 0.428660 68 1 84
0.144652 -0.082271 -0.318817 70 12 95
-0.112330 0.117928 -0.281065 32 143 140
0.525759 0.306210 0.452606 68 1 84
-0.332525 -0.357465 -0.206255 59 81 138
0.627083 -0.018142 0.436422 68 1 84
0.187431 0.326075 -0.193139 45 110 142
0.552457 0.249491 0.472576 68 1 84
0.647400 -0.545522 0.266980 68 1 84
-0.087215 0.599790 -0.179238 70 14 97
0.500249 -0.233800 -0.096930 68 1 84
-0.097220 0.317062 -0.257205 107 205 89
-0.083663 -0.159711 -0.382843 62 72 136
-0.443678 0.092023 -0.124740 68 1 84
-0.493557 0.067550 -0.078399 68 1 84
-0.198179 0.452341 -0.127267 52 94 141
-0.594801 -0.019343 0.092858 68 1 84
-0.154379 0.361889 -0.188731 35 168 131
0.021286 0.105876 -0.313139 114 207 85
0.556964 0.272720 0.245563 68 1 84
-0.407162 0.369044 0.018649 68 1 84
-0.425326 0.456267 0.226324 68 1 84
-0.194569 -0.030636 -0.224401 35 135 141
0.562852 0.007355 -0.020739 68 1 84
-0.274521 -0.360017 -0.225217 51 97 141
-0.501093 -0.239279 -0.075534 68 1 84
-0.271679 0.242767 -0.176249 70 48 125
-0.067305 -0.173431 -0.391555 71 37 117
-0.214610 -0.129990 -0.216480 53 93 140
0.031716 0.422792 -0.220610 124 210 79
0.581536 0.157429 0.181337 68 1 84
0.463413 -0.129829 -0.150937 68 1 84
0.659954 -0.568336 0.318809 68 1 84
0.611828 0.058868 0.395894 68 1 84
-0.415757 -0.431298 -0.222721 42 117 142
0.372424 -0.361983 -0.193919 66 61 132
0.420026 0.202540 -0.089624 71 15 98
-0.419511 -0.419596 -0.213469 42 119 142
0.453294 0.061298 -0.135126 68 1 84
-0.164769 0.548669 -0.141158 65 66 134
0.526257 -0.147842 -0.099874 68 1 84
0.016869 -0.065011 -0.487637 69 6 90
0.323194 -0.462716 -0.269044 34 167 132
0.673014 -0.361359 0.288992 68 1 84
0.374148 0.528561 0.151755 70 45 124
0.093324 -0.482833 -0.337015 103 204 92
0.314079 -0.354179 -0.211863 51 97 141
-0.201912 0.156157 -0.238735 30 151 138
0.082259 -0.298319 -0.255065 40 174 127
-0.416085 0.452064 0.322807 68 1 84
-0.331861 0.408128 -0.040990 68 1 84
-0.624887 -0.062285 0.335339 68 1 84
0.107720 -0.187523 -0.313230 55 88 140
-0.595682 -0.003042 0.140846 68 1 84
-0.548979 -0.486167 0.002950 69 8 91
-0.612486 -0.168652 0.061892 68 1 84
-0.033805 0.067502 -0.321185 31 147 139
-0.125184 0.628568 -0.121992 68 2 85
0.381992 0.474368 0.048614 71 40 120
-0.535421 0.093085 0.014243 68 1 84
0.173478 -0.335369 -0.188022 41 175 127
0.148456 -0.400728 -0.267047 77 194 107
0.006596 0.653220 -0.146661 71 44 123
-0.645342 -0.383827 0.229423 68 1 84
0.594989 0.157236 0.320149 68 1 84
-0.333254 0.103662 -0.191848 68 1 84
-0.576198 0.143704 0.305666 68 1 84
0.490117 -0.359135 -0.087070 68 1 84
0.375201 0.527864 0.188345 70 12 95
0.266952 0.492612 -0.081716 68 1 84
-0.443966 -0.439343 -0.202925 54 91 140
0.623151 -0.404383 0.125863 68 1 84
0.646503 -0.103111 0.304104 68 1 84
-0.342336 0.253938 -0.133383 68 1 84
0.649461 -0.398333 0.214528 68 1 84
-0.522038 -0.134689 -0.086610 68 1 84
-0.680657 -0.285512 0.377383 68 1 84
0.494886 0.397056 0.218478 69 6 90
-0.183213 0.183380 -0.245558 30 158 136
-0.438363 0.364040 0.063855 68 1 84
0.566002 0.156055 0.109780 68 1 84
0.594753 0.015460 0.072034 68 1 84
0.679381 -0.236843 0.319163 68 1 84
0.258900 0.589444 -0.009453 68 1 84
0.482852 0.394763 0.348123 70 14 97
-0.643372 -0.113205 0.336087 68 1 84
-0.224433 -0.266300 -0.178295 44 113 142
-0.024014 0.301632 -0.292456 210 225 27
-0.037758 0.169132 -0.314041 79 195 105
0.077945 0.508697 -0.224969 39 124 142
-0.062383 0.662535 -0.112076 65 65 134
-0.648010 -0.466791 0.257125 68 1 84
-0.619137 -0.039523 0.353555 68 1 84
-0.647174 -0.153541 0.243060 68 1 84
0.445896 0.219675 -0.047636 72 29 111
-0.337642 -0.159059 -0.173183 71 39 119
0.012539 0.369232 -0.251704 154 216 60
-0.679721 -0.293275 0.375299 68 1 84
-0.347513 0.525009 0.145046 68 1 84
0.402614 0.008280 -0.183931 68 1 84
-0.690515 -0.532244 0.478016 68 1 84
-0.017847 0.354212 -0.265707 154 216 60
-0.284721 0.411194 -0.074762 68 1 84
0.372255 -0.033644 -0.199045 68 1 84
0.576174 0.194955 0.202550 68 1 84
0.312609 0.520214 -0.008327 70 11 94
0.161580 0.316296 -0.221754 30 151 138
0.429130 -0.334098 -0.111857 68 1 84
-0.553091 0.239110 0.359210 68 1 84
-0.214658 0.610786 0.054610 68 1 84
0.488483 -0.493858 -0.150958 52 94 141
-0.626942 -0.050301 0.413392 68 1 84
0.349800 -0.515320 -0.280170 35 169 130
-0.080782 0.549280 -0.205445 61 76 137
0.678147 -0.502856 0.435231 68 1 84
0.578563 0.213390 0.294292 68 1 84
0.485954 -0.550375 -0.145396 103 204 92
0.269216 0.242727 -0.149406 126 210 78
0.568904 0.061348 0.028347 68 1 84
0.636690 -0.104460 0.145125 68 1 84
-0.151532 -0.346457 -0.210030 33 141 140
-0.015683 0.669181 -0.109474 70 45 124
0.664987 -0.250342 0.473634 68 1 84
-0.539595 -0.239988 -0.037150 68 1 84
-0.356818 0.390083 -0.030002 68 1 84
0.296257 0.223893 -0.172493 31 161 135
0.574040 0.069087 0.048258 68 1 84
-0.352109 -0.362884 -0.214914 65 66 134
-0.120912 -0.309660 -0.199294 34 138 141
-0.419912 -0.063294 -0.169919 70 9 92
-0.664714 -0.446092 0.334299 68 1 84
0.583540 0.150080 0.494455 68 1 84
-0.632752 -0.114457 0.188092 68 1 84
-0.102338 0.428381 -0.195488 56 87 140
0.520617 -0.248545 -0.071761 68 1 84
-0.640619 -0.263305 0.151498 68 1 84
-0.201504 0.456404 -0.123736 61 74 137
0.312803 0.169795 -0.189876 69 54 129
0.623697 -0.002255 0.429418 68 1 84
0.390172 0.514009 0.223655 68 2 85
0.196984 0.121763 -0.241555 42 117 142
-0.376528 0.500411 0.245429 68 1 84
0.567008 -0.529921 0.042817 57 85 139
0.153399 0.302181 -0.234966 36 132 141
0.558741 -0.314094 -0.009814 68 1 84
0.506832 0.296926 0.095513 68 1 84
0.023548 -0.219144 -0.387549 68 1 84
0.611320 0.000673 0.155013 68 1 84
-0.519967 0.295832 0.459881 69 50 127
0.584962 -0.537412 0.088416 70 45 124
-0.603851 -0.188599 0.043159 68 1 84
0.442409 0.325171 0.015817 72 34 115
0.652787 -0.555224 0.284259 68 1 84
0.242390 -0.451850 -0.291932 69 191 111
0.678161 -0.372095 0.459037 68 1 84
-0.389453 0.421869 0.039325 68 1 84
0.090066 0.390981 -0.223810 46 178 124
0.502149 -0.351758 -0.067672 68 1 84
-0.597527 -0.011396 0.131600 68 1 84
-0.627893 -0.156218 0.112838 68 1 84
-0.494734 0.350863 0.406594 71 20 102
0.046486 -0.322363 -0.314097 40 122 142
-0.116875 0.655373 -0.066838 71 42 121
0.185516 -0.250864 -0.182575 33 167 132
-0.288390 0.021005 -0.214744 55 88 140
0.427823 0.474827 0.272500 71 18 101
-0.110579 0.654765 -0.084420 65 66 134
0.412802 -0.396681 -0.191050 68 1 84
-0.578856 0.102876 0.483209 70 49 126
0.663269 -0.177895 0.406137 68 1 84
0.074579 -0.239792 -0.339687 71 17 99
0.657874 -0.470461 0.310875 68 1 84
0.074307 -0.325137 -0.269625 31 161 135
-0.637399 -0.169199 0.504751 68 1 84
-0.120888 0.260522 -0.235824 57 185 118
-0.643076 -0.326733 0.183726 68 1 84
-0.476020 0.383388 0.357700 68 1 84
0.524281 -0.159520 -0.100311 68 1 84
0.609347 -0.505974 0.147634 68 1 84
0.491705 -0.416045 -0.123335 68 1 84
0.034284 -0.418160 -0.323939 37 171 129
0.384605 -0.197896 -0.161975 68 1 84
0.231236 -0.274929 -0.185171 151 216 62
-0.351864 0.509812 0.095686 68 1 84
-0.401126 0.102070 -0.155216 68 1 84
0.399521 0.207284 -0.107322 70 14 97
0.233966 0.329316 -0.150168 31 150 139
-0.069806 0.281161 -0.277202 87 198 101
0.518416 0.357024 0.281991 68 1 84
0.536151 0.114536 -0.003679 68 1 84
-0.585428 -0.009715 0.061367 68 1 84
-0.183399 0.216619 -0.228613 50 181 122
0.546736 0.268424 0.170573 68 1 84
0.231676 0.048687 -0.216766 70 14 97
-0.054373 -0.045815 -0.471854 62 72 136
0.121177 -0.375586 -0.245659 100 203 93
-0.172631 0.316940 -0.189916 35 168 131
0.660931 -0.436999 0.308115 68 1 84
-0.553315 0.229042 0.275280 68 1 84
0.599735 -0.509277 0.118091 68 1 84
-0.659100 -0.325657 0.266560 68 1 84
-0.218694 0.592932 -0.028825 68 1 84
0.406308 0.478917 0.098549 48 103 141
-0.620188 -0.284974 0.100695 68 1 84
-0.606290 -0.061131 0.087317 68 1 84
-0.111345 -0.201338 -0.300494 32 145 140
0.146798 -0.019718 -0.366045 68 1 84
0.142215 -0.213952 -0.218500 31 161 135
0.614203 0.006252 0.509322 68 1 84
-0.284949 -0.328225 -0.170727 42 117 142
-0.422583 0.249234 -0.052423 68 1 84
-0.068750 -0.263519 -0.332572 32 164 133
0.449209 0.434775 0.123606 63 71 136
0.027522 -0.193241 -0.405193 68 1 84
0.608956 -0.531323 0.156746 69 8 91
0.609050 0.006442 0.148985 68 1 84
-0.173195 0.244366 -0.193294 33 167 132
0.636708 -0.084307 0.483094 68 1 84
-0.552676 0.197363 0.205279 68 1 84
-0.254555 0.353355 -0.123094 68 1 84
-0.118797 -0.383859 -0.282888 69 191 111
-0.438346 -0.478201 -0.219199 34 139 141
-0.510046 -0.203383 -0.082528 68 1 84
-0.405497 -0.308772 -0.118960 68 1 84
-0.565299 0.190835 0.296243 68 1 84
0.642254 -0.227366 0.107450 68 1 84
-0.467298 0.260943 0.022840 68 1 84
-0.677908 -0.253304 0.438419 68 1 84
0.098419 -0.398453 -0.294145 109 206 88
0.237656 0.161847 -0.220910 44 113 142
0.317032 0.506061 -0.015140 71 21 103
-0.254218 0.430283 -0.088805 68 1 84
0.168730 0.644468 -0.089255 68 1 84
-0.633236 -0.138061 0.526343 71 21 103
-0.594815 0.042077 0.260656 68 1 84
0.140283 0.323488 -0.237589 33 142 140
0.417989 0.393574 0.028578 62 72 136
0.621815 -0.002034 0.256017 68 1 84
0.500528 0.337891 0.121191 71 38 118
0.646494 -0.403602 0.205074 68 1 84
-0.618312 -0.057757 0.213254 68 1 84
-0.294230 -0.086202 -0.207234 65 65 134
-0.292421 0.391994 -0.080390 68 3 87
-0.463682 0.403598 0.192879 68 1 84
0.062979 0.518816 -0.227846 31 147 139
-0.306364 -0.311786 -0.166961 58 83 139
0.380496 0.333114 -0.057469 49 101 141
0.269382 0.516939 -0.070233 70 9 92
0.117353 -0.178486 -0.298032 43 116 142
-0.614508 -0.503877 0.181440 68 1 84
-0.459365 -0.102132 -0.141818 68 1 84
0.679161 -0.454532 0.459391 68 1 84
0.636847 -0.541331 0.228591 68 1 84
0.458127 0.291700 0.016811 69 50 127
0.394863 0.501422 0.116942 62 72 136
0.362316 -0.358983 -0.204677 54 91 140
-0.236164 0.017015 -0.219703 46 107 142
0.529133 -0.345328 -0.036988 68 1 84
-0.584421 -0.302461 0.040909 68 1 84
0.646156 -0.282655 0.132127 68 1 84
0.591863 -0.209263 -0.002930 68 1 84
0.524626 -0.142704 -0.101993 68 1 84
-0.100657 0.011178 -0.357201 69 50 127
-0.628688 -0.392828 0.169923 68 1 84
0.199316 -0.431673 -0.288312 178 221 44
-0.117358 0.087706 -0.267680 42 117 142
-0.508165 0.056210 -0.063288 68 1 84
-0.416380 -0.244252 -0.126311 68 1 84
-0.067795 -0.177437 -0.387566 70 12 95
-0.422957 0.282423 -0.026315 68 1 84
0.588785 0.043655 0.077225 68 1 84
-0.254220 -0.346285 -0.194178 52 94 141
-0.669388 -0.252878 0.301685 68 1 84
-0.198195 0.610447 -0.038033 68 1 84
-0.068645 0.010569 -0.339992 61 76 137
-0.195106 0.407701 -0.141761 61 74 137
0.127118 0.019738 -0.309894 71 40 120
-0.280755 0.566036 0.072080 68 1 84
-0.236623 -0.271506 -0.179718 40 123 142
-0.135577 -0.069714 -0.344983 70 45 124
-0.403212 0.472671 0.150871 68 1 84
-0.262988 0.578971 0.069542 68 1 84
-0.080695 0.590337 -0.189748 72 26 108
0.062710 -0.395381 -0.308643 33 166 133
-0.104656 -0.389689 -0.296979 89 199 100
0.067736 0.310619 -0.286552 33 166 133
-0.025416 -0.262795 -0.361586 65 65 134
-0.688356 -0.309479 0.459213 68 1 84
-0.143358 -0.283211 -0.175195 31 146 140
0.392457 -0.351361 -0.147061 69 50 127
0.626160 -0.016828 0.340101 68 1 84
-0.250760 0.583345 0.039721 68 1 84
-0.295486 0.389679 -0.079845 68 1 84
-0.108444 -0.079584 -0.406427 71 42 121
-0.270307 0.578585 0.119394 68 1 84
0.668899 -0.204002 0.409106 68 1 84
-0.409457 -0.184967 -0.146080 68 1 84
-0.158621 -0.318134 -0.168539 36 132 141
0.035454 0.489112 -0.228908 30 153 138
-0.535835 0.270565 0.437902 68 1 84
-0.097628 -0.366629 -0.280696 31 150 139
0.080534 0.015362 -0.413531 69 53 128
-0.051300 0.482189 -0.217130 36 133 141
-0.665857 -0.371974 0.322760 68 1 84
-0.226047 0.084917 -0.222696 53 92 140
0.265295 0.287296 -0.133750 64 189 114
-0.484141 0.280539 0.069960 68 1 84
-0.151206 0.308607 -0.212194 91 200 98
-0.364095 -0.201339 -0.155021 68 1 84
-0.681359 -0.462787 0.425734 68 1 84
0.237294 0.112014 -0.223927 67 58 131
-0.297453 -0.117916 -0.198670 64 68 135
0.299887 0.545687 0.001211 71 40 120
0.104659 0.018138 -0.306075 57 85 139
0.123164 -0.358960 -0.224238 98 202 95
-0.619793 -0.030585 0.398525 68 1 84
0.660116 -0.441163 0.306655 68 1 84
0.151712 0.013514 -0.327539 68 1 84
-0.233149 0.434583 -0.102491 68 1 84
0.545289 -0.480661 -0.024509 57 84 139
0.238385 0.592013 -0.060042 68 1 84
-0.159524 -0.119534 -0.253902 47 105 141
0.269546 0.280082 -0.134247 46 178 124
-0.506345 0.285028 0.126324 68 1 84
0.024719 0.355270 -0.265329 96 201 96
0.336603 0.554245 0.112335 68 1 84
-0.454678 0.295838 0.032885 68 1 84
0.072501 0.583874 -0.208997 47 106 141
-0.111694 0.013204 -0.352373 62 73 137
0.398676 -0.400294 -0.204010 71 22 105
0.599849 0.132093 0.364753 68 1 84
-0.335359 0.352526 -0.079405 68 1 84
-0.031352 0.034724 -0.344736 32 144 140
-0.207454 -0.322738 -0.171803 34 137 141
-0.676120 -0.546643 0.319026 68 1 84
-0.456819 0.127352 -0.091066 68 1 84
-0.105384 0.509044 -0.194561 69 50 127
-0.062390 0.018163 -0.398832 66 61 132
-0.604501 0.025609 0.423853 68 1 84
0.337497 0.518426 0.029971 68 57 130
0.421823 -0.136568 -0.169208 68 1 84
0.499776 -0.322389 -0.059650 68 1 84
-0.265544 -0.361267 -0.227033 52 95 141
0.214566 0.469403 -0.138438 67 60 132
0.622265 -0.000642 0.268891 68 1 84
-0.403202 0.076384 -0.162259 68 1 84
-0.559623 0.154682 0.181947 68 1 84
0.641173 -0.103348 0.413597 68 1 84
-0.137206 0.185198 -0.272061 66 190 113
0.095701 0.566259 -0.211646 48 104 141
0.680140 -0.509514 0.456641 68 1 84
-0.588394 0.004780 0.099067 68 1 84
-0.276966 -0.393614 -0.250025 38 128 142
0.492161 0.376924 0.372596 68 1 84
0.483666 -0.243952 -0.103917 68 1 84
-0.054559 0.145865 -0.311237 149 215 63
0.156859 0.546312 -0.184497 70 49 126
0.324151 -0.174652 -0.177528 68 1 84
0.519500 0.351932 0.301908 68 1 84
0.668070 -0.297554 0.228501 68 1 84
-0.158019 -0.164804 -0.240980 37 130 142
-0.525913 0.209499 0.100445 68 1 84
0.598521 0.116748 0.249354 68 1 84
-0.246837 -0.238254 -0.181611 37 131 141
0.196902 0.168837 -0.239862 52 95 141
0.566453 0.150417 0.105556 68 1 84
-0.628306 -0.063329 0.449145 68 1 84
0.607451 0.074678 0.454587 68 1 84
-0.142806 -0.080007 -0.308899 45 110 142
0.196923 0.483203 -0.154640 69 52 127
-0.297214 -0.134781 -0.192212 51 97 141
0.227506 -0.154287 -0.202885 52 95 141
0.548549 0.201616 0.099549 68 1 84
-0.605446 -0.040832 0.124029 68 1 84
0.034925 -0.210610 -0.388912 68 1 84
0.089524 0.364384 -0.241538 69 191 111
0.620428 -0.155676 0.047976 68 1 84
0.656096 -0.155820 0.211900 68 1 84
0.447464 0.446696 0.303694 72 25 107
-0.421201 -0.518144 -0.233512 39 173 128
0.515897 0.362149 0.275300 68 1 84
-0.499737 -0.078779 -0.107745 68 1 84
0.603961 0.106889 0.348548 68 1 84
0.094764 -0.477445 -0.336141 131 211 75
-0.423312 0.253973 -0.048023 68 1 84
-0.389671 -0.212382 -0.144607 68 1 84
0.121715 -0.097864 -0.368519 68 1 84
-0.599220 0.032737 0.294126 68 1 84
0.602737 -0.256254 0.030679 68 1 84
-0.530553 0.242681 0.156066 68 1 84
0.043232 -0.021099 -0.477880 68 1 84
-0.412787 -0.022251 -0.175212 68 1 84
-0.083077 -0.265010 -0.307254 30 154 137
0.275192 -0.517950 -0.314757 116 208 84
0.558365 0.225449 0.158725 68 1 84
-0.068388 0.013058 -0.418746 50 99 141
-0.565354 0.193468 0.307948 68 1 84
0.457798 -0.260061 -0.112526 68 1 84
0.151550 0.647937 -0.106206 71 39 119
-0.052369 -0.480475 -0.340095 124 210 79
0.256933 0.059591 -0.213127 68 1 84
0.138379 -0.093120 -0.318478 68 1 84
0.127723 0.509739 -0.207187 43 116 142
0.245409 0.151040 -0.220554 61 74 137
0.606924 -0.213642 0.024029 68 1 84
-0.602244 -0.444643 0.119195 68 1 84
0.288534 -0.233710 -0.182067 58 83 139
-0.008177 -0.432567 -0.332619 96 201 96
0.524943 -0.494881 -0.071701 68 57 130
-0.222005 -0.474445 -0.328976 112 206 86
-0.310255 -0.001474 -0.212189 69 53 128
0.586426 -0.490520 0.075292 70 9 92
-0.405654 -0.124746 -0.166826 68 1 84
0.230639 -0.115531 -0.213580 42 118 142
-0.099128 0.324967 -0.251793 149 215 63
0.578322 0.216401 0.363950 68 1 84
0.411628 0.329518 -0.023637 53 93 140
-0.583595 0.116399 0.372007 68 1 84
-0.547297 0.226768 0.223936 68 1 84
0.592181 0.143179 0.447625 68 1 84
0.560963 -0.068051 -0.055133 68 1 84
-0.042272 0.646197 -0.150875 70 45 124
0.565952 0.069906 0.027710 68 1 84
0.555399 0.280256 0.324614 68 1 84
-0.585792 -0.057913 0.023655 68 1 84
-0.204368 0.536280 -0.103865 72 33 114
-0.215824 0.232611 -0.190489 34 167 132
-0.131379 -0.077776 -0.346012 71 43 122
-0.323535 -0.384315 -0.239972 60 78 138
-0.241900 0.460220 -0.088499 72 35 116
0.291310 0.006507 -0.213559 68 1 84
-0.372092 -0.475684 -0.265643 30 155 137
0.359991 0.448979 -0.004870 71 21 103
-0.119882 0.269006 -0.240520 81 196 104
-0.630103 -0.093056 0.495304 71 20 102
0.045576 -0.094963 -0.471398 68 1 84
0.115166 -0.107338 -0.378455 68 1 84
-0.147391 0.612806 -0.117670 68 1 84
-0.499435 -0.188688 -0.096908 68 1 84
-0.183574 0.014834 -0.224035 36 132 141
0.612675 0.049663 0.440826 68 1 84
-0.651390 -0.416966 0.279748 68 1 84
-0.301521 -0.058306 -0.210725 71 21 103
-0.162592 0.380345 -0.175481 35 136 141
-0.664561 -0.255701 0.483472 70 11 94
0.566666 0.200024 0.494866 68 1 84
0.597478 0.093460 0.198933 68 1 84
-0.155746 0.231632 -0.226268 62 188 115
0.005579 0.102406 -0.314537 98 202 95
-0.215537 0.308144 -0.153890 72 32 113
-0.251377 -0.245767 -0.180550 42 117 142
0.624135 -0.009176 0.468257 68 1 84
0.526306 0.151915 0.007448 68 1 84
0.579986 0.003587 0.014131 68 1 84
0.677928 -0.367808 0.453774 68 1 84
0.669192 -0.195613 0.290702 68 1 84
0.676169 -0.214871 0.325609 68 1 84
-0.546614 0.253630 0.386248 68 1 84
-0.684325 -0.493967 0.429914 68 1 84
-0.161579 -0.073792 -0.255891 55 89 140
0.047167 0.032445 -0.358317 42 117 142
-0.594351 0.066349 0.377809 68 1 84
0.587184 0.158603 0.449940 68 1 84
0.164625 0.650407 -0.068874 70 12 95
0.006476 -0.235359 -0.381653 71 18 101
-0.044214 0.068308 -0.315723 35 137 141
-0.554508 0.233967 0.307103 68 1 84
-0.320571 -0.496499 -0.299530 75 194 108
0.088816 -0.174112 -0.362605 72 32 113
0.147335 0.593044 -0.172248 69 8 91
0.084475 0.007402 -0.424396 72 32 113
-0.333909 -0.347739 -0.176958 58 83 139
-0.058027 -0.445480 -0.333570 114 207 85
-0.630637 -0.084410 0.305771 68 1 84
0.134482 0.405079 -0.202306 42 176 126
0.229842 0.468071 -0.123441 63 71 136
-0.392166 0.460785 0.090566 68 1 84
0.066271 -0.314898 -0.288664 41 121 142
-0.102479 0.141294 -0.289783 149 215 63
0.677840 -0.303965 0.372359 68 1 84
-0.569323 0.181394 0.327000 68 1 84
-0.448664 -0.344004 -0.116068 68 1 84
0.146707 0.501811 -0.195794 38 129 142
-0.151719 0.049609 -0.238573 46 107 142
-0.527655 0.256981 0.165373 68 1 84
-0.066439 0.426950 -0.208519 32 144 140
-0.502003 0.197733 0.027437 68 1 84
0.275609 -0.038478 -0.216862 68 1 84
0.088244 -0.333801 -0.239709 47 179 123
0.097428 0.533590 -0.219231 38 127 142
-0.390815 -0.489759 -0.257589 46 178 124
0.333295 -0.020956 -0.208901 68 1 84
-0.184808 -0.105926 -0.234716 62 72 136
-0.557274 -0.004905 -0.010724 68 1 84
-0.669976 -0.524554 0.279120 68 1 84
0.631769 -0.042097 0.432193 68 1 84
0.244919 0.175870 -0.213062 53 92 140
0.153513 -0.179732 -0.230681 38 128 142
0.415903 0.339914 -0.011287 61 75 137
-0.688514 -0.543593 0.463987 68 1 84
0.184576 0.126445 -0.248074 61 76 137
0.278552 -0.057618 -0.215642 71 24 106
-0.103488 -0.356766 -0.262060 36 170 130
-0.302988 0.089419 -0.205204 55 88 140
-0.013679 -0.101960 -0.473798 68 1 84
0.451082 0.147762 -0.090759 68 1 84
-0.633294 -0.132207 0.512282 72 34 115
0.646957 -0.508911 0.277421 68 1 84
-0.043749 0.289194 -0.287691 157 217 58
0.585982 -0.512921 0.082920 70 9 92
-0.412802 -0.078655 -0.171812 68 1 84
-0.210229 0.176313 -0.233048 31 149 139
-0.465469 0.195344 -0.032779 68 1 84
-0.053994 -0.273709 -0.340969 43 116 142
0.616819 0.033443 0.306159 68 1 84
-0.654756 -0.216859 0.227644 68 1 84
0.500030 0.155445 -0.029149 68 1 84
-0.296021 0.026435 -0.213239 52 95 141
-0.018346 0.547528 -0.225549 46 109 142
0.566916 -0.372289 0.007553 68 1 84
-0.279044 0.412124 -0.077788 68 1 84
0.066174 0.673240 -0.079498 38 128 142
0.422876 0.477910 0.144156 63 69 135
0.140701 -0.106868 -0.286025 34 138 141
-0.590168 -0.392015 0.070688 68 1 84
-0.512894 0.127092 -0.007505 68 1 84
0.578825 0.108386 0.109677 68 1 84
-0.500773 0.228160 0.053836 68 1 84
-0.460343 0.254524 0.007022 68 1 84
-0.103759 -0.306018 -0.221957 30 153 138
0.311575 -0.333849 -0.186940 59 80 138
0.387793 0.500731 0.096833 49 101 141
0.334323 0.513169 0.018013 71 42 121
0.442676 -0.424765 -0.186841 71 20 102
-0.082954 0.008877 -0.404899 65 66 134
0.548343 -0.407995 -0.024199 68 1 84
-0.626100 -0.367376 0.146396 68 1 84
0.114824 0.653499 -0.126205 68 55 129
-0.563545 0.135627 0.514612 62 73 137
0.646016 -0.391502 0.193493 68 1 84
-0.061607 0.301679 -0.282997 30 155 137
-0.450973 0.080299 -0.122650 68 1 84
-0.524258 0.275140 0.179966 68 1 84
-0.687611 -0.529079 0.432259 68 1 84
-0.389337 0.352287 -0.020347 68 1 84
0.159793 0.116796 -0.259064 67 60 132
-0.325235 0.402187 -0.050853 68 1 84
0.311111 0.571890 0.106966 71 17 99
-0.421529 0.293488 -0.019625 68 1 84
0.596374 -0.482376 0.095635 68 1 84
-0.439742 0.433886 0.294807 68 1 84
0.217444 0.414656 -0.141521 47 106 141
0.675287 -0.230318 0.285076 68 1 84
-0.632875 -0.462581 0.223514 68 1 84
0.508585 0.288154 0.090896 68 1 84
-0.643404 -0.121889 0.308208 68 1 84
-0.495218 0.238613 0.052010 68 1 84
0.447825 -0.051860 -0.163798 68 1 84
0.175788 0.447939 -0.172386 47 106 141
-0.543513 0.208902 0.172081 68 1 84
-0.428258 0.184424 -0.087137 68 1 84
0.421226 -0.358070 -0.140467 68 1 84
0.520902 -0.361020 -0.050938 68 1 84
0.681185 -0.521346 0.459833 68 3 87
0.664248 -0.243281 0.474283 68 1 84
0.650199 -0.331325 0.166023 68 1 84
-0.244383 0.155876 -0.221549 45 111 142
0.189444 0.076241 -0.233709 69 54 129
-0.131514 -0.394217 -0.289289 46 178 124
0.494235 -0.305790 -0.065073 68 1 84
-0.287200 0.171144 -0.201675 44 112 142
0.610613 0.067337 0.380254 68 1 84
0.615659 -0.424270 0.117299 68 1 84
0.450817 0.292066 0.006904 71 43 122
0.446857 0.226223 -0.041917 72 26 108
-0.419624 -0.514103 -0.235022 32 165 133
0.542669 0.281117 0.174825 68 1 84
-0.111639 -0.300837 -0.209454 30 156 137
-0.613224 -0.079278 0.099688 68 1 84
-0.297639 -0.207398 -0.174222 46 109 142
-0.050289 -0.038294 -0.472818 59 81 138
-0.638540 -0.095647 0.401308 68 1 84
0.635451 -0.481095 0.230236 68 1 84
0.465012 0.439606 0.236697 71 43 122
0.123080 0.462753 -0.204000 40 122 142
-0.044041 0.024505 -0.337646 49 102 141
-0.287497 -0.376182 -0.238679 58 83 139
-0.300423 0.007254 -0.213797 66 64 133
0.235818 0.436773 -0.121168 52 94 141
0.534090 -0.495515 -0.048380 54 91 140
-0.035532 0.346575 -0.269341 98 202 95
0.644628 -0.560444 0.254611 68 3 87
-0.672548 -0.244350 0.444411 68 1 84
-0.622778 -0.038498 0.403399 68 1 84
-0.072158 0.122891 -0.303687 146 215 65
-0.295524 -0.269845 -0.175332 57 84 139
0.641145 -0.582161 0.247846 70 45 124
0.502645 0.366278 0.167366 70 14 97
-0.580403 0.126550 0.394571 68 1 84
0.624871 -0.274630 0.075079 68 1 84
0.555025 -0.236960 -0.041779 68 1 84
0.541595 0.253135 0.133733 68 1 84
0.561731 -0.349428 -0.002299 68 1 84
-0.504616 0.325421 0.189971 68 1 84
0.377761 0.377955 -0.032136 70 49 126
-0.472932 -0.501065 -0.176474 35 135 141
0.072331 -0.341260 -0.277689 30 153 138
-0.100562 0.495626 -0.196591 57 84 139
0.382109 -0.349188 -0.152304 63 69 135
-0.455895 0.420206 0.221069 68 1 84
-0.518371 0.069613 -0.038419 68 1 84
0.665681 -0.267031 0.505898 68 1 84
0.674751 -0.518170 0.398155 68 1 84
-0.670229 -0.231385 0.316290 68 1 84
0.593734 0.124679 0.219475 68 1 84
0.451251 0.117060 -0.109250 68 1 84
-0.632095 -0.114298 0.513200 68 1 84
0.321949 0.055787 -0.201091 68 1 84
-0.319615 0.545092 0.130323 68 1 84
0.211742 0.090800 -0.229074 52 95 141
-0.609483 -0.176840 0.054613 68 1 84
-0.568754 -0.372590 0.028761 68 1 84
0.630545 -0.039246 0.468256 68 1 84
0.334501 0.202449 -0.165313 44 113 142
0.126022 -0.101988 -0.343946 68 1 84
0.047770 0.669919 -0.106713 65 65 134
0.417980 -0.281368 -0.128658 68 1 84
0.536312 0.316829 0.335031 68 1 84
0.493427 -0.383082 -0.101153 68 1 84
-0.015541 -0.468092 -0.341341 178 221 44
-0.465359 0.140906 -0.071060 68 1 84
-0.573584 0.147641 0.431377 68 1 84
0.265548 0.063457 -0.211688 69 8 91
-0.369215 -0.354213 -0.190458 72 30 112
-0.384435 -0.270642 -0.143466 68 1 84
0.639869 -0.080360 0.246946 68 1 84
-0.104717 0.331424 -0.243633 136 213 71
-0.685527 -0.503594 0.421959 68 1 84
0.338529 -0.418203 -0.243495 42 117 142
0.225043 0.546350 -0.118575 71 42 121
-0.634948 -0.443354 0.225791 68 1 84
-0.616820 -0.127403 0.081210 68 1 84
-0.510427 0.317116 0.444561 72 33 114
0.629382 -0.032815 0.361547 68 1 84
0.413493 -0.518467 -0.235208 30 160 135
-0.571637 0.070424 0.120238 68 1 84
0.437035 -0.370520 -0.148602 68 1 84
-0.351642 0.189251 -0.155523 68 1 84
-0.436591 0.388077 0.084331 68 1 84
0.339059 0.554768 0.128116 71 15 98
-0.161164 0.013318 -0.258755 55 88 140
-0.649959 -0.482057 0.255208 68 1 84
-0.148471 0.198872 -0.261115 96 201 96
0.357394 0.085536 -0.181858 68 1 84
0.504006 -0.120096 -0.122638 68 1 84
0.001643 -0.300436 -0.344190 65 65 134
-0.635749 -0.144255 0.497466 68 1 84
-0.270640 0.088557 -0.213878 45 111 142
0.132882 -0.192889 -0.252818 39 124 142
-0.379283 -0.314705 -0.144025 68 1 84
0.627997 -0.124963 0.081116 68 1 84
0.477206 0.162519 -0.051103 68 1 84
-0.534355 -0.021131 -0.057719 68 1 84
0.520946 0.349600 0.301210 68 1 84
-0.681529 -0.287549 0.386353 68 1 84
-0.689574 -0.381277 0.470000 68 1 84
0.643666 -0.103417 0.377405 68 1 84
-0.284570 0.569148 0.122448 68 1 84
0.439043 0.288238 -0.012244 69 50 127
0.291297 0.401223 -0.085170 69 54 129
0.481086 0.405841 0.309065 68 1 84
0.176064 0.360478 -0.191548 41 175 127
0.398428 0.328038 -0.041155 51 97 141
-0.561966 0.049091 0.041345 68 1 84
0.089556 0.596933 -0.198087 44 114 142
0.438901 0.461276 0.283315 71 17 99
-0.239117 0.143119 -0.223368 45 111 142
-0.561832 0.209306 0.362541 68 1 84
-0.198762 -0.395592 -0.262499 34 167 132
-0.458775 -0.217343 -0.113747 68 1 84
0.111189 0.070669 -0.275338 39 173 128
-0.176794 -0.391394 -0.261602 30 158 136
0.386800 -0.378177 -0.196170 62 72 136
0.606462 0.024718 0.163679 68 1 84
0.275164 -0.381756 -0.250312 31 148 139
-0.074502 0.649933 -0.129486 59 81 138
-0.655810 -0.220669 0.233195 68 1 84
0.505471 0.258652 0.060621 68 1 84
0.052553 0.199309 -0.305782 126 210 78
-0.297695 0.556620 0.093174 68 1 84
0.343633 0.268997 -0.125629 39 126 142
-0.397737 0.185228 -0.117384 68 1 84
0.317694 0.220873 -0.167036 34 138 141
-0.615241 -0.553954 0.172356 68 1 84
-0.673064 -0.552557 0.300996 68 1 84
0.444986 -0.007263 -0.162081 68 1 84
-0.661542 -0.215011 0.440966 68 1 84
-0.026663 -0.025754 -0.481700 71 24 106
-0.017798 -0.238456 -0.377433 62 72 136
-0.592161 0.068843 0.306379 68 1 84
0.288448 0.463034 -0.067777 71 22 105
-0.649696 -0.391313 0.258155 68 1 84
0.422309 0.330136 -0.008882 65 65 134
0.124092 -0.252491 -0.205279 77 194 107
-0.662966 -0.533486 0.270936 68 1 84
-0.643626 -0.295242 0.172121 68 1 84
0.028970 -0.391193 -0.319122 30 160 135
0.122419 -0.255017 -0.205314 73 193 109
0.482158 0.097785 -0.089105 68 1 84
0.259439 -0.464802 -0.297573 66 190 113
-0.368166 -0.132723 -0.176304 70 14 97
-0.595526 0.052352 0.480714 67 58 131
0.610277 0.069639 0.343044 68 1 84
-0.422158 -0.306748 -0.105207 68 1 84
0.667615 -0.223214 0.223399 68 1 84
0.191824 0.636256 -0.060169 68 1 84
0.457362 -0.326497 -0.090613 68 1 84
-0.586793 0.102130 0.377982 68 1 84
-0.043869 -0.435273 -0.331991 91 200 98
-0.670485 -0.219797 0.417237 68 1 84
-0.456947 -0.146992 -0.137046 68 1 84
0.554242 0.215563 0.131194 68 1 84
-0.082497 -0.212388 -0.342854 33 141 140
-0.529521 -0.198652 -0.064643 68 1 84
-0.543928 0.262531 0.378027 68 2 85
-0.578247 -0.199250 -0.002715 68 1 84
0.121531 -0.250884 -0.211304 64 189 114
-0.357205 0.415432 -0.008249 68 1 84
0.421996 0.172086 -0.104407 68 1 84
-0.432542 0.064141 -0.145197 68 1 84
0.554157 0.265751 0.415863 68 1 84
-0.501698 0.141897 -0.017428 68 1 84
-0.454557 0.088059 -0.115214 68 1 84
0.665545 -0.267388 0.510628 68 1 84
0.679591 -0.431827 0.450055 68 1 84
0.665754 -0.367408 0.264911 68 1 84
-0.183218 0.010371 -0.223972 35 137 141
-0.405877 0.464729 0.134846 68 1 84
0.591917 0.112988 0.186661 68 1 84
-0.391934 -0.376780 -0.199776 71 15 98
0.597578 -0.075850 0.010687 68 1 84
0.458381 0.217984 -0.032142 68 1 84
0.601458 0.121823 0.340626 68 1 84
0.036370 0.245642 -0.280252 250 230 34
0.204135 -0.025135 -0.218446 72 28 110
-0.677675 -0.455326 0.416020 68 1 84
-0.315984 0.445170 -0.030454 68 1 84
0.564590 0.230984 0.444004 68 1 84
-0.687316 -0.566550 0.441299 68 1 84
-0.176197 -0.137979 -0.234565 37 131 141
-0.163501 0.277905 -0.199784 33 141 140
0.584743 0.081672 0.107780 68 1 84
0.218371 -0.365339 -0.235433 50 181 122
0.328405 0.520636 0.018046 72 26 108
-0.202099 0.175489 -0.237178 30 158 136
-0.387798 -0.328647 -0.140470 68 1 84
0.582933 0.155087 0.185958 68 1 84
-0.088783 -0.245855 -0.312572 31 150 139
0.496446 0.309560 0.087031 71 21 103
0.090311 0.631006 -0.168794 67 59 131
-0.572873 -0.463174 0.051395 68 1 84
-0.528306 -0.117322 -0.080325 68 1 84
-0.127766 0.036171 -0.288972 44 112 142
0.322604 0.558202 0.079140 70 47 124
0.615231 0.041166 0.299607 68 1 84
-0.274890 0.489180 -0.045407 68 1 84
0.248705 0.416525 -0.113225 64 67 135
-0.355343 0.457099 0.025411 68 1 84
-0.141248 0.538904 -0.166017 70 48 125
0.157887 0.128369 -0.262670 60 78 138
-0.637551 -0.131959 0.194780 68 1 84
-0.422972 -0.163730 -0.148383 68 1 84
0.313620 -0.158371 -0.183128 68 1 84
-0.595891 -0.258877 0.047203 68 1 84
0.028425 0.530967 -0.229771 31 150 139
-0.551889 -0.271350 -0.010029 68 1 84
-0.488693 0.366521 0.366322 68 1 84
-0.461453 0.411956 0.280906 68 1 84
-0.050176 0.294665 -0.287019 73 193 109
-0.664410 -0.269617 0.273761 68 1 84
-0.293388 0.538979 0.030571 68 1 84
0.104237 -0.375549 -0.261069 85 198 102
-0.158821 -0.262115 -0.178277 39 173 128
-0.178293 0.556105 -0.124259 68 1 84
-0.476218 0.118613 -0.071393 68 1 84
-0.056299 0.363880 -0.248830 212 225 26
-0.364245 -0.255752 -0.155794 61 76 137
0.673477 -0.472700 0.410277 68 1 84
-0.604197 -0.432672 0.118669 68 1 84
0.112107 -0.046618 -0.423382 68 1 84
0.678288 -0.329048 0.293905 68 1 84
-0.234114 -0.475230 -0.327707 98 202 95
-0.508884 0.213898 0.058424 68 1 84
-0.362816 0.314085 -0.080876 68 1 84
0.515284 0.361267 0.222843 68 1 84
-0.179816 -0.043783 -0.233632 51 97 141
0.664149 -0.416067 0.303731 68 1 84
0.610346 -0.387390 0.087857 68 1 84
0.585259 0.189983 0.286677 68 1 84
0.586897 -0.287161 0.016812 68 1 84
0.504547 0.340942 0.447247 68 1 84
-0.412649 0.182335 -0.103926 68 1 84
-0.316339 0.472868 -0.009851 68 3 87
-0.205143 0.580004 -0.074842 68 1 84
0.350615 -0.155384 -0.179253 68 1 84
0.357429 0.050332 -0.191815 68 1 84
0.225402 -0.265820 -0.185086 30 160 135
-0.001865 0.051358 -0.352044 50 98 141
0.548584 -0.109360 -0.077938 68 1 84
-0.376376 0.501138 0.237692 68 1 84
-0.003983 0.046929 -0.404955 49 102 141
0.344126 0.465082 -0.011644 68 1 84
-0.488471 0.295859 0.094257 68 1 84
-0.163329 0.481013 -0.152310 52 95 141
0.508776 0.323876 0.124718 68 2 85
-0.501932 0.320521 0.166137 68 1 84
-0.165239 0.407180 -0.163677 69 50 127
-0.629039 -0.077662 0.320096 68 1 84
-0.552819 0.208251 0.471975 72 35 116
0.147856 -0.427332 -0.306848 167 219 51
0.667678 -0.456015 0.394711 68 1 84
-0.636217 -0.455965 0.231674 68 1 84
-0.573163 0.047484 0.081558 68 1 84
-0.432635 0.448401 0.219433 68 1 84
0.591684 0.159214 0.399320 68 1 84
0.192139 0.342222 -0.183653 39 124 142
0.672961 -0.563456 0.381863 68 1 84
-0.680921 -0.251376 0.416984 68 1 84
-0.620897 -0.038438 0.380626 68 1 84
-0.560868 0.079430 0.074231 68 1 84
0.565673 0.250293 0.367759 68 1 84
-0.418928 0.373781 0.040424 68 1 84
0.146365 0.030288 -0.268623 55 89 140
0.586189 -0.508952 0.081836 69 5 88
-0.450002 -0.469404 -0.206503 43 116 142
-0.560282 0.189609 0.458991 70 11 94
-0.165110 0.197852 -0.251739 32 165 133
-0.053245 -0.194190 -0.388271 71 42 121
-0.686731 -0.296906 0.452210 68 1 84
0.237098 -0.044001 -0.219709 71 18 101
-0.565518 0.186346 0.421024 68 1 84
-0.492142 -0.220065 -0.090956 68 1 84
0.451419 -0.313710 -0.094816 68 1 84
0.525982 -0.391247 -0.057113 68 1 84
-0.423842 -0.308821 -0.103858 68 1 84
0.228424 -0.357151 -0.219254 46 178 124
0.595904 0.012658 0.074073 68 1 84
0.601347 -0.561212 0.135976 65 66 134
0.497234 -0.074360 -0.127650 68 1 84
-0.564986 0.173981 0.252718 68 1 84
0.509794 0.346161 0.400648 68 1 84
-0.119076 0.601607 -0.155185 70 14 97
0.333125 0.198808 -0.167485 50 99 141
0.659881 -0.587342 0.319856 69 5 88
-0.224823 0.591458 -0.015988 68 1 84
-0.489030 0.044538 -0.096073 68 1 84
0.542800 0.307773 0.315081 68 1 84
0.466258 -0.312020 -0.083202 68 1 84
-0.561856 0.068249 0.062877 68 1 84
0.622704 -0.034251 0.173215 68 1 84
0.611454 0.005407 0.164841 68 1 84
-0.624807 -0.087190 0.550659 70 48 125
-0.241010 -0.187961 -0.187586 44 113 142
-0.282265 0.119501 -0.209764 65 65 134
0.247511 -0.191276 -0.186199 44 114 142
-0.169458 -0.325322 -0.172531 34 138 141
0.030382 -0.480548 -0.339757 119 208 82
-0.156830 -0.010896 -0.327779 33 141 140
0.544864 0.199492 0.087966 68 1 84
-0.460990 -0.360853 -0.126108 68 1 84
-0.115064 0.220553 -0.267689 116 208 84
0.349598 -0.318708 -0.166642 72 34 115
-0.688766 -0.504240 0.463664 68 1 84
0.652022 -0.427248 0.253333 68 1 84
0.672845 -0.201142 0.369875 68 1 84
0.516708 -0.420374 -0.084371 68 1 84
0.350783 0.137901 -0.172378 68 1 84
-0.620678 -0.288902 0.102950 68 1 84
0.615492 -0.452652 0.132288 68 1 84
0.068482 0.297048 -0.287780 31 161 135
-0.248244 0.219228 -0.200267 50 99 141
-0.590824 -0.244759 0.032723 68 1 84
0.317333 -0.361653 -0.232848 55 89 140
-0.074865 0.667612 -0.076495 72 29 111
0.479917 0.213629 -0.008251 68 1 84
0.436843 0.149201 -0.103127 68 1 84
0.606008 0.087891 0.436710 68 1 84
-0.315311 0.215855 -0.171099 68 1 84
-0.398556 0.419842 0.051065 68 1 84
-0.062571 0.630050 -0.164862 68 55 129
-0.552227 0.117147 0.089824 68 1 84
0.270781 -0.309874 -0.180617 33 140 141
0.045554 -0.315596 -0.318540 49 101 141
