ply
format ascii 1.0
element vertex 1289
property float x
property float y
property float z
property uchar red
property uchar green
property uchar blue
end_header
0.581622 -0.071648 0.107537 68 1 84
0.078050 0.521789 -0.253043 68 1 84
-0.410991 -0.099428 -0.157016 68 1 84
-0.113505 0.222672 -0.267837 68 1 84
0.486564 -0.612998 -0.053394 87 198 101
0.620392 -0.248673 0.243927 63 71 136
-0.458314 0.458874 0.350150 68 1 84
-0.513212 0.199178 0.122807 68 1 84
-0.286070 -0.239451 -0.193116 68 1 84
-0.539103 -0.331487 -0.004053 71 39 119
-0.291705 0.090591 -0.192340 68 1 84
0.595460 -0.057942 0.225288 68 1 84
-0.024000 0.148811 -0.327550 68 1 84
0.224137 -0.325486 -0.175891 68 1 84
0.622475 -0.098853 0.473370 68 1 84
0.576572 0.249696 0.461517 68 1 84
-0.089552 -0.014743 -0.333745 68 1 84
0.469566 0.413548 0.091860 68 1 84
0.616882 -0.389636 0.328919 72 34 115
0.235353 0.391224 -0.158702 71 42 121
-0.628341 -0.064060 0.235244 68 1 84
-0.045422 -0.418323 -0.283234 68 1 84
0.421373 0.365218 -0.004078 68 1 84
-0.098925 0.530367 -0.207875 68 1 84
-0.625098 0.053904 0.393340 68 1 84
-0.008445 0.192909 -0.323243 68 1 84
0.584232 0.194496 0.320693 68 1 84
0.086766 -0.428337 -0.218641 71 38 118
-0.217944 0.466448 -0.107024 68 1 84
0.370046 0.506093 0.003012 68 1 84
-0.444877 0.409758 0.086131 68 1 84
0.519148 -0.012303 0.001046 68 1 84
0.357930 0.260129 -0.114717 68 1 84
-0.065241 -0.575534 -0.308401 36 170 130
-0.059361 -0.194535 -0.368782 68 1 84
-0.253131 0.233298 -0.179404 68 1 84
0.530431 0.334953 0.199013 68 1 84
0.055721 0.372754 -0.244887 68 1 84
0.079219 -0.333559 -0.263564 72 29 111
0.620481 -0.053927 0.454608 68 1 84
-0.517282 0.290270 0.159095 68 1 84
0.239006 0.154047 -0.227261 68 1 84
-0.411887 -0.345768 -0.101875 71 37 117
-0.482962 -0.076648 -0.100121 68 1 84
0.596599 -0.373942 0.237130 71 21 103
0.243937 -0.359616 -0.156655 68 1 84
-0.182675 -0.097665 -0.244459 68 1 84
0.522770 -0.263568 -0.022978 61 76 137
0.487320 0.144006 0.023574 68 1 84
0.097914 -0.518734 -0.273789 71 20 102
0.338814 0.345366 -0.093124 68 1 84
-0.667486 -0.337510 0.341410 57 84 139
-0.247847 0.612506 -0.010772 68 1 84
-0.395204 0.528110 0.106529 68 1 84
0.094565 0.094340 -0.313686 68 1 84
0.439096 0.465790 0.077313 68 1 84
-0.520925 -0.373032 -0.026424 64 67 135
-0.495105 -0.376294 -0.057547 67 59 131
-0.031164 0.411359 -0.227003 68 1 84
0.482056 -0.393096 -0.024721 68 1 84
0.176155 -0.350426 -0.168292 72 35 116
-0.714577 -0.477370 0.382651 42 117 142
-0.556272 -0.465580 0.062892 49 102 141
0.518371 -0.523360 0.057165 57 84 139
-0.174195 0.523448 -0.142992 68 1 84
0.496649 -0.608869 -0.021980 33 167 132
-0.118267 0.221394 -0.266867 68 1 84
-0.115403 0.473195 -0.191184 68 1 84
0.318951 0.305668 -0.119894 68 1 84
-0.046521 0.036917 -0.331423 68 1 84
-0.326649 -0.368636 -0.152378 45 111 142
-0.639070 -0.352647 0.234144 66 64 133
-0.430718 0.505712 0.193857 68 1 84
-0.447348 0.378646 0.075668 68 1 84
-0.566481 -0.400405 0.075693 60 78 138
-0.609262 -0.283078 0.119742 70 45 124
0.007824 -0.075318 -0.514085 68 1 84
0.513828 0.343899 0.136872 68 1 84
0.079808 0.015332 -0.339368 68 1 84
-0.153540 0.266141 -0.183227 68 2 85
-0.089253 -0.470147 -0.261288 40 122 142
0.413136 0.530041 0.114497 68 1 84
0.312898 0.376286 -0.097734 68 1 84
0.191417 0.264852 -0.187966 68 1 84
-0.511712 -0.270908 -0.047447 68 1 84
-0.521913 0.384840 0.290183 68 1 84
-0.023288 0.400605 -0.229984 68 1 84
-0.644981 -0.016684 0.470028 68 1 84
0.178565 0.299941 -0.214376 68 1 84
-0.439535 0.446085 0.103139 68 1 84
-0.206754 0.377340 -0.132088 68 1 84
-0.610968 0.021473 0.294228 68 1 84
0.575906 0.234517 0.324307 68 1 84
-0.604163 -0.195759 0.077493 68 1 84
0.048159 0.463757 -0.248427 68 1 84
-0.440072 -0.251046 -0.108148 68 1 84
0.267379 0.036044 -0.208359 68 1 84
-0.650858 -0.023133 0.505903 68 1 84
0.059136 -0.403232 -0.256411 70 12 95
0.416090 0.524747 0.109372 68 1 84
0.206481 0.662837 -0.071965 68 1 84
0.249781 -0.398953 -0.146229 68 1 84
0.141071 -0.251599 -0.240701 68 1 84
0.488457 -0.064514 -0.070423 69 6 90
0.215021 -0.250090 -0.194874 68 1 84
-0.229684 0.387118 -0.115796 68 1 84
0.113283 -0.156561 -0.336945 69 50 127
0.469242 0.252765 0.018986 68 1 84
0.166836 -0.531004 -0.251781 68 1 84
-0.611775 0.117756 0.541204 68 1 84
-0.581384 0.257133 0.349346 68 1 84
0.342940 0.188604 -0.145261 68 1 84
-0.607508 -0.076748 0.129993 68 1 84
-0.699109 -0.331829 0.467100 65 66 134
-0.221001 0.650073 0.024722 68 1 84
0.028406 0.660079 -0.194588 68 1 84
-0.191075 -0.084798 -0.241773 68 1 84
-0.609153 0.013658 0.272904 68 1 84
-0.251346 0.627195 0.016060 68 1 84
-0.156075 -0.334966 -0.182319 69 8 91
-0.420281 0.515870 0.170002 68 1 84
0.239048 -0.013881 -0.218729 68 1 84
-0.511118 -0.502833 -0.098439 35 137 141
0.508719 0.255956 0.075780 68 1 84
0.081170 0.345627 -0.261624 68 1 84
-0.629160 0.071156 0.528420 68 1 84
-0.415235 -0.524582 -0.204389 58 83 139
0.533380 -0.006404 0.031538 68 1 84
0.368859 0.514545 0.007043 68 1 84
0.561377 0.182013 0.194771 69 8 91
0.620166 -0.058644 0.451537 68 1 84
0.592223 -0.250008 0.104864 68 2 85
0.206225 0.519531 -0.194408 68 1 84
-0.565159 0.298219 0.464032 68 1 84
0.493749 -0.376023 -0.014670 71 44 123
-0.671699 -0.243390 0.312089 71 15 98
0.421205 0.526132 0.209817 68 1 84
0.511184 0.394907 0.243801 68 1 84
-0.232953 0.089967 -0.215647 68 1 84
0.183391 -0.099780 -0.238579 68 1 84
-0.278736 0.097575 -0.197234 68 1 84
0.087936 -0.054898 -0.491950 68 1 84
-0.624795 -0.029323 0.295032 68 1 84
0.564299 0.277000 0.326915 68 1 84
-0.373446 0.056136 -0.147410 68 1 84
0.613013 -0.233239 0.189856 68 1 84
0.416173 -0.522663 -0.158276 68 3 87
0.528922 0.172891 0.097836 68 1 84
0.366319 -0.422790 -0.118853 68 1 84
0.480996 -0.551778 -0.093538 44 112 142
0.483049 0.282594 0.044094 68 1 84
-0.496887 -0.394172 -0.063862 66 61 132
0.069904 -0.009299 -0.446843 68 1 84
-0.708152 -0.419263 0.392602 44 114 142
0.363146 0.170827 -0.130113 68 1 84
-0.351544 0.040167 -0.166800 68 1 84
0.613759 -0.037528 0.390422 68 1 84
0.450140 0.369400 0.033483 68 1 84
-0.644963 -0.020876 0.462527 68 1 84
0.550090 0.319228 0.366830 68 1 84
0.476735 -0.461318 -0.056169 68 1 84
0.080658 0.187009 -0.320470 68 1 84
0.015091 0.441771 -0.240594 68 1 84
0.425260 0.523179 0.186730 68 1 84
0.113156 -0.501601 -0.246205 68 1 84
-0.421196 0.188029 -0.025913 68 1 84
-0.477240 0.323929 0.100969 68 1 84
-0.030287 0.439168 -0.227492 68 1 84
0.186088 0.063331 -0.237423 68 1 84
-0.555763 0.263717 0.240701 68 1 84
0.248121 0.466641 -0.141269 68 1 84
0.378197 -0.003157 -0.151559 68 1 84
-0.546684 0.347662 0.341326 68 1 84
0.388187 0.192225 -0.100492 68 1 84
0.114924 -0.070679 -0.453455 68 1 84
-0.091094 -0.160817 -0.326697 68 1 84
-0.003794 0.585378 -0.246522 68 1 84
-0.293018 -0.448023 -0.197368 53 93 140
-0.147785 0.069833 -0.245192 68 1 84
-0.667539 -0.438022 0.288050 61 74 137
0.610007 -0.133464 0.249259 68 1 84
-0.649523 -0.347803 0.256234 57 84 139
-0.666896 -0.321153 0.357167 67 60 132
0.347905 0.406813 -0.060664 68 1 84
0.633272 -0.315461 0.355655 64 68 135
0.611106 -0.141199 0.246996 68 1 84
0.099740 0.438074 -0.235432 68 1 84
-0.305675 0.618254 0.120829 68 1 84
-0.658518 -0.147475 0.325428 69 50 127
0.624548 -0.264322 0.561289 68 1 84
0.336156 -0.115095 -0.176247 68 1 84
0.492725 -0.505549 -0.058106 63 71 136
-0.646234 -0.128805 0.237618 68 1 84
0.628781 -0.306452 0.455648 70 48 125
0.556301 0.156696 0.162068 68 1 84
-0.658999 -0.233747 0.252199 71 24 106
0.057581 0.229118 -0.282625 71 44 123
0.201700 0.001889 -0.221828 68 1 84
-0.564583 -0.041834 0.042737 68 1 84
-0.383515 0.186761 -0.080659 68 1 84
0.142082 0.602654 -0.224241 68 1 84
-0.023986 -0.185465 -0.432925 68 1 84
-0.198586 -0.199180 -0.218379 68 1 84
-0.371296 0.230987 -0.072000 68 1 84
-0.206244 -0.288067 -0.194400 68 1 84
0.620498 -0.344065 0.283660 70 47 124
0.177702 -0.283615 -0.197148 72 25 107
-0.584292 0.051546 0.209760 68 1 84
0.462332 0.447126 0.334461 68 2 85
0.260412 0.626652 -0.049400 68 1 84
-0.465440 -0.453132 -0.135369 51 96 141
0.182658 -0.469528 -0.197750 72 35 116
-0.149272 -0.559922 -0.297982 39 124 142
0.379457 0.569396 0.168305 70 14 97
0.070001 0.059822 -0.339157 71 44 123
0.616297 0.060654 0.484357 68 1 84
-0.138882 -0.027607 -0.282951 68 1 84
0.242921 0.536484 -0.156208 68 1 84
-0.478574 0.443196 0.291296 68 1 84
-0.109735 -0.195577 -0.294285 68 1 84
-0.592558 0.202600 0.347983 68 1 84
0.349239 -0.396575 -0.116126 68 1 84
-0.477598 0.302687 0.095726 68 1 84
0.192562 0.662459 -0.119385 68 1 84
0.621590 -0.172971 0.370005 68 57 130
-0.126236 0.108766 -0.263345 68 1 84
-0.250269 0.143841 -0.201999 68 1 84
-0.205399 -0.174405 -0.221328 68 1 84
0.553888 -0.081288 0.025874 68 1 84
0.311989 -0.447806 -0.153722 68 1 84
0.033599 0.339758 -0.272873 68 1 84
0.112933 -0.435858 -0.201169 72 30 112
-0.668273 -0.312914 0.367217 52 94 141
0.382605 -0.470839 -0.170800 68 1 84
0.052973 0.385526 -0.239770 68 1 84
0.060604 0.247058 -0.262764 71 22 105
0.163507 0.397715 -0.210877 68 1 84
0.262636 -0.596218 -0.264413 71 40 120
-0.345792 0.352169 -0.047298 68 1 84
-0.254038 0.514549 -0.068572 68 1 84
-0.578911 0.080431 0.218905 68 1 84
0.407660 0.536235 0.112465 68 1 84
0.593578 -0.055110 0.214408 68 1 84
0.593189 -0.194885 0.095007 68 1 84
0.191680 0.266151 -0.187277 68 1 84
-0.431947 0.009292 -0.115598 68 1 84
0.499966 -0.368978 -0.009630 70 48 125
-0.206094 -0.005261 -0.235355 68 1 84
-0.407416 0.247594 -0.013709 68 1 84
0.181468 0.192601 -0.260367 68 1 84
0.462464 0.449456 0.323599 68 1 84
0.618047 -0.456250 0.460181 44 114 142
-0.007321 -0.019814 -0.407746 68 1 84
0.383514 0.402465 -0.029333 68 1 84
-0.467916 0.449730 0.189486 68 1 84
0.076436 -0.022402 -0.353196 69 8 91
0.094981 -0.034627 -0.467371 68 1 84
-0.062054 0.026473 -0.319397 68 1 84
-0.583113 0.060922 0.216064 68 1 84
-0.630387 0.067532 0.499453 68 1 84
0.482687 0.414204 0.378266 68 1 84
-0.197956 -0.196222 -0.219695 68 1 84
0.611676 -0.106137 0.314716 68 1 84
0.213003 0.555678 -0.190712 68 1 84
0.450180 0.378500 0.038263 68 1 84
-0.099812 0.108468 -0.279558 68 1 84
0.474472 0.280992 0.032395 68 1 84
-0.132418 0.642442 -0.131918 68 1 84
0.559050 -0.511827 0.224103 31 149 139
0.069724 -0.011922 -0.433200 68 1 84
0.578897 -0.477527 0.293940 45 110 142
0.629621 -0.114421 0.512045 68 1 84
-0.057467 0.606749 -0.218252 68 1 84
0.402397 -0.419289 -0.097582 68 1 84
-0.140278 0.413468 -0.174905 68 1 84
-0.112282 -0.064003 -0.370593 68 1 84
-0.102227 -0.024300 -0.364945 68 1 84
-0.633741 -0.189967 0.161083 72 30 112
-0.461053 -0.434065 -0.123023 49 101 141
-0.264688 0.543799 -0.047737 68 1 84
-0.491510 -0.058944 -0.084297 68 1 84
0.589722 -0.029353 0.216276 68 1 84
0.190438 0.157014 -0.255729 68 3 87
-0.364541 0.436631 0.004129 68 1 84
-0.111911 0.571673 -0.195638 68 1 84
-0.002210 0.002481 -0.393112 68 1 84
0.412502 0.286068 -0.044756 68 1 84
-0.029631 -0.314456 -0.348737 68 1 84
-0.514459 -0.517821 -0.086986 35 135 141
0.015817 -0.089287 -0.512652 68 1 84
-0.649850 -0.021554 0.500935 68 1 84
-0.251292 -0.058378 -0.222272 68 1 84
0.449540 0.373388 0.034745 68 1 84
0.551693 -0.099323 0.011685 68 1 84
0.548256 -0.560392 0.191174 139 213 70
0.131103 0.529609 -0.242311 68 1 84
0.630124 -0.225080 0.453843 68 1 84
-0.210495 0.425379 -0.118052 68 1 84
0.499605 -0.574983 -0.018341 30 152 138
0.575079 -0.424110 0.217024 54 91 140
-0.499405 0.417790 0.319767 68 1 84
0.053847 0.525533 -0.255508 68 1 84
-0.156246 -0.501678 -0.246340 42 117 142
0.598365 -0.021528 0.264526 68 1 84
0.102396 -0.042944 -0.464320 68 1 84
0.236044 0.269878 -0.157174 68 1 84
0.279885 0.127794 -0.202865 68 1 84
0.621196 0.018487 0.461338 68 1 84
0.626165 -0.076268 0.492583 68 1 84
0.102505 0.561444 -0.248501 68 1 84
-0.300141 -0.449986 -0.203165 56 87 140
0.620621 0.002932 0.442769 68 1 84
-0.724336 -0.430527 0.489739 32 143 140
-0.135110 0.220070 -0.257769 68 1 84
-0.455847 0.081568 -0.045278 68 1 84
0.077292 0.353373 -0.257379 68 1 84
-0.629098 -0.285986 0.176408 71 42 121
-0.577928 0.199257 0.277402 68 1 84
-0.602095 0.005012 0.225522 68 1 84
-0.073296 0.043538 -0.306649 68 1 84
-0.065876 -0.434164 -0.266917 71 21 103
0.246697 -0.123005 -0.208854 68 1 84
-0.502474 0.382628 0.191873 68 1 84
0.330105 -0.530792 -0.204190 71 22 105
0.557267 -0.311016 0.049254 70 49 126
-0.368057 0.567910 0.129112 68 1 84
-0.639607 -0.350472 0.234631 61 76 137
0.530335 -0.419368 0.054503 71 43 122
-0.490877 0.415242 0.206453 68 1 84
-0.027709 -0.495242 -0.297571 72 26 108
0.058747 -0.341044 -0.293024 67 59 131
0.438144 0.508703 0.163412 68 1 84
0.058360 0.252641 -0.261241 68 1 84
-0.059927 -0.292839 -0.320875 68 1 84
0.439090 0.165473 -0.044989 68 1 84
0.201611 -0.052163 -0.228211 68 1 84
-0.065292 -0.133573 -0.403839 68 1 84
0.044294 0.109829 -0.326242 68 1 84
-0.506856 -0.147068 -0.084143 68 1 84
-0.391669 -0.124887 -0.167431 68 1 84
0.610421 -0.140865 0.237175 68 1 84
-0.021453 0.304799 -0.268818 68 1 84
-0.247364 0.345782 -0.122553 68 1 84
0.263949 -0.516985 -0.219276 68 1 84
0.631251 -0.183256 0.578569 68 1 84
0.060621 -0.011577 -0.410127 68 1 84
0.574123 -0.041366 0.107492 68 1 84
0.488020 0.411878 0.339984 68 1 84
-0.079216 0.256228 -0.243904 72 26 108
-0.529985 -0.431943 -0.020310 46 107 142
-0.274650 0.275581 -0.146142 68 1 84
-0.552718 0.329104 0.438008 68 1 84
0.108222 -0.159376 -0.351307 72 25 107
-0.500899 -0.370239 -0.050183 63 69 135
-0.530463 0.135866 0.128372 68 1 84
-0.626588 0.009523 0.369576 68 1 84
-0.026598 0.026590 -0.350966 68 1 84
0.438701 0.223502 -0.030134 68 1 84
-0.498317 -0.069645 -0.080623 68 1 84
-0.146483 -0.105425 -0.262555 68 1 84
-0.261167 -0.348754 -0.167988 55 88 140
-0.086911 0.676507 -0.115054 68 1 84
0.609657 -0.092423 0.297887 68 1 84
-0.563473 0.256882 0.548849 68 1 84
-0.466474 -0.248164 -0.090052 68 1 84
-0.282877 -0.154971 -0.201460 68 1 84
0.063003 -0.404752 -0.250008 71 43 122
0.604647 -0.048536 0.283322 68 1 84
0.544469 -0.138965 -0.013302 72 25 107
0.324903 0.288453 -0.125667 68 1 84
0.520739 -0.516983 0.066870 54 90 140
-0.622312 -0.096261 0.162212 68 1 84
-0.013099 -0.028218 -0.410785 68 1 84
0.397767 0.437625 0.002167 68 1 84
-0.217388 -0.468143 -0.212707 42 117 142
0.123490 -0.419291 -0.188491 56 86 139
-0.146953 0.672252 -0.033390 68 1 84
0.286244 0.542646 -0.092092 68 1 84
0.074614 -0.426913 -0.233873 69 5 88
0.472028 0.460631 0.163192 68 1 84
0.269951 0.263613 -0.153391 68 1 84
0.605968 -0.251527 0.160559 68 1 84
0.144546 -0.485989 -0.217869 68 1 84
-0.532838 0.373639 0.370323 68 1 84
-0.570798 0.158087 0.232901 68 1 84
0.610860 0.098577 0.432563 68 1 84
-0.452208 0.133966 -0.016644 68 1 84
-0.245285 0.622167 -0.000482 68 1 84
0.055719 -0.247146 -0.392986 68 1 84
0.564382 0.166703 0.201632 68 1 84
-0.144842 0.319771 -0.184764 68 1 84
-0.508430 0.058527 0.019756 68 1 84
-0.275164 0.501938 -0.053411 68 1 84
-0.392949 -0.024185 -0.156504 68 1 84
0.502406 0.122440 0.041715 69 5 88
-0.499622 -0.189719 -0.085011 68 1 84
-0.446990 -0.494885 -0.175585 59 81 138
0.612424 -0.084908 0.383240 68 1 84
-0.695781 -0.398331 0.359096 59 80 138
-0.449040 -0.421902 -0.122410 56 86 139
0.459385 -0.219451 -0.102223 68 1 84
0.553017 -0.011123 0.069321 68 1 84
0.577252 -0.048613 0.114532 68 1 84
0.221965 0.266201 -0.164022 68 1 84
0.037906 0.403784 -0.237908 68 1 84
0.114991 -0.192525 -0.303987 69 52 127
0.144314 0.325029 -0.242622 68 1 84
0.318158 0.333127 -0.109452 68 1 84
0.611941 0.081064 0.410979 68 1 84
0.457187 -0.502903 -0.110229 71 20 102
0.295245 0.620089 0.035471 68 1 84
-0.685378 -0.268308 0.443131 70 45 124
0.124796 -0.095471 -0.400988 69 8 91
-0.405417 -0.168954 -0.158456 68 1 84
0.638526 -0.280751 0.377990 68 57 130
0.576762 -0.495022 0.281240 45 111 142
0.170129 -0.547232 -0.270467 68 1 84
0.053684 0.178114 -0.331661 68 1 84
-0.322811 0.561269 0.026363 68 1 84
0.353017 0.564198 0.029763 68 1 84
0.603650 0.056604 0.319050 68 1 84
-0.369377 -0.582412 -0.236185 69 53 128
-0.679178 -0.383180 0.326670 72 34 115
-0.604948 -0.246678 0.090437 69 8 91
0.312395 -0.371777 -0.143003 68 1 84
-0.686965 -0.249964 0.509734 57 85 139
0.090222 -0.489226 -0.253379 68 1 84
-0.006502 0.216750 -0.301950 71 20 102
0.439960 0.505631 0.200811 68 1 84
-0.606270 0.188165 0.432203 68 1 84
0.223426 -0.531572 -0.230680 68 1 84
-0.462012 0.438527 0.149584 68 1 84
0.623882 -0.090117 0.478812 68 1 84
0.244074 -0.404929 -0.145492 72 25 107
0.535401 -0.472734 0.108705 40 122 142
0.150426 -0.379109 -0.157312 65 66 134
-0.653557 -0.123154 0.328931 71 37 117
-0.090985 -0.519398 -0.292064 52 95 141
-0.634811 -0.350027 0.222980 63 69 135
-0.496301 0.116824 0.045389 68 1 84
0.579963 -0.549398 0.252244 36 170 130
0.555668 0.251272 0.220665 68 1 84
0.096630 -0.202950 -0.337661 71 44 123
0.068826 -0.148405 -0.462522 68 1 84
0.526883 -0.470972 0.072999 66 61 132
0.418615 -0.516164 -0.153235 68 1 84
-0.572054 -0.030731 0.071351 68 1 84
-0.540474 0.254983 0.194703 68 1 84
0.603347 -0.128600 0.181839 68 1 84
0.378881 0.090551 -0.134945 68 1 84
-0.589658 0.183409 0.544078 68 1 84
0.490654 -0.333291 -0.025385 62 73 137
0.132683 0.634646 -0.207175 68 1 84
0.000646 -0.001523 -0.425457 70 12 95
-0.634355 0.030341 0.458627 68 1 84
0.547168 0.277910 0.210220 68 1 84
0.340394 0.013003 -0.175615 68 1 84
-0.561190 -0.051831 0.028330 68 1 84
0.585083 -0.009992 0.205124 68 1 84
-0.104566 0.468700 -0.196649 68 1 84
0.324550 -0.628479 -0.235803 71 43 122
-0.125677 0.368281 -0.196630 68 1 84
0.586475 0.121419 0.277045 68 1 84
-0.495624 0.403387 0.202104 68 1 84
-0.339571 0.259045 -0.094837 68 1 84
0.233065 0.229856 -0.200009 68 1 84
-0.067498 -0.136486 -0.394928 68 1 84
-0.466225 0.433564 0.154434 68 1 84
-0.364349 -0.556930 -0.234568 67 59 131
0.628145 -0.342766 0.394360 66 62 133
0.385208 -0.017108 -0.148692 68 1 84
0.632420 -0.170060 0.586344 68 1 84
-0.531122 0.374733 0.329711 68 1 84
-0.215205 0.450014 -0.111056 68 1 84
-0.691248 -0.297262 0.461557 53 92 140
0.081791 -0.530144 -0.289421 69 52 127
0.031498 -0.244682 -0.414450 68 1 84
0.555696 -0.391102 0.109020 54 90 140
0.620481 -0.087342 0.456638 68 1 84
0.028773 0.385367 -0.239084 68 1 84
0.629777 -0.074720 0.524552 68 1 84
-0.727423 -0.461737 0.458682 39 126 142
-0.132318 0.155934 -0.266378 68 1 84
-0.083965 0.281474 -0.237610 71 17 99
-0.599816 0.209240 0.408723 68 1 84
-0.595887 -0.371002 0.132406 66 62 133
-0.544670 -0.500888 0.031532 31 161 135
-0.518261 -0.483079 -0.074856 42 117 142
0.490321 0.014605 -0.031846 68 1 84
-0.189758 -0.463649 -0.211110 38 128 142
-0.215716 0.322619 -0.134042 68 1 84
0.517714 -0.453909 0.028587 72 30 112
0.606171 -0.086780 0.275827 68 1 84
0.480608 0.062504 -0.020301 68 1 84
-0.370228 -0.403999 -0.149966 62 72 136
0.260479 0.530084 -0.132908 68 1 84
-0.570667 -0.418486 0.090768 69 54 129
-0.211799 0.520264 -0.106590 68 1 84
0.151205 0.338713 -0.234874 71 24 106
0.579942 -0.609059 0.300231 149 215 63
0.312979 -0.199301 -0.178194 68 1 84
0.512113 0.067619 0.036661 68 1 84
0.422513 0.213628 -0.054514 68 1 84
-0.597928 0.192764 0.368851 68 1 84
-0.516974 -0.345382 -0.030484 72 30 112
-0.590997 0.194720 0.332330 68 1 84
-0.304125 0.374924 -0.080511 68 1 84
0.620848 -0.434383 0.489194 62 72 136
-0.275014 -0.299770 -0.182537 68 1 84
0.536694 -0.187836 -0.028477 62 73 137
0.203664 0.160805 -0.247052 68 1 84
0.024599 -0.265352 -0.400249 68 1 84
-0.362456 -0.055357 -0.176327 68 1 84
-0.525989 -0.522520 -0.037325 30 152 138
0.302048 0.617048 0.044148 68 1 84
0.578161 -0.338190 0.128746 56 87 140
0.057148 -0.322691 -0.313382 72 25 107
0.354561 -0.255055 -0.159217 68 1 84
0.507235 -0.587476 0.029328 33 166 133
-0.312180 0.014505 -0.194308 68 1 84
0.389686 0.343735 -0.049249 68 1 84
-0.624543 -0.021732 0.312596 68 1 84
0.345280 0.233925 -0.133055 68 1 84
0.245127 0.070445 -0.214277 68 1 84
0.597293 -0.016229 0.261015 68 1 84
-0.589382 0.002569 0.160984 68 1 84
-0.018930 -0.547734 -0.309644 71 43 122
0.593871 0.194703 0.403984 68 1 84
-0.508032 0.011628 -0.018327 68 1 84
-0.671487 -0.262217 0.323735 69 52 127
-0.139932 0.328297 -0.189963 68 1 84
-0.557650 0.065965 0.141034 68 1 84
-0.658260 -0.140352 0.350495 69 54 129
0.542311 -0.452930 0.120680 35 136 141
-0.172103 -0.285177 -0.199588 68 1 84
-0.096399 0.658571 -0.146880 68 1 84
-0.677929 -0.139413 0.491300 67 59 131
-0.651128 -0.101634 0.410170 68 1 84
-0.264402 0.589301 -0.016768 68 1 84
0.610414 0.097352 0.414345 68 1 84
0.023626 0.323552 -0.276227 68 1 84
-0.312497 0.520553 -0.011879 68 1 84
-0.456001 0.397822 0.098247 68 1 84
-0.514029 0.011750 -0.009166 68 1 84
-0.254495 0.633347 0.034425 68 1 84
-0.504512 -0.027004 -0.050762 68 1 84
0.629806 -0.328416 0.355349 64 67 135
-0.678310 -0.176087 0.504068 65 65 134
0.609013 0.089688 0.388913 68 1 84
-0.342002 0.585530 0.101131 68 1 84
-0.151728 -0.387282 -0.173844 65 66 134
-0.615040 0.107655 0.383606 68 1 84
0.217707 0.571622 -0.183461 68 1 84
0.214603 -0.482522 -0.204445 72 35 116
-0.077109 0.640646 -0.182423 68 1 84
-0.590283 0.195083 0.329229 68 1 84
-0.365253 -0.237044 -0.162992 68 1 84
-0.030028 0.683414 -0.137544 68 1 84
0.575299 -0.582673 0.262332 81 196 104
0.047068 0.629597 -0.225528 68 1 84
-0.155407 0.559800 -0.157361 68 1 84
0.378356 0.280112 -0.088780 68 1 84
-0.493212 0.077057 0.007120 68 1 84
-0.634504 -0.470838 0.234244 58 82 139
0.256715 -0.049836 -0.214387 68 1 84
-0.022193 0.485852 -0.241102 68 1 84
-0.539826 0.334462 0.476078 68 1 84
-0.216691 0.085083 -0.221053 68 1 84
0.110064 0.614992 -0.228365 68 1 84
-0.628655 -0.466047 0.224696 49 102 141
-0.142530 -0.252926 -0.233835 68 1 84
-0.394562 0.128740 -0.097475 68 1 84
-0.580591 0.076720 0.221985 68 1 84
0.348017 0.078515 -0.161435 68 1 84
-0.485859 -0.338267 -0.056218 71 37 117
0.630308 -0.245947 0.480099 68 1 84
0.623389 -0.377565 0.438768 71 44 123
0.111724 -0.434332 -0.201018 72 33 114
-0.684130 -0.308648 0.408894 60 78 138
0.122545 -0.471116 -0.215916 68 1 84
0.081502 0.223282 -0.284673 69 54 129
-0.567994 0.268359 0.290058 68 1 84
0.332184 0.316473 -0.109400 68 1 84
0.060124 -0.451566 -0.260540 68 1 84
-0.276506 0.576761 -0.014579 68 1 84
0.617552 -0.213444 0.220663 68 1 84
-0.659727 -0.182108 0.278075 71 37 117
0.331487 0.139239 -0.164342 68 1 84
0.513797 0.365095 0.439202 68 1 84
-0.156004 0.350148 -0.173907 68 1 84
0.236521 -0.427810 -0.150782 69 6 90
-0.413391 -0.504267 -0.197236 58 82 139
0.081433 0.181845 -0.322993 68 1 84
0.202999 -0.592523 -0.285643 68 1 84
-0.493829 -0.257376 -0.066449 68 1 84
-0.595768 0.017769 0.214864 68 1 84
-0.537693 0.040744 0.063858 68 1 84
-0.395616 0.537371 0.130002 68 1 84
-0.558790 0.001132 0.071175 68 1 84
-0.374016 -0.579326 -0.233302 71 43 122
-0.391325 0.397382 0.015820 68 1 84
-0.051450 0.054207 -0.322511 71 22 105
0.155558 -0.091343 -0.281789 68 1 84
0.235641 0.278310 -0.156974 68 1 84
0.548257 0.319269 0.312832 68 1 84
-0.037613 -0.337503 -0.323313 68 1 84
0.259284 0.232291 -0.185093 68 1 84
0.610239 -0.528888 0.422740 71 192 110
-0.019751 -0.069356 -0.506704 68 1 84
-0.386589 0.484686 0.047076 68 1 84
0.156617 0.005384 -0.273424 68 1 84
-0.057802 0.038433 -0.321826 70 14 97
0.313223 0.542402 -0.053037 68 1 84
0.047994 0.008079 -0.439283 72 30 112
-0.225922 -0.305990 -0.187009 68 1 84
-0.414870 0.245753 -0.004634 68 1 84
0.164318 -0.014017 -0.301079 69 5 88
0.085565 -0.020141 -0.446590 68 1 84
-0.177539 0.114925 -0.236517 68 1 84
0.607667 0.088949 0.537356 68 1 84
0.316179 -0.256701 -0.175330 68 1 84
0.421085 -0.072153 -0.132162 68 1 84
0.389195 0.489188 0.017391 68 1 84
-0.353076 -0.333630 -0.149011 70 49 126
-0.374740 0.217288 -0.075805 68 1 84
0.520764 -0.004513 0.008729 68 1 84
-0.059049 -0.249307 -0.344842 68 1 84
0.186392 0.592945 -0.203201 68 1 84
0.253664 -0.527223 -0.222408 68 1 84
-0.621005 0.083280 0.398356 68 1 84
0.580717 -0.004838 0.183962 68 1 84
-0.379112 0.389832 0.000887 68 1 84
0.090165 -0.160173 -0.415472 68 1 84
-0.611891 -0.011557 0.246363 68 1 84
0.616523 -0.493505 0.457274 31 147 139
0.057144 -0.008310 -0.390096 69 5 88
-0.603694 0.073950 0.308667 68 1 84
0.492056 0.026223 -0.022293 68 1 84
0.075645 -0.064486 -0.503498 68 1 84
0.484719 0.076854 -0.006484 68 1 84
0.368720 -0.359453 -0.114005 68 1 84
0.045629 0.182746 -0.331784 68 1 84
-0.181899 0.452206 -0.136882 68 1 84
0.237501 -0.124159 -0.212761 68 1 84
-0.479724 -0.091555 -0.106898 68 1 84
0.316121 -0.441924 -0.147384 68 1 84
0.532963 0.269594 0.134390 68 1 84
-0.205094 0.446505 -0.118356 68 1 84
-0.584760 0.185243 0.297448 68 1 84
0.487488 0.371911 0.095039 68 1 84
-0.157189 0.245870 -0.218251 68 1 84
0.064525 0.559942 -0.252859 68 1 84
-0.522079 0.270831 0.160900 68 1 84
0.119871 0.215976 -0.283844 70 48 125
-0.335470 0.018809 -0.180614 68 1 84
-0.678419 -0.219632 0.457740 61 74 137
0.602888 -0.093239 0.237500 68 1 84
0.410567 0.434874 0.015522 68 1 84
-0.378191 -0.114322 -0.173341 68 1 84
-0.395284 0.426741 0.030010 68 1 84
0.344550 0.483651 -0.038605 68 1 84
0.195344 0.196858 -0.248918 68 1 84
-0.248511 0.395508 -0.102994 68 1 84
0.508867 -0.577326 0.035755 44 177 125
0.578025 -0.080660 0.085732 68 1 84
0.228762 -0.108005 -0.218612 68 1 84
0.328842 -0.393060 -0.132177 68 1 84
0.504150 0.410456 0.231730 68 1 84
-0.597511 -0.208510 0.062967 68 1 84
0.200451 -0.537413 -0.244340 68 1 84
0.604047 -0.155161 0.156593 68 1 84
0.293143 0.611691 -0.003658 68 1 84
-0.531957 0.070721 0.081384 68 1 84
-0.068765 0.522459 -0.225741 68 1 84
0.123112 -0.129716 -0.338454 68 1 84
-0.625641 -0.068447 0.211877 68 1 84
0.353628 0.589770 0.114781 68 1 84
0.046610 0.670145 -0.175946 68 1 84
0.506480 -0.105238 -0.059088 68 3 87
0.247019 0.606667 -0.127468 68 1 84
-0.406561 0.297298 0.002964 68 1 84
-0.313635 -0.464475 -0.223814 55 88 140
0.601954 -0.557023 0.385853 30 153 138
0.296071 0.572043 -0.058438 68 1 84
-0.499521 -0.554005 -0.115964 34 137 141
0.521835 0.152346 0.080910 68 1 84
0.145927 0.428571 -0.217111 68 1 84
-0.329429 -0.548542 -0.246310 68 1 84
-0.575350 -0.239622 0.023483 68 1 84
0.027075 0.470955 -0.248869 68 1 84
-0.453285 0.403266 0.096839 68 1 84
-0.560592 0.027902 0.106938 68 1 84
-0.328777 -0.169545 -0.189033 68 1 84
0.022339 -0.312405 -0.361228 68 1 84
-0.102301 -0.357240 -0.214180 71 18 101
0.618753 -0.111828 0.448448 68 1 84
-0.298181 -0.152049 -0.197959 68 1 84
-0.708152 -0.406869 0.412143 54 90 140
0.360082 0.436461 -0.037754 68 1 84
0.609776 -0.017966 0.355251 68 1 84
-0.435690 -0.422093 -0.132488 46 107 142
-0.140575 0.006503 -0.251230 68 1 84
-0.213041 0.006964 -0.232387 68 1 84
0.617541 -0.035340 0.418834 68 1 84
-0.491396 0.395084 0.175405 68 1 84
-0.299711 0.616692 0.084235 68 1 84
-0.320457 -0.190922 -0.189405 68 1 84
-0.281456 0.631558 0.107375 68 1 84
0.071474 -0.469587 -0.257930 68 1 84
0.527671 0.047718 0.054370 68 1 84
-0.400464 0.540076 0.205511 68 1 84
-0.209774 -0.203631 -0.213181 68 1 84
-0.565605 -0.479227 0.086162 52 94 141
-0.055181 -0.246675 -0.353478 68 1 84
0.422191 -0.426595 -0.090269 68 1 84
0.077079 -0.149483 -0.452541 68 1 84
0.223107 0.545634 -0.180536 68 1 84
0.062669 0.176318 -0.330449 68 1 84
0.428565 0.128274 -0.069550 68 1 84
0.632824 -0.224339 0.376480 68 3 87
-0.097198 -0.105323 -0.358425 68 1 84
-0.682242 -0.304056 0.402722 64 67 135
-0.698059 -0.395526 0.384336 53 92 140
0.601978 -0.533244 0.381875 31 163 134
-0.090311 0.625365 -0.186460 68 1 84
0.238552 -0.535464 -0.229438 68 1 84
0.077354 -0.231610 -0.362757 68 1 84
0.560748 0.188432 0.194424 68 1 84
-0.052222 0.066466 -0.317394 68 1 84
-0.305510 -0.225213 -0.190215 68 1 84
-0.617714 0.133846 0.474969 68 1 84
0.095148 -0.409776 -0.206434 65 66 134
0.048075 -0.120628 -0.494714 68 1 84
0.447932 -0.318684 -0.066066 71 21 103
-0.540290 -0.547480 0.002768 30 157 136
-0.155042 0.234618 -0.233086 68 1 84
-0.575092 -0.009649 0.101362 68 1 84
0.263804 -0.203579 -0.189014 68 1 84
0.542162 0.306309 0.227566 68 1 84
-0.023824 -0.017137 -0.453521 69 8 91
0.319758 -0.040134 -0.188289 68 1 84
-0.226577 0.269850 -0.167721 68 1 84
0.247439 0.580625 -0.142863 68 1 84
-0.028626 -0.411893 -0.292545 68 1 84
-0.532013 -0.416264 -0.010803 53 93 140
0.602996 -0.064465 0.268843 68 1 84
-0.198057 0.021409 -0.231831 68 1 84
-0.040000 0.451463 -0.225212 68 1 84
-0.661477 -0.153287 0.353452 72 32 113
-0.063857 -0.110761 -0.434857 68 1 84
0.632070 -0.085150 0.541756 68 1 84
0.520768 0.355167 0.443002 68 1 84
0.083643 0.511341 -0.251894 68 1 84
-0.294917 -0.579251 -0.273955 68 1 84
0.503913 0.395496 0.327302 68 1 84
-0.389993 -0.288008 -0.133753 68 1 84
-0.616729 -0.057898 0.187937 68 1 84
-0.655690 -0.453524 0.271179 61 75 137
0.481848 0.003575 -0.049947 68 1 84
0.567895 0.171413 0.219568 68 1 84
0.316608 -0.359178 -0.143900 68 1 84
0.466536 -0.514371 -0.107377 70 48 125
-0.642109 0.013468 0.538113 68 1 84
0.637527 -0.284837 0.353214 62 72 136
0.501177 0.396570 0.340450 68 1 84
-0.470064 -0.136009 -0.118573 68 1 84
-0.327671 0.075793 -0.174863 68 1 84
-0.311998 0.422590 -0.050256 68 1 84
0.524854 -0.112598 -0.036237 68 3 87
-0.394369 -0.606378 -0.221736 70 12 95
0.586779 -0.529456 0.316469 37 171 129
-0.082605 0.598115 -0.207230 68 1 84
0.580150 -0.549049 0.285466 69 191 111
-0.685254 -0.319692 0.406417 61 76 137
-0.325271 -0.229371 -0.183047 68 1 84
-0.392366 0.135735 -0.096528 68 1 84
-0.562513 -0.521542 0.075573 40 122 142
0.164893 0.165818 -0.276307 68 1 84
-0.388848 0.320926 -0.010062 68 1 84
0.490631 0.044577 -0.014188 68 1 84
-0.638350 0.017140 0.498905 68 1 84
0.010881 0.550306 -0.254122 68 1 84
0.439500 0.091573 -0.066335 68 1 84
-0.011848 -0.006979 -0.371703 68 1 84
0.635795 -0.162043 0.561929 68 1 84
0.191210 -0.408457 -0.144207 71 40 120
0.227728 0.284886 -0.162068 68 1 84
-0.223145 0.240291 -0.191710 68 1 84
-0.470713 0.137505 0.014518 68 1 84
0.624238 -0.289454 0.532689 68 1 84
-0.425125 -0.570426 -0.201692 59 80 138
-0.303279 0.469081 -0.039732 68 1 84
-0.275976 -0.507975 -0.233089 71 42 121
0.292078 0.303934 -0.129115 68 1 84
0.609591 -0.208469 0.167433 68 1 84
0.521797 -0.536331 0.083828 42 117 142
0.221885 0.244705 -0.184783 68 1 84
-0.332669 -0.076339 -0.188652 68 1 84
0.610701 -0.018078 0.364466 68 1 84
-0.626034 -0.061325 0.226738 68 1 84
0.624943 -0.354669 0.354705 71 39 119
-0.588899 0.201385 0.525623 68 1 84
0.379426 -0.012479 -0.151999 68 1 84
-0.163754 -0.209799 -0.234142 68 1 84
-0.518227 0.032193 0.014983 68 1 84
-0.662471 -0.337023 0.292930 66 64 133
-0.633968 -0.054948 0.320934 70 12 95
-0.362058 0.384075 -0.017916 68 1 84
0.292115 0.074799 -0.196270 68 1 84
-0.249950 0.322404 -0.130661 68 1 84
0.089921 -0.032818 -0.410537 68 1 84
-0.285935 -0.453309 -0.207870 50 98 141
0.617706 -0.019924 0.545534 68 1 84
-0.702265 -0.453759 0.344478 59 80 138
0.593608 -0.289182 0.135250 68 1 84
0.564021 -0.473632 0.220842 49 101 141
-0.126831 0.606923 -0.169316 68 1 84
0.518274 0.282731 0.104252 68 1 84
-0.153440 -0.416889 -0.191464 42 117 142
-0.018060 0.497665 -0.245150 68 1 84
0.619274 -0.100735 0.450087 68 1 84
0.136383 -0.447901 -0.197169 64 67 135
-0.654373 -0.123532 0.349835 65 66 134
-0.241065 -0.542964 -0.268681 63 69 135
0.365028 0.396372 -0.049672 68 1 84
0.120853 -0.084729 -0.432816 68 1 84
0.035305 0.008944 -0.451350 72 25 107
0.610598 0.099397 0.423831 68 1 84
0.591818 -0.296670 0.135211 72 25 107
-0.468002 -0.495687 -0.159978 55 88 140
0.542770 0.258639 0.161036 68 1 84
-0.630408 -0.124958 0.170735 68 2 85
0.048563 -0.084761 -0.512425 68 1 84
-0.404260 0.229873 -0.026403 68 1 84
0.501351 -0.502623 -0.033176 67 60 132
0.228540 0.467882 -0.160612 68 1 84
0.476480 0.288262 0.037061 68 1 84
0.440886 0.229973 -0.025224 68 1 84
-0.180613 0.447957 -0.138300 68 1 84
0.596716 -0.342016 0.201968 72 25 107
-0.270617 -0.516407 -0.238010 71 44 123
-0.218991 0.202525 -0.209274 68 1 84
-0.049952 -0.030861 -0.430255 68 1 84
-0.359752 0.210606 -0.096276 68 1 84
-0.582404 0.062405 0.214850 68 1 84
0.525134 0.362529 0.237915 68 1 84
0.250364 0.195869 -0.210973 68 1 84
0.300587 0.593563 -0.023770 68 1 84
-0.295187 -0.045912 -0.204556 68 1 84
-0.415873 0.184523 -0.035709 68 1 84
-0.479191 0.394758 0.142176 68 1 84
0.156181 0.254602 -0.225498 72 25 107
0.076078 0.530358 -0.253336 68 1 84
-0.570507 -0.431002 0.093290 65 66 134
0.557634 -0.474456 0.202753 30 153 138
-0.650061 -0.361238 0.260739 60 78 138
-0.171434 -0.218665 -0.224879 68 1 84
-0.179982 0.378929 -0.150500 68 1 84
-0.515686 -0.486395 -0.083849 42 119 142
0.527461 0.357153 0.244435 68 1 84
0.571122 0.102816 0.196886 68 1 84
-0.622250 -0.500154 0.204399 36 134 141
0.598157 -0.059774 0.242554 68 1 84
0.631433 -0.079717 0.540372 68 1 84
0.542894 0.246918 0.152795 68 1 84
0.610509 -0.372163 0.281941 66 61 132
-0.402759 0.461957 0.054394 68 1 84
0.229965 0.517136 -0.169682 68 1 84
-0.384092 0.261045 -0.039686 68 1 84
0.214659 0.657657 -0.079072 68 1 84
-0.648809 -0.124625 0.258907 68 3 87
0.331530 -0.016502 -0.182381 68 1 84
-0.556366 0.297554 0.273923 68 1 84
-0.335002 0.222021 -0.115807 68 1 84
0.452503 0.199962 -0.016391 68 1 84
0.630758 -0.085944 0.554507 68 1 84
-0.660193 -0.045917 0.531529 68 1 84
0.566450 0.272107 0.333314 68 1 84
0.166011 -0.519161 -0.238233 68 1 84
-0.632910 -0.061911 0.276399 70 12 95
0.513568 0.345733 0.137791 68 1 84
-0.697957 -0.319247 0.484696 46 108 142
0.298301 0.080115 -0.192602 68 1 84
-0.044418 0.158944 -0.321636 68 1 84
-0.170400 -0.112882 -0.248767 68 1 84
0.622716 -0.037431 0.524967 68 1 84
0.593354 -0.227115 0.101058 70 14 97
0.577765 0.024850 0.187637 68 1 84
0.443754 0.489303 0.270578 68 1 84
0.522012 -0.479951 0.056244 61 76 137
0.389909 -0.393683 -0.086118 68 1 84
0.321292 0.174425 -0.168955 68 1 84
-0.268178 0.635562 0.080264 68 1 84
-0.618425 -0.280045 0.142380 71 40 120
-0.153970 0.404972 -0.165229 68 1 84
0.291089 0.438778 -0.099777 68 1 84
-0.006479 0.409019 -0.231974 68 1 84
-0.536162 0.365344 0.322333 68 1 84
0.597685 -0.123273 0.142380 68 1 84
-0.041887 -0.031932 -0.425217 68 1 84
-0.325344 -0.074070 -0.191359 68 1 84
0.560873 -0.022944 0.080725 68 1 84
0.620819 -0.029182 0.456304 68 1 84
-0.626103 -0.322631 0.188132 68 55 129
-0.604387 -0.117276 0.093731 68 1 84
-0.163529 0.539744 -0.152154 68 1 84
0.368204 0.369915 -0.059244 68 1 84
0.607151 -0.398836 0.312473 49 101 141
-0.195552 0.087738 -0.226611 68 1 84
0.254153 0.477730 -0.136243 68 1 84
-0.577807 0.007516 0.128147 68 1 84
-0.646836 -0.154269 0.222893 68 1 84
0.461239 0.468522 0.264252 68 1 84
-0.361508 -0.039099 -0.175115 68 1 84
-0.647413 -0.429934 0.262868 66 61 132
-0.087496 0.155116 -0.296865 68 1 84
0.062396 -0.491544 -0.277225 69 6 90
0.283073 -0.248354 -0.183525 68 1 84
0.398081 0.550844 0.196979 68 1 84
-0.591282 0.138405 0.294022 68 1 84
-0.263838 0.075100 -0.208056 68 1 84
0.091981 -0.266711 -0.297576 70 47 124
-0.342075 0.422872 -0.022697 68 1 84
0.135021 0.182965 -0.296837 68 1 84
0.149203 0.473750 -0.222320 68 1 84
0.010843 0.196853 -0.326621 69 8 91
0.197048 0.515602 -0.201776 68 1 84
-0.436596 -0.058789 -0.135406 68 1 84
-0.582964 -0.275029 0.050879 70 12 95
0.485125 -0.493363 -0.065934 66 64 133
-0.461310 0.455919 0.349309 68 1 84
0.198394 0.007662 -0.222107 68 1 84
0.315722 0.557901 -0.037842 68 1 84
0.462054 0.479338 0.196846 68 1 84
0.191608 0.372159 -0.198795 68 1 84
0.604596 0.143169 0.480643 68 1 84
-0.592607 -0.208733 0.051268 68 1 84
0.533086 -0.562026 0.140768 126 210 78
0.371108 0.576625 0.161820 68 1 84
-0.650142 -0.013309 0.562463 68 1 84
-0.621242 -0.470710 0.209191 44 114 142
-0.525382 -0.381369 -0.019735 60 78 138
-0.707644 -0.449894 0.359261 58 83 139
0.159099 0.058378 -0.250359 68 1 84
-0.059229 -0.415124 -0.270819 68 1 84
0.074645 0.400914 -0.235448 68 1 84
0.244961 -0.466418 -0.188996 68 1 84
0.447210 -0.593413 -0.145319 33 167 132
-0.471983 0.445574 0.331076 68 1 84
-0.391980 0.325534 -0.005273 68 1 84
0.209867 -0.133984 -0.223608 68 1 84
0.325364 -0.453720 -0.162792 68 1 84
-0.423255 0.514813 0.214163 68 1 84
0.110626 -0.080109 -0.462326 68 1 84
-0.512274 0.205666 0.123178 68 1 84
0.316357 0.227791 -0.159582 68 1 84
-0.455737 0.145857 -0.003417 68 1 84
-0.490151 0.134249 0.046507 68 1 84
0.262824 -0.026293 -0.213314 68 1 84
-0.515274 0.394647 0.283038 68 1 84
-0.538915 -0.135518 -0.043998 68 1 84
-0.012770 -0.295148 -0.374856 68 1 84
-0.026278 -0.341821 -0.330092 68 1 84
0.070986 0.418372 -0.237030 68 1 84
-0.472853 0.447340 0.308317 68 1 84
0.626391 -0.354148 0.420904 69 50 127
0.637505 -0.124590 0.550483 68 1 84
-0.494782 0.421846 0.247269 68 1 84
-0.641828 -0.278571 0.210159 70 49 126
0.604962 -0.042668 0.286704 68 1 84
0.637689 -0.121548 0.551562 68 1 84
0.564038 0.282017 0.345547 68 1 84
0.119699 -0.035470 -0.376606 71 42 121
-0.473963 0.240205 0.073710 68 1 84
0.010038 0.156721 -0.331876 68 1 84
0.189037 -0.108318 -0.235968 68 1 84
-0.405182 0.455417 0.053976 68 1 84
0.387612 -0.344658 -0.106285 68 1 84
0.622343 -0.390053 0.516029 68 55 129
0.358943 0.215298 -0.123491 68 1 84
-0.108069 0.162302 -0.284573 68 1 84
-0.280124 -0.539526 -0.255242 68 1 84
-0.229261 -0.058144 -0.230669 68 1 84
-0.045825 -0.172073 -0.409574 68 1 84
0.490317 -0.439937 -0.028633 68 1 84
-0.574250 0.290324 0.385688 68 1 84
-0.221273 -0.545424 -0.276070 62 73 137
-0.455508 -0.088997 -0.127561 68 1 84
-0.669317 -0.511471 0.280561 46 107 142
0.639034 -0.124765 0.560097 68 1 84
-0.472353 0.453565 0.239823 68 1 84
0.471960 0.432366 0.349609 68 1 84
-0.452542 0.230228 0.039190 68 1 84
0.029451 -0.427872 -0.282639 68 1 84
-0.631217 -0.092006 0.203767 68 1 84
-0.250702 0.324522 -0.129724 68 1 84
0.313952 0.389940 -0.092482 68 1 84
0.436504 0.507827 0.220130 68 1 84
0.178106 0.247214 -0.212081 69 8 91
-0.338736 -0.022135 -0.184185 68 1 84
-0.649103 -0.142083 0.241977 68 1 84
0.594632 0.188307 0.485669 68 1 84
-0.530356 -0.515337 -0.019671 36 133 141
0.510354 -0.399104 0.003852 68 1 84
0.569514 0.147431 0.214588 68 1 84
0.508302 0.174317 0.062571 68 1 84
0.614648 -0.129227 0.394419 68 1 84
0.601643 0.038062 0.298540 68 1 84
-0.111560 -0.218870 -0.286179 68 1 84
-0.449118 0.233557 0.035528 68 1 84
0.507161 0.395955 0.295702 68 1 84
-0.248608 0.643250 0.063197 68 1 84
-0.372196 -0.336341 -0.135921 72 30 112
-0.584185 0.106366 0.253621 68 1 84
0.438244 -0.418211 -0.071745 68 1 84
0.620006 -0.150701 0.461960 68 1 84
0.339774 -0.213458 -0.169514 68 1 84
-0.648425 -0.154403 0.230319 68 1 84
-0.026334 -0.351104 -0.323021 68 1 84
0.066932 -0.010084 -0.355562 72 32 113
-0.250792 -0.423915 -0.174067 39 125 142
0.617120 -0.191648 0.230132 68 1 84
0.580408 0.243505 0.401486 68 1 84
-0.370216 -0.286139 -0.147422 68 1 84
-0.627852 0.083390 0.517297 68 1 84
-0.260669 -0.036522 -0.219677 68 1 84
0.255306 0.483003 -0.135740 68 1 84
0.315805 0.508947 -0.065612 68 1 84
-0.557194 0.266300 0.247965 68 1 84
0.291878 -0.122336 -0.191904 68 1 84
-0.604540 -0.031051 0.176532 68 1 84
-0.618541 -0.072717 0.173066 68 1 84
0.601963 -0.270423 0.154125 68 1 84
-0.700484 -0.503544 0.333914 63 69 135
-0.028197 -0.098695 -0.494059 68 1 84
0.606095 -0.496482 0.395813 100 203 93
-0.596692 -0.328949 0.112507 69 52 127
0.221304 0.020999 -0.217775 68 1 84
-0.616068 -0.258884 0.125095 68 1 84
-0.602868 0.148968 0.353187 68 1 84
0.015526 0.319911 -0.274868 68 1 84
-0.233727 0.153466 -0.209597 68 1 84
-0.485603 -0.144961 -0.104568 68 1 84
-0.689286 -0.317417 0.425671 64 67 135
0.503979 0.359702 0.123592 68 1 84
-0.080904 -0.120852 -0.378563 68 1 84
-0.306287 0.363953 -0.085044 68 1 84
-0.593369 0.117066 0.290645 68 1 84
-0.168787 0.631246 -0.094411 68 1 84
-0.549661 -0.466827 0.045787 50 98 141
0.632347 -0.166716 0.537210 68 1 84
-0.340357 -0.050116 -0.185415 68 1 84
0.620338 -0.239004 0.242995 68 1 84
0.530485 -0.451903 0.075664 70 48 125
-0.535004 0.074533 0.092316 68 1 84
-0.634687 -0.393585 0.237238 68 55 129
-0.719586 -0.513622 0.398969 43 115 142
0.138285 -0.027414 -0.342237 71 44 123
-0.198489 0.640132 -0.037252 68 1 84
0.610607 -0.058301 0.348309 68 1 84
0.280223 -0.194470 -0.186307 68 1 84
0.098617 -0.307243 -0.255951 68 55 129
0.523990 0.210957 0.094770 68 1 84
0.238032 0.643260 -0.067087 68 1 84
-0.720975 -0.475121 0.412425 35 137 141
-0.666674 -0.184074 0.330028 71 17 99
-0.270252 -0.462607 -0.215914 49 102 141
0.340123 -0.225628 -0.168621 68 1 84
0.523615 0.367367 0.246930 68 1 84
0.396876 -0.505910 -0.164711 68 1 84
-0.028545 0.457186 -0.231313 68 1 84
0.614239 -0.012911 0.568150 68 1 84
-0.423433 0.508368 0.253717 68 1 84
-0.731426 -0.483495 0.480881 55 89 140
0.373778 0.552652 0.054228 68 1 84
-0.083479 0.191250 -0.298555 68 1 84
-0.093098 0.540408 -0.212243 68 1 84
0.520922 -0.555157 0.088583 54 184 119
-0.440584 0.468413 0.130389 68 1 84
-0.380083 0.549401 0.110939 68 1 84
-0.175552 -0.005538 -0.238403 68 1 84
-0.619666 -0.445390 0.210511 51 96 141
0.607439 -0.060982 0.293616 68 1 84
0.269976 0.053871 -0.205512 68 1 84
-0.211591 -0.531724 -0.263857 65 66 134
-0.055311 0.271076 -0.249998 70 11 94
-0.559463 -0.394807 0.056699 50 98 141
0.067545 0.116427 -0.325959 68 1 84
0.447437 -0.455383 -0.084759 68 1 84
0.307155 -0.613394 -0.243958 68 1 84
-0.041878 -0.374337 -0.296902 68 1 84
-0.264091 -0.467620 -0.217444 50 98 141
-0.537163 -0.453555 0.006491 43 115 142
0.601455 -0.130195 0.162645 68 1 84
-0.583331 0.259352 0.372177 68 1 84
0.359509 0.116146 -0.145590 68 1 84
0.524090 0.092604 0.068326 68 1 84
-0.077796 -0.029914 -0.381758 68 1 84
-0.044445 0.016606 -0.333873 68 1 84
-0.262573 0.466751 -0.073486 68 1 84
-0.628764 -0.045251 0.289072 68 1 84
-0.014963 -0.194825 -0.435568 68 1 84
0.190170 0.585857 -0.203552 68 1 84
-0.211772 -0.245039 -0.202666 68 1 84
-0.431751 0.234873 0.012765 68 1 84
0.453914 0.284311 0.007747 68 1 84
0.084388 -0.141379 -0.452100 70 9 92
-0.581574 0.236369 0.323028 68 1 84
0.402382 -0.567577 -0.183125 48 103 141
0.144543 0.254292 -0.235961 68 1 84
0.512041 -0.504952 0.016132 66 64 133
0.269149 0.115187 -0.208048 68 1 84
-0.434658 0.314228 0.039850 68 1 84
0.445749 0.067697 -0.066805 68 1 84
-0.612615 0.013323 0.291698 68 1 84
0.293267 0.557428 -0.073865 68 1 84
0.515403 -0.502280 0.033405 61 75 137
-0.018664 0.240778 -0.264242 68 1 84
-0.588262 -0.062241 0.085183 68 1 84
0.122295 0.026712 -0.293571 68 1 84
0.461394 0.276780 0.014913 68 1 84
-0.108159 -0.214838 -0.291546 68 1 84
0.132687 -0.126734 -0.312527 68 1 84
0.053928 -0.423120 -0.262204 69 8 91
0.055006 0.675325 -0.165831 68 1 84
-0.606552 -0.539122 0.165832 31 148 139
-0.447724 0.209871 0.023627 68 1 84
0.304516 0.140260 -0.186488 68 1 84
-0.077520 -0.341183 -0.258184 68 1 84
0.042929 -0.571990 -0.307751 66 62 133
-0.018049 -0.531904 -0.307510 66 61 132
0.584057 -0.061828 0.135876 68 1 84
-0.544458 0.303524 0.236668 68 1 84
-0.110788 0.633796 -0.163675 68 1 84
0.505231 -0.543606 -0.009155 44 113 142
-0.597328 -0.013032 0.172692 68 1 84
0.541399 0.161040 0.120835 68 1 84
0.312268 0.010705 -0.192361 68 1 84
0.539615 -0.606954 0.162881 253 231 36
0.026750 -0.447059 -0.283998 68 1 84
-0.337210 0.513605 0.010275 68 1 84
0.607884 -0.018237 0.318636 68 1 84
0.625670 -0.210576 0.338088 63 71 136
-0.109999 0.261012 -0.224314 71 21 103
-0.482528 0.214328 0.077291 68 1 84
0.468064 -0.579843 -0.114355 35 137 141
-0.208415 -0.159029 -0.222969 68 1 84
0.623494 -0.276620 0.575615 68 3 87
0.619664 -0.469367 0.499550 49 102 141
0.576248 0.006148 0.166854 68 1 84
-0.164069 0.470609 -0.152785 68 1 84
-0.570919 -0.011117 0.088331 68 1 84
-0.115525 0.504938 -0.193724 68 1 84
-0.344063 0.238256 -0.099620 68 1 84
0.248937 -0.326052 -0.173599 68 1 84
0.289743 0.375042 -0.115751 68 1 84
-0.380394 -0.395029 -0.138129 69 54 129
-0.257840 -0.392630 -0.163273 30 151 138
0.621221 -0.425427 0.490516 67 60 132
-0.455835 -0.304263 -0.077892 68 1 84
0.083619 -0.573996 -0.303547 71 38 118
-0.056580 0.226341 -0.280090 68 1 84
0.509069 -0.248437 -0.044280 72 35 116
-0.056053 0.480207 -0.223856 68 1 84
0.583781 -0.578831 0.310688 31 147 139
-0.395454 0.239945 -0.033750 68 1 84
0.055032 -0.365273 -0.279911 58 82 139
-0.229118 0.538378 -0.085118 68 1 84
-0.450849 0.479510 0.252056 68 1 84
0.165476 -0.015666 -0.249658 68 1 84
-0.091907 0.366891 -0.222103 68 1 84
-0.371584 0.490643 0.034110 68 1 84
-0.601834 -0.288396 0.102781 70 47 124
-0.561229 0.287268 0.283643 68 1 84
-0.515292 0.383337 0.428334 68 1 84
0.498114 0.101911 0.027429 68 1 84
-0.257638 0.173556 -0.193757 68 1 84
0.090051 -0.287359 -0.285432 70 49 126
0.467588 -0.229358 -0.091391 68 1 84
-0.090541 -0.572923 -0.306770 34 138 141
0.131636 0.095659 -0.283085 68 1 84
0.007341 -0.535069 -0.307869 64 67 135
0.604723 -0.243312 0.151440 68 1 84
-0.580690 0.236343 0.514987 68 1 84
-0.358383 0.576692 0.126451 68 1 84
-0.566588 -0.250135 0.011410 68 1 84
0.542150 0.319159 0.259387 68 1 84
0.235169 0.646857 -0.055877 68 1 84
0.563190 -0.539828 0.226916 50 181 122
-0.592400 0.033611 0.222239 68 1 84
0.159222 -0.022055 -0.328350 72 25 107
0.002517 0.564856 -0.251566 68 1 84
0.567751 0.212983 0.246700 68 1 84
-0.425346 -0.109647 -0.149419 68 1 84
0.469140 -0.363615 -0.035170 71 22 105
0.534214 -0.000757 0.036931 68 1 84
-0.343074 0.208620 -0.114134 68 1 84
-0.317086 -0.182023 -0.191228 68 1 84
0.257275 0.520657 -0.137305 68 1 84
-0.551281 0.297505 0.524494 68 1 84
0.592647 0.168424 0.350423 68 1 84
0.577852 0.203998 0.292321 68 1 84
0.531703 0.260903 0.125638 68 1 84
-0.110099 0.485483 -0.195482 68 1 84
-0.555109 -0.529547 0.054614 34 139 141
-0.639130 -0.303317 0.214916 69 53 128
0.303121 -0.320601 -0.162865 68 1 84
-0.106950 -0.277393 -0.263063 68 1 84
-0.537932 0.344682 0.267217 68 1 84
-0.048894 -0.179739 -0.398333 68 1 84
0.232943 -0.265935 -0.189128 68 1 84
-0.641614 -0.015160 0.444909 68 1 84
0.586362 -0.032806 0.192458 68 1 84
0.619687 -0.473935 0.512240 56 86 139
0.102791 0.204917 -0.299658 70 12 95
0.363790 0.582252 0.134567 68 1 84
0.590832 0.135078 0.308864 68 1 84
0.579964 0.232091 0.485950 68 1 84
-0.115148 0.128864 -0.273240 68 1 84
0.362441 -0.447291 -0.163346 68 1 84
0.214851 0.609004 -0.170662 68 1 84
0.572048 -0.486747 0.253155 40 122 142
0.400390 0.505104 0.044705 68 1 84
0.255429 -0.294968 -0.183529 68 1 84
0.615573 -0.056833 0.408114 68 1 84
-0.428833 0.502014 0.256907 68 1 84
-0.006296 0.053156 -0.352387 72 29 111
-0.186536 0.388517 -0.143968 68 1 84
-0.170135 0.590313 -0.129586 68 1 84
-0.036683 -0.366911 -0.305355 68 1 84
-0.067076 -0.349730 -0.271939 68 1 84
-0.629565 0.064728 0.473006 68 1 84
0.085469 -0.216109 -0.356062 68 1 84
-0.532528 0.367006 0.298136 68 1 84
0.477842 -0.238176 -0.078862 71 44 123
0.056302 0.200222 -0.320201 68 1 84
-0.379388 -0.245355 -0.152380 68 1 84
-0.155435 0.059223 -0.240896 68 1 84
-0.159797 0.083933 -0.241261 68 1 84
0.304265 0.611042 0.021586 68 1 84
-0.674413 -0.263324 0.365884 64 68 135
0.471099 0.460316 0.158023 68 1 84
0.625767 -0.340574 0.321754 59 81 138
0.393867 0.555992 0.182579 68 1 84
-0.480326 -0.312372 -0.060639 70 9 92
-0.550203 0.335218 0.430270 68 1 84
-0.635280 -0.358466 0.227243 69 53 128
-0.591569 -0.282584 0.073742 71 18 101
-0.368266 0.571347 0.182440 68 1 84
0.126826 0.532268 -0.243842 68 1 84
0.312328 0.190778 -0.175033 68 1 84
0.596052 -0.458405 0.337165 39 126 142
0.055583 0.519622 -0.255266 68 1 84
-0.577835 -0.436892 0.111120 52 94 141
0.424442 -0.517592 -0.149807 68 1 84
0.591791 -0.177285 0.089989 68 1 84
0.566309 0.258408 0.497399 68 1 84
0.505063 0.264239 0.071791 68 1 84
-0.515273 0.396750 0.302404 68 1 84
-0.044390 -0.008914 -0.336854 68 1 84
-0.200734 -0.072641 -0.239077 68 1 84
-0.028329 -0.331770 -0.335846 68 1 84
0.403974 0.164098 -0.091237 68 1 84
-0.651763 -0.135656 0.265146 68 1 84
0.420437 -0.432761 -0.097040 68 1 84
0.397640 -0.016377 -0.140088 68 1 84
-0.606626 -0.273981 0.106946 69 8 91
-0.069981 -0.033201 -0.376364 68 1 84
0.600616 -0.084776 0.229127 68 1 84
0.120820 0.048793 -0.286380 68 1 84
-0.288225 -0.226408 -0.194000 68 1 84
-0.577344 -0.397163 0.099907 70 49 126
0.517431 -0.331772 0.000256 72 29 111
-0.218837 0.130445 -0.217949 68 1 84
0.525679 0.247595 0.105759 68 1 84
-0.076676 0.356105 -0.236534 68 1 84
-0.635048 -0.423263 0.242650 66 61 132
-0.270948 0.636283 0.096245 68 1 84
0.476047 0.171661 0.012327 68 1 84
0.487674 0.441681 0.205622 68 1 84
-0.537330 -0.185104 -0.045770 68 1 84
0.367970 0.578380 0.127962 72 34 115
-0.401507 0.537840 0.163689 68 1 84
-0.254074 0.644115 0.084636 68 1 84
-0.087789 0.294916 -0.236969 72 26 108
-0.561596 -0.430554 0.072231 66 64 133
0.561951 -0.258867 0.033700 60 77 138
-0.017220 0.382476 -0.236636 68 1 84
0.253372 0.331559 -0.150202 68 1 84
