ply
format ascii 1.0
element vertex 1271
property float x
property float y
property float z
property uchar red
property uchar green
property uchar blue
end_header
0.476157 0.427684 0.254925 68 1 84
0.568599 0.176734 0.401299 68 1 84
-0.661830 -0.375286 0.403618 38 129 142
0.465024 -0.294585 -0.016175 68 1 84
0.519444 -0.174922 0.004780 68 1 84
0.574030 0.150733 0.406379 68 1 84
0.478339 -0.457501 -0.112432 68 1 84
-0.174141 0.483269 -0.242693 68 190 112
-0.396904 0.271304 -0.054903 68 1 84
-0.092972 -0.228762 -0.350113 38 128 142
-0.420336 -0.053376 -0.058431 68 1 84
0.307389 0.161871 -0.160187 68 1 84
-0.365208 0.573325 0.039067 68 1 84
0.649373 -0.239840 0.393150 72 26 108
0.432491 0.490495 0.180344 68 1 84
0.601845 -0.501252 0.264594 55 89 140
-0.214774 0.276779 -0.178846 49 100 141
-0.012672 0.009979 -0.515320 151 216 62
0.631919 -0.449621 0.341183 52 94 141
-0.352065 0.603604 0.085742 68 1 84
0.598403 -0.025500 0.308105 68 1 84
-0.656694 -0.237424 0.377486 56 87 140
0.339218 0.139603 -0.128038 68 1 84
0.156131 -0.564377 -0.281318 48 103 141
0.157996 -0.273778 -0.181052 68 1 84
-0.328209 0.578930 -0.049134 68 1 84
0.610488 -0.044233 0.402620 68 1 84
0.439732 -0.150325 -0.061160 68 1 84
0.160290 0.317976 -0.247152 30 151 138
-0.092029 0.640280 -0.295137 40 123 142
-0.457502 0.487309 0.213996 68 1 84
-0.190861 -0.036883 -0.178974 68 1 84
0.597145 0.039070 0.442792 68 1 84
-0.053570 -0.360145 -0.324994 68 57 130
-0.236193 -0.270591 -0.132755 68 1 84
-0.382363 -0.218670 -0.094528 68 1 84
0.596897 -0.231553 0.148760 68 1 84
0.305203 -0.268977 -0.112138 68 1 84
0.675516 -0.395316 0.501204 55 88 140
-0.322836 -0.224600 -0.117028 68 1 84
0.527729 -0.502331 -0.083944 71 18 101
0.038228 0.022164 -0.480520 53 183 120
0.237834 -0.386256 -0.116485 68 1 84
-0.347333 0.095157 -0.090810 68 1 84
0.523706 -0.179657 0.010144 68 1 84
-0.135217 -0.500617 -0.202865 68 1 84
-0.527930 -0.424635 0.035045 68 1 84
-0.136465 -0.074209 -0.312986 54 91 140
0.337331 0.323001 -0.120384 68 1 84
-0.327927 0.078298 -0.104734 72 34 115
-0.158059 0.671757 -0.224024 67 59 131
-0.259671 0.584304 -0.173069 38 127 142
0.614973 -0.263335 0.231367 68 1 84
0.467188 0.229168 0.039126 68 1 84
0.536098 0.279501 0.254827 68 1 84
0.601019 0.008750 0.593858 68 1 84
0.188021 -0.443582 -0.118127 68 1 84
0.576585 0.133567 0.376047 68 1 84
0.668998 -0.323091 0.459063 71 39 119
-0.078192 0.024158 -0.320399 38 127 142
0.193115 0.319250 -0.216199 43 115 142
-0.482445 -0.217715 -0.026425 68 1 84
-0.683198 -0.489001 0.542325 47 179 123
0.514956 0.060921 0.057698 68 1 84
-0.344553 -0.175918 -0.114863 68 1 84
0.504769 0.299357 0.145587 68 1 84
-0.562417 0.052821 0.139112 68 1 84
0.118867 0.694039 -0.194924 68 1 84
-0.658086 -0.124049 0.556964 44 114 142
0.517227 0.114638 0.078770 68 1 84
0.605698 -0.008398 0.601106 68 1 84
0.584876 0.064673 0.581988 68 1 84
-0.361030 0.354256 -0.102988 68 1 84
-0.661374 -0.471146 0.437131 41 121 142
0.295293 -0.089853 -0.141320 68 1 84
0.401876 -0.396834 -0.074731 68 1 84
0.464611 0.448296 0.285696 68 1 84
-0.655463 -0.152577 0.426139 58 83 139
0.310262 -0.250596 -0.111894 68 1 84
0.533225 -0.168441 0.019633 68 1 84
-0.084659 0.052849 -0.453097 131 211 75
-0.212190 0.598240 -0.226659 31 146 140
0.584896 -0.011739 0.202665 68 1 84
-0.459203 0.108900 0.001817 68 1 84
0.118239 -0.113386 -0.284917 54 91 140
-0.597433 0.000816 0.251570 68 1 84
-0.021352 -0.261636 -0.413756 36 134 141
-0.198968 0.052289 -0.178408 67 58 131
-0.105864 -0.017968 -0.494659 212 225 26
-0.586651 0.149830 0.278266 68 1 84
0.641796 -0.176675 0.541937 71 21 103
-0.085106 -0.277716 -0.303940 53 93 140
0.544682 0.116159 0.144414 68 1 84
0.377292 0.024030 -0.078064 68 1 84
-0.582546 -0.069428 0.144162 68 1 84
0.074881 0.405198 -0.276434 31 146 140
-0.336806 -0.523450 -0.208683 68 1 84
-0.073413 -0.308465 -0.332088 65 66 134
0.241085 0.140287 -0.198468 71 24 106
-0.641437 -0.453344 0.375123 56 86 139
0.033373 -0.222500 -0.405285 48 180 122
-0.483697 -0.476460 -0.088102 68 1 84
0.125522 -0.186217 -0.259744 46 109 142
-0.212939 0.645580 -0.192360 50 99 141
0.375317 -0.000232 -0.081652 68 1 84
0.544200 0.060881 0.110702 68 1 84
0.465212 -0.034854 -0.018661 68 1 84
-0.479592 0.337651 0.079024 68 1 84
-0.256158 0.582912 -0.178567 32 143 140
-0.416567 0.453979 0.034456 68 1 84
-0.092994 -0.302008 -0.210082 68 1 84
-0.199634 0.590543 -0.241749 79 195 105
-0.605384 -0.012350 0.283846 68 1 84
-0.005878 0.084974 -0.401945 34 167 132
-0.552414 -0.543916 0.143927 40 122 142
-0.603233 -0.256346 0.184382 72 34 115
0.125732 -0.049782 -0.319053 54 90 140
0.564650 0.019115 0.135801 68 1 84
-0.487294 -0.385221 -0.009911 68 1 84
0.189820 -0.208333 -0.181330 68 1 84
-0.536168 0.238608 0.144140 68 1 84
0.191119 0.390659 -0.217005 64 68 135
0.074126 -0.007801 -0.435518 68 190 112
-0.541879 0.342713 0.419213 68 1 84
0.603972 -0.177590 0.164078 68 1 84
0.181283 0.021055 -0.204808 68 1 84
-0.490095 -0.231193 -0.015955 68 1 84
-0.235446 0.128077 -0.183873 71 17 99
0.593873 0.028594 0.367300 68 1 84
0.398608 -0.485121 -0.163164 68 1 84
-0.238292 0.466272 -0.194328 35 136 141
-0.438474 -0.232776 -0.056310 68 1 84
-0.244628 0.653611 -0.124579 68 1 84
0.163186 0.266314 -0.215104 43 116 142
0.551058 0.240479 0.436914 68 1 84
0.565324 -0.027223 0.097687 68 1 84
0.453360 0.413964 0.121332 68 1 84
-0.599284 -0.382526 0.244677 68 1 84
0.061365 0.159845 -0.301118 30 159 136
-0.324544 -0.246332 -0.112301 68 1 84
-0.146512 -0.026675 -0.369711 61 187 116
-0.604044 0.144269 0.477821 68 1 84
0.668575 -0.287192 0.475434 72 35 116
-0.656057 -0.230427 0.489482 46 107 142
-0.579189 -0.403845 0.187930 68 1 84
-0.546638 -0.046276 0.059816 68 1 84
0.646498 -0.173616 0.453246 68 1 84
0.488081 0.392109 0.213603 68 1 84
-0.198252 -0.311838 -0.137865 68 1 84
0.130599 0.684240 -0.209794 71 15 98
0.667478 -0.373265 0.466347 69 52 127
0.013372 0.699690 -0.216612 68 1 84
-0.639006 -0.504978 0.376364 52 95 141
-0.482820 0.285183 0.060682 68 1 84
0.496335 -0.446796 -0.092037 68 1 84
-0.520805 0.381007 0.411696 68 1 84
0.528113 0.308021 0.418038 68 1 84
-0.375691 -0.025174 -0.075183 68 1 84
-0.081235 0.127697 -0.292654 46 108 142
0.010156 0.111978 -0.321110 47 106 141
0.010045 0.060151 -0.430297 32 143 140
0.612291 -0.116058 0.249026 68 1 84
-0.265841 0.201996 -0.183715 64 67 135
-0.507647 0.408801 0.355059 68 1 84
-0.083995 -0.464103 -0.206853 68 1 84
-0.497693 -0.534959 -0.051335 58 83 139
0.389694 0.437642 0.011525 68 1 84
-0.143970 0.581875 -0.287042 81 196 104
0.620426 -0.194835 0.247668 68 1 84
0.233381 0.551107 -0.189113 64 67 135
-0.402037 -0.544059 -0.187312 71 37 117
-0.115359 -0.280110 -0.189153 68 1 84
-0.002682 -0.063581 -0.502348 199 224 31
-0.609321 -0.264627 0.203848 72 33 114
-0.498993 -0.003312 0.012181 68 1 84
-0.302938 0.555867 -0.121517 71 44 123
-0.218315 0.412288 -0.209833 51 182 121
0.669630 -0.301335 0.437994 72 32 113
0.142940 -0.524174 -0.270132 53 93 140
0.593344 -0.343848 0.180607 68 1 84
-0.327816 0.039526 -0.100483 68 1 84
-0.366542 0.421343 -0.070521 68 1 84
0.080652 0.004949 -0.364070 43 115 142
0.625291 -0.141978 0.344674 68 1 84
0.143181 -0.102824 -0.250277 70 11 94
-0.642508 -0.028396 0.522470 39 126 142
-0.265979 -0.476542 -0.157979 68 1 84
0.452339 0.100122 -0.003797 68 1 84
0.027010 0.114477 -0.319513 60 77 138
-0.484212 0.184891 0.038006 68 1 84
0.514936 0.129553 0.079665 68 1 84
-0.559300 0.297759 0.481164 68 1 84
0.403566 -0.484844 -0.161284 68 1 84
0.164475 0.266251 -0.213863 43 115 142
-0.605765 -0.054905 0.261162 68 1 84
0.167259 0.063789 -0.223061 68 1 84
0.563840 0.196440 0.418341 68 1 84
0.419712 -0.424017 -0.077209 68 1 84
0.267718 0.239655 -0.169062 68 1 84
0.522285 0.332052 0.289637 68 1 84
0.468398 0.182222 0.028800 68 1 84
0.491535 0.021248 0.021019 68 1 84
0.540749 -0.525535 -0.045358 72 25 107
-0.354246 -0.269940 -0.094735 68 1 84
-0.174708 0.007443 -0.184258 68 1 84
0.055894 -0.027950 -0.470618 178 221 44
0.087576 -0.329810 -0.256290 40 122 142
-0.194311 -0.287623 -0.137549 68 1 84
-0.644055 -0.167416 0.376815 66 62 133
-0.081449 -0.429779 -0.176805 68 1 84
0.330973 -0.179534 -0.115401 68 1 84
0.580456 0.118305 0.401285 68 1 84
0.064435 -0.070685 -0.435067 105 204 91
0.114161 -0.147563 -0.284745 30 153 138
-0.302843 -0.254987 -0.117644 68 1 84
0.484461 0.058742 0.021870 68 1 84
0.470501 0.438092 0.257710 68 1 84
0.134895 -0.038772 -0.316694 51 97 141
-0.670449 -0.528774 0.476080 30 158 136
0.662963 -0.501484 0.432501 33 142 140
-0.408477 -0.429002 -0.085015 68 1 84
0.353960 0.204966 -0.123049 68 1 84
-0.236306 0.357851 -0.198305 34 138 141
0.671643 -0.303986 0.475655 68 55 129
-0.111718 -0.444089 -0.139038 68 1 84
-0.419805 -0.425038 -0.077770 68 1 84
-0.387973 0.560318 0.090952 68 1 84
-0.127633 -0.271335 -0.177655 68 1 84
-0.457572 -0.459017 -0.105097 68 1 84
-0.631557 -0.150795 0.326558 44 113 142
-0.508849 -0.468241 -0.033959 68 1 84
0.626329 -0.243010 0.274186 72 26 108
-0.544686 0.339095 0.325875 68 1 84
-0.524991 0.090923 0.071056 68 1 84
-0.045963 -0.217179 -0.433138 62 188 115
0.041603 0.220219 -0.296286 66 190 113
0.309518 0.541465 -0.081468 68 1 84
-0.252097 0.288374 -0.169190 61 74 137
0.674460 -0.383947 0.546660 59 80 138
0.036239 0.119918 -0.315483 30 152 138
0.361245 0.579424 0.155798 68 1 84
0.089781 0.653990 -0.277104 68 57 130
0.003412 -0.068009 -0.496994 223 227 24
0.221208 -0.540880 -0.255011 63 71 136
0.053798 -0.534796 -0.305136 30 155 137
0.031258 -0.384576 -0.337002 38 128 142
0.117722 -0.562174 -0.290584 39 173 128
-0.633196 -0.039464 0.432703 52 95 141
0.069481 -0.261101 -0.333780 75 194 108
-0.530436 -0.461752 0.050299 68 1 84
-0.160448 0.687601 -0.178818 68 1 84
0.321737 0.616614 0.150541 68 1 84
0.161046 0.451841 -0.234716 44 114 142
-0.409209 0.240115 -0.033008 68 1 84
-0.202162 0.288850 -0.195264 35 135 141
-0.164180 0.093958 -0.219938 54 91 140
-0.498694 -0.529874 -0.050695 58 82 139
-0.586207 -0.090832 0.141190 68 1 84
-0.624545 0.036569 0.576754 71 37 117
0.288389 -0.349822 -0.123707 68 1 84
-0.451225 -0.344934 -0.016802 68 1 84
0.034546 0.029043 -0.480213 35 169 130
-0.241404 0.580412 -0.198673 31 146 140
-0.085334 -0.479315 -0.218579 61 75 137
0.685338 -0.415453 0.536007 53 92 140
-0.624228 -0.139197 0.296527 53 93 140
0.628111 -0.144105 0.363865 68 1 84
-0.185745 -0.084768 -0.180854 68 1 84
0.244508 0.071190 -0.174156 68 1 84
-0.611307 -0.065452 0.285569 72 33 114
0.002960 -0.207165 -0.434784 30 151 138
-0.600468 -0.483514 0.280607 62 72 136
-0.199746 -0.355795 -0.135293 68 1 84
-0.007090 0.447015 -0.306572 165 218 53
-0.212813 -0.230895 -0.142790 68 1 84
-0.239700 -0.395661 -0.129128 68 1 84
-0.525096 -0.435879 0.022781 68 1 84
0.283010 0.485981 -0.131229 70 9 92
-0.539051 0.344010 0.275574 68 1 84
0.452784 0.466112 0.287654 68 1 84
-0.215485 0.112404 -0.190605 69 52 127
0.019767 -0.258539 -0.401952 51 182 121
-0.557325 -0.468777 0.145078 68 1 84
-0.386748 0.510496 0.015029 68 1 84
0.245286 -0.499738 -0.202530 68 1 84
-0.462761 0.473575 0.194649 68 1 84
-0.093792 -0.123699 -0.454383 81 196 104
-0.464996 -0.501209 -0.125109 68 1 84
0.538564 0.289663 0.301480 68 1 84
-0.630110 0.017715 0.571629 48 104 141
-0.586217 0.095100 0.242571 68 1 84
0.227360 0.464057 -0.186195 64 68 135
0.366615 -0.543964 -0.223419 68 1 84
0.557020 -0.468945 0.012710 68 1 84
-0.272603 0.492097 -0.171206 40 123 142
0.539904 0.274618 0.270878 68 1 84
-0.289305 -0.355228 -0.126008 68 1 84
-0.557253 0.310424 0.396029 68 1 84
0.414280 -0.525862 -0.195161 68 1 84
-0.314368 0.266185 -0.159035 72 32 113
-0.534769 0.077858 0.083530 68 1 84
0.256186 0.538776 -0.159638 69 54 129
0.129286 0.268104 -0.245638 30 153 138
0.619733 -0.101021 0.381662 68 1 84
0.259014 0.440889 -0.159478 71 43 122
0.637901 -0.432027 0.356166 62 73 137
-0.536952 0.324425 0.218162 68 1 84
0.539739 0.238764 0.509408 68 1 84
0.650996 -0.323379 0.379977 72 33 114
-0.443980 -0.309037 -0.029471 68 1 84
-0.650751 -0.284627 0.487736 50 99 141
-0.537139 0.320288 0.213088 68 1 84
-0.308041 -0.396216 -0.116438 68 1 84
0.090150 -0.115196 -0.323542 40 123 142
0.006634 0.476835 -0.317913 139 213 70
-0.165268 -0.589078 -0.274292 68 190 112
-0.271071 -0.069131 -0.133770 68 1 84
-0.577455 -0.403871 0.182481 68 1 84
0.345046 0.445827 -0.063023 68 1 84
-0.501022 0.411075 0.418793 68 1 84
-0.600531 -0.136378 0.178077 66 64 133
0.331042 -0.578605 -0.242621 70 45 124
-0.533833 -0.034562 0.044217 68 1 84
-0.358730 0.260741 -0.116197 70 12 95
0.468932 0.441079 0.263649 68 1 84
0.610002 -0.247989 0.205310 68 1 84
-0.454148 -0.585371 -0.126853 71 37 117
0.015208 -0.060807 -0.494393 202 224 30
0.437396 -0.351870 -0.037059 68 1 84
0.608943 -0.019564 0.572987 68 1 84
0.032863 -0.300961 -0.374523 30 152 138
-0.101158 0.537999 -0.310770 77 194 107
-0.602027 0.127266 0.519807 68 1 84
0.581559 0.113337 0.495134 68 1 84
-0.375456 0.586774 0.165430 68 1 84
-0.381074 0.526573 0.016770 68 1 84
-0.023441 -0.187372 -0.450872 51 182 121
-0.070386 -0.389820 -0.192782 68 1 84
0.541246 0.082302 0.115705 68 1 84
-0.341947 0.614827 0.115163 68 1 84
-0.325316 0.515664 -0.100641 68 1 84
-0.465831 -0.077922 -0.035239 68 1 84
0.041335 -0.080420 -0.460266 183 221 41
-0.214391 0.548828 -0.231722 37 171 129
0.068531 -0.286867 -0.325019 41 121 142
0.377199 -0.275209 -0.083706 68 1 84
0.483970 -0.071556 -0.014934 68 1 84
-0.093699 -0.157542 -0.415473 50 98 141
0.054311 -0.117824 -0.410603 167 219 51
-0.372877 0.457601 -0.040110 68 1 84
-0.642173 -0.517045 0.393608 33 142 140
0.571390 -0.020621 0.116562 68 1 84
0.468199 0.219824 0.037933 68 1 84
0.359899 0.542775 0.030563 68 1 84
-0.612497 0.109503 0.416633 68 1 84
-0.673126 -0.411793 0.468333 33 166 133
0.094455 0.252522 -0.265364 33 166 133
-0.162751 -0.495638 -0.178693 68 1 84
0.421355 0.106519 -0.035290 68 1 84
-0.223199 -0.386171 -0.132846 68 1 84
-0.332644 0.151651 -0.119348 68 1 84
-0.477810 0.401124 0.129424 68 1 84
-0.129192 0.531075 -0.292320 189 222 38
-0.455108 0.494271 0.234582 68 1 84
0.403980 0.156668 -0.058076 68 1 84
0.453802 -0.168247 -0.052668 68 1 84
0.505856 -0.030007 0.018358 68 1 84
-0.192635 -0.278396 -0.138632 68 1 84
-0.348238 0.220426 -0.122242 72 25 107
-0.605440 -0.193427 0.181155 61 75 137
-0.080654 -0.428645 -0.177550 68 1 84
0.583223 -0.161405 0.097938 68 1 84
-0.324400 -0.203656 -0.119437 68 1 84
0.193861 0.177853 -0.237696 71 17 99
0.217694 0.496793 -0.199792 55 88 140
-0.425172 -0.236273 -0.064857 68 1 84
-0.438753 0.510548 0.300512 68 1 84
-0.495780 0.431722 0.285873 68 1 84
0.410346 0.124371 -0.049295 68 1 84
-0.197822 0.121986 -0.206940 57 84 139
0.430623 -0.010934 -0.038574 68 1 84
-0.526158 0.344720 0.204714 68 1 84
-0.470756 -0.258931 -0.024384 68 1 84
0.129231 0.047371 -0.251952 69 8 91
0.566615 0.174144 0.468783 68 1 84
0.501278 0.298507 0.134153 68 1 84
-0.464227 0.472214 0.353902 68 1 84
0.437075 -0.354258 -0.037117 68 1 84
-0.031148 -0.224368 -0.432817 30 156 137
-0.644496 -0.462465 0.401438 49 101 141
-0.383206 0.510215 0.007720 68 1 84
-0.017745 0.026623 -0.508559 141 214 68
-0.528838 -0.432020 0.036479 68 1 84
0.393447 0.171473 -0.070509 68 1 84
-0.063118 -0.599481 -0.294789 183 221 41
-0.116477 -0.120160 -0.396614 33 140 141
-0.643631 -0.490819 0.401708 46 109 142
-0.340102 0.114328 -0.102081 68 1 84
0.558629 -0.144042 0.052546 68 1 84
-0.092879 0.484438 -0.298162 170 219 50
0.609233 -0.059974 0.367678 68 1 84
0.105202 -0.433083 -0.227239 65 66 134
0.500691 -0.024870 0.015352 68 1 84
0.615251 -0.190933 0.222193 68 1 84
0.589953 0.046921 0.354028 68 1 84
0.499739 0.224311 0.086112 68 1 84
0.370564 0.422022 -0.036050 68 1 84
-0.004857 -0.372764 -0.352304 47 106 141
-0.455531 0.337791 0.037434 68 1 84
0.401404 0.119646 -0.059704 68 1 84
0.414793 0.398282 0.027705 68 1 84
0.227503 -0.066709 -0.180588 69 6 90
-0.617237 -0.132083 0.264684 67 60 132
0.270584 0.276823 -0.151273 68 1 84
0.623352 -0.078850 0.559843 68 1 84
0.058366 0.637075 -0.299551 53 92 140
0.112785 -0.431763 -0.211235 62 73 137
0.413356 0.296875 -0.025958 68 1 84
-0.527252 -0.493123 0.051212 68 1 84
-0.507097 -0.483631 -0.039439 68 1 84
-0.100622 -0.143588 -0.416289 49 101 141
-0.601127 -0.025286 0.254498 68 1 84
-0.178755 0.063411 -0.194858 70 48 125
0.215952 -0.414352 -0.105712 68 1 84
-0.347185 -0.454012 -0.138128 68 1 84
-0.612025 0.073441 0.558057 68 55 129
0.646795 -0.415761 0.385871 53 92 140
-0.449212 0.001835 -0.026023 68 1 84
0.108134 0.592103 -0.299288 31 149 139
-0.443506 0.453050 0.095703 68 1 84
-0.282898 -0.162392 -0.130326 68 1 84
-0.108112 0.301816 -0.290662 51 182 121
-0.603974 -0.052357 0.253965 68 1 84
-0.184510 -0.313357 -0.137504 68 1 84
-0.572298 0.127888 0.197724 68 1 84
-0.360673 -0.466135 -0.156714 68 1 84
0.621635 -0.105117 0.386391 68 1 84
-0.050545 -0.402874 -0.291607 67 60 132
0.498917 -0.292238 0.012079 68 1 84
0.072704 0.162994 -0.298434 42 117 142
0.222667 0.536924 -0.200794 55 89 140
-0.326410 -0.597754 -0.229652 47 106 141
0.602856 -0.080596 0.209116 68 1 84
0.323957 -0.320921 -0.116372 68 1 84
0.371604 -0.513338 -0.201851 68 1 84
0.162386 0.045549 -0.220515 68 1 84
0.602320 -0.355809 0.226635 68 1 84
-0.261737 0.656883 -0.065332 68 1 84
0.311680 -0.500458 -0.196735 68 1 84
-0.156705 -0.447893 -0.122947 68 1 84
-0.248344 -0.569069 -0.251858 40 122 142
0.027338 -0.554426 -0.308961 149 215 63
0.417640 -0.422960 -0.076149 68 1 84
-0.665237 -0.369551 0.441137 36 132 141
0.221633 0.475476 -0.192992 64 67 135
0.614269 -0.032616 0.501615 68 1 84
-0.608657 -0.479253 0.295916 63 69 135
-0.354368 0.605636 0.121946 68 1 84
-0.477015 0.398300 0.124937 68 1 84
0.303800 -0.456532 -0.123197 68 1 84
-0.155977 -0.013360 -0.220783 68 1 84
-0.325780 -0.087674 -0.109256 68 1 84
0.432960 0.394560 0.057234 68 1 84
-0.274892 0.357783 -0.175288 47 105 141
0.186336 0.553467 -0.239052 44 113 142
0.408846 -0.179801 -0.081572 68 1 84
-0.499844 0.086401 0.035606 68 1 84
-0.021616 0.092740 -0.391840 40 174 127
0.108717 0.061989 -0.274708 52 95 141
-0.547487 0.333434 0.331528 68 1 84
-0.659925 -0.180926 0.562094 41 120 142
-0.600256 -0.114222 0.194030 70 47 124
-0.380814 -0.572362 -0.204948 68 57 130
-0.616760 0.060814 0.571005 66 64 133
0.084611 0.517800 -0.308672 71 192 110
0.330959 0.134829 -0.134569 68 1 84
0.144321 0.625582 -0.263182 59 81 138
0.576570 -0.470507 0.152544 57 85 139
-0.678883 -0.502813 0.509951 68 190 112
-0.031135 -0.050174 -0.514580 212 225 26
0.041281 -0.367300 -0.337917 41 120 142
0.336523 0.047638 -0.117778 68 1 84
0.541748 0.242627 0.495988 68 1 84
-0.664447 -0.353933 0.418257 38 128 142
0.441762 0.364356 0.052208 68 1 84
0.579478 -0.392363 0.139591 71 44 123
0.632000 -0.115831 0.490466 68 1 84
0.429078 0.494802 0.311105 68 1 84
-0.580758 0.189202 0.277670 68 1 84
0.171064 0.247441 -0.216557 47 106 141
0.547561 -0.206528 0.043787 68 1 84
0.072065 -0.025951 -0.443176 79 195 105
-0.106755 -0.440708 -0.140933 68 1 84
-0.453047 -0.005229 -0.025048 68 1 84
-0.638812 -0.478225 0.368233 52 95 141
-0.585967 -0.230753 0.129019 72 25 107
-0.225339 -0.201622 -0.144636 68 1 84
0.661402 -0.363846 0.435745 70 45 124
0.037185 0.595679 -0.322300 31 163 134
-0.483948 0.056916 0.012745 68 1 84
0.439309 -0.561843 -0.192373 69 52 127
-0.314608 -0.565787 -0.231545 68 57 130
0.615156 -0.093174 0.363889 68 1 84
-0.586831 0.145668 0.275617 68 1 84
-0.418276 0.397798 0.004662 68 1 84
-0.542285 0.341175 0.427357 68 1 84
-0.656399 -0.256582 0.434719 57 84 139
-0.317274 0.306393 -0.155148 70 14 97
-0.187576 0.265075 -0.197225 38 128 142
0.571660 0.111300 0.271607 68 1 84
0.627631 -0.099193 0.500023 68 1 84
-0.344315 -0.135186 -0.109743 68 1 84
0.500006 0.016280 0.027831 68 1 84
0.658227 -0.401965 0.422796 64 67 135
-0.188664 0.276086 -0.200702 37 131 141
-0.573765 -0.117391 0.087716 68 1 84
0.004033 -0.326644 -0.377735 39 126 142
0.406348 -0.545753 -0.207705 71 22 105
0.195057 0.001785 -0.195778 68 1 84
0.520804 0.326859 0.411302 68 1 84
-0.578070 -0.079188 0.115637 68 1 84
0.681979 -0.500735 0.511899 48 104 141
0.058704 -0.313561 -0.336905 37 171 129
-0.618651 -0.023726 0.349143 71 37 117
0.020320 -0.169450 -0.432969 35 169 130
0.559950 -0.478744 0.057648 72 33 114
-0.554414 -0.289673 0.083390 68 1 84
-0.140618 0.118341 -0.252141 59 81 138
-0.568464 0.004638 0.140710 68 1 84
-0.612538 0.101679 0.402277 68 1 84
0.080199 0.698086 -0.212172 68 1 84
-0.307109 -0.270548 -0.115230 68 1 84
-0.547596 0.000214 0.081081 68 1 84
-0.614608 0.083106 0.497634 72 35 116
-0.488662 0.336271 0.097409 68 1 84
-0.498802 0.363758 0.145686 68 1 84
-0.126405 0.413893 -0.260254 175 220 46
0.116798 -0.001870 -0.346072 56 87 140
-0.150825 -0.112970 -0.207320 68 1 84
0.474690 0.142104 0.027414 68 1 84
-0.068614 0.669944 -0.277218 48 103 141
-0.345012 0.237825 -0.129914 71 24 106
-0.470084 0.425671 0.135508 68 1 84
-0.026541 0.193194 -0.297643 38 128 142
0.275380 -0.337717 -0.125011 68 1 84
-0.548476 -0.392049 0.094618 68 1 84
-0.130757 -0.152381 -0.230040 68 1 84
0.260801 0.481712 -0.153754 70 45 124
0.079551 -0.453342 -0.285417 40 123 142
0.598897 -0.131550 0.140828 68 1 84
-0.232079 0.465280 -0.198714 31 150 139
0.017374 0.440545 -0.299375 109 206 88
-0.091270 -0.501402 -0.238641 39 125 142
0.394812 -0.071746 -0.077386 68 1 84
-0.488039 0.434254 0.387573 68 1 84
0.100093 0.272677 -0.270928 41 175 127
-0.443852 -0.479318 -0.131939 68 1 84
0.552160 0.195184 0.239716 68 1 84
-0.334257 0.581342 -0.033060 68 1 84
-0.117420 -0.294639 -0.169453 68 1 84
-0.063114 0.652912 -0.292434 43 116 142
-0.079928 -0.360799 -0.173934 68 1 84
0.535569 -0.507057 -0.065518 68 1 84
0.578825 0.112849 0.520608 68 1 84
0.577130 0.094525 0.570384 68 1 84
0.687716 -0.461480 0.531714 48 103 141
-0.074254 0.068499 -0.331607 36 134 141
-0.142871 -0.034494 -0.390859 94 201 97
-0.328531 -0.396672 -0.108569 68 1 84
-0.191732 0.512331 -0.241931 69 191 111
-0.186379 0.315296 -0.229037 37 131 141
-0.237692 -0.409175 -0.126840 68 1 84
0.143495 0.665908 -0.230281 71 42 121
0.387523 -0.245884 -0.080283 68 1 84
-0.364029 0.056677 -0.073234 68 1 84
-0.029737 -0.494536 -0.296645 40 122 142
0.541636 0.210256 0.541546 68 1 84
-0.225031 0.063525 -0.166804 69 8 91
-0.604941 -0.309787 0.214256 65 66 134
0.406585 0.512814 0.116524 68 1 84
0.333221 0.514347 -0.048904 68 1 84
-0.586139 -0.034501 0.188009 68 1 84
-0.476793 0.177138 0.028709 68 1 84
-0.024404 -0.050777 -0.513562 199 224 31
-0.176435 0.222292 -0.234459 42 118 142
0.425446 -0.590008 -0.201661 60 77 138
-0.180900 -0.513458 -0.210201 68 1 84
0.521253 -0.494756 -0.094905 68 1 84
-0.609571 0.044879 0.342008 68 1 84
0.319949 0.217032 -0.155044 68 1 84
0.137622 0.253031 -0.237566 44 113 142
-0.226505 0.275320 -0.173010 63 69 135
0.518286 0.155425 0.095652 68 1 84
0.550883 0.195935 0.232680 68 1 84
0.080977 -0.404512 -0.271099 44 114 142
-0.603353 0.034033 0.300649 68 1 84
-0.212506 0.156443 -0.209138 43 115 142
-0.651183 -0.082929 0.579055 47 105 141
0.209549 -0.272763 -0.139949 68 1 84
0.355946 0.222543 -0.121038 68 1 84
0.415140 0.203877 -0.042000 68 1 84
-0.654761 -0.319962 0.519279 30 155 137
-0.046285 -0.227954 -0.427207 44 177 125
-0.040661 0.621389 -0.313364 32 144 140
-0.603442 -0.407129 0.271701 68 1 84
0.460288 0.313108 0.056906 68 1 84
-0.361931 0.206115 -0.101696 68 1 84
0.353548 0.586459 0.219149 68 1 84
0.054719 -0.184192 -0.380671 94 201 97
0.430491 0.380540 0.043107 68 1 84
0.603386 -0.196303 0.164400 68 1 84
0.448720 -0.174956 -0.056612 68 1 84
0.481536 0.344804 0.121560 68 1 84
0.431859 -0.051412 -0.047727 68 1 84
-0.614946 0.094235 0.476733 68 1 84
0.141300 0.451579 -0.247431 37 131 141
0.608478 -0.075799 0.320716 68 1 84
-0.403716 0.539929 0.100971 68 1 84
-0.529230 -0.409593 0.041783 68 1 84
-0.424277 0.218203 -0.013715 68 1 84
0.620689 -0.175068 0.255588 68 1 84
-0.235909 0.545959 -0.210632 32 145 140
0.352885 0.233747 -0.124841 68 1 84
0.147623 -0.392444 -0.114818 68 1 84
-0.069366 -0.306670 -0.348106 57 85 139
-0.543823 -0.370557 0.079734 68 1 84
-0.466505 0.408200 0.108822 68 1 84
-0.030894 0.700804 -0.215703 68 1 84
-0.094733 -0.439113 -0.157647 68 1 84
0.421671 -0.464167 -0.134510 68 1 84
0.595010 0.050425 0.524207 68 1 84
0.132485 -0.335398 -0.160995 68 1 84
0.543739 -0.106470 0.036443 68 1 84
-0.272419 0.142474 -0.167483 71 21 103
0.070259 -0.217264 -0.346527 44 177 125
-0.618898 0.055132 0.400752 68 1 84
-0.208429 0.246815 -0.189770 59 81 138
-0.092948 -0.189094 -0.382508 30 153 138
0.127952 -0.378191 -0.145205 68 1 84
0.343333 0.597304 0.180332 68 1 84
-0.669617 -0.378496 0.560387 57 185 118
-0.124075 0.044522 -0.238955 61 76 137
-0.245170 0.651370 -0.128881 68 1 84
-0.286376 0.169332 -0.166962 72 28 110
-0.296702 -0.414500 -0.117277 68 1 84
0.371855 -0.035928 -0.088850 68 1 84
-0.518794 0.174968 0.083706 68 1 84
0.628145 -0.201077 0.283443 68 1 84
-0.089338 0.094182 -0.290757 49 101 141
-0.358254 0.371887 -0.101292 68 1 84
-0.441267 0.459170 0.096441 68 1 84
0.475775 -0.107859 -0.028742 68 1 84
0.385812 0.269609 -0.075910 68 1 84
-0.082853 0.028256 -0.398442 83 197 103
-0.019718 0.072614 -0.463726 30 155 137
0.579325 0.015627 0.211240 68 1 84
0.590571 0.009074 0.285298 68 1 84
0.633950 -0.125855 0.502065 68 1 84
0.166832 -0.249957 -0.186635 68 1 84
-0.283199 -0.498157 -0.194517 68 1 84
0.142688 0.662283 -0.235500 69 53 128
0.551947 0.233389 0.284418 68 1 84
0.676829 -0.417865 0.492361 57 85 139
0.547875 0.258536 0.390831 68 1 84
0.621668 -0.264548 0.261279 71 18 101
-0.541432 0.148915 0.117044 68 1 84
-0.013138 -0.038059 -0.515718 170 219 50
0.281536 0.280334 -0.149807 68 1 84
0.089384 -0.077708 -0.355800 30 152 138
0.060845 0.338542 -0.310134 36 134 141
0.272762 0.645090 -0.022672 68 1 84
0.671922 -0.423373 0.471618 53 93 140
-0.134211 0.475111 -0.264354 103 204 92
0.129116 -0.498262 -0.258438 60 78 138
-0.486361 0.446982 0.284449 68 1 84
0.486079 0.362491 0.497902 68 1 84
0.494586 -0.576695 -0.135600 46 107 142
0.144076 -0.570961 -0.285324 36 134 141
-0.291248 -0.340355 -0.125347 68 1 84
-0.560071 0.305138 0.343729 68 1 84
0.418272 -0.355249 -0.063387 68 1 84
0.133881 -0.332761 -0.160901 68 1 84
0.644684 -0.253310 0.537245 72 29 111
0.178518 -0.265502 -0.164795 68 1 84
-0.283533 0.514740 -0.160722 49 101 141
0.521733 -0.306419 0.033953 68 1 84
0.428856 0.168811 -0.024985 68 1 84
-0.381436 0.472228 -0.017298 68 1 84
0.593595 0.041884 0.552019 68 1 84
0.159703 -0.520930 -0.262336 66 61 132
-0.604933 0.128900 0.499842 68 1 84
0.386576 0.011815 -0.070232 68 1 84
0.617935 -0.277583 0.250954 68 1 84
0.668190 -0.358891 0.508755 66 62 133
-0.164126 0.303331 -0.246237 44 177 125
0.068642 -0.239543 -0.341629 46 178 124
0.088313 -0.334557 -0.252003 47 105 141
0.363103 -0.133885 -0.101523 68 1 84
0.495019 0.341990 0.502607 68 1 84
-0.567644 -0.094226 0.079718 68 1 84
0.224428 0.672596 -0.072960 68 1 84
-0.560349 0.277697 0.267529 68 1 84
-0.602412 -0.132132 0.189420 66 62 133
-0.163644 -0.495050 -0.177029 68 1 84
0.666139 -0.276912 0.475496 70 49 126
-0.184555 -0.512028 -0.207343 68 1 84
-0.161707 -0.055046 -0.200838 68 1 84
0.615831 -0.039236 0.510441 68 1 84
-0.489249 -0.466682 -0.075296 68 1 84
-0.615021 -0.081050 0.295377 63 69 135
0.259802 -0.084955 -0.161975 68 1 84
-0.172374 0.302785 -0.238411 32 165 133
0.607362 -0.091178 0.245974 68 1 84
-0.593480 0.193839 0.475716 68 1 84
-0.682222 -0.488045 0.532975 61 187 116
0.386225 0.100292 -0.074363 68 1 84
-0.106243 0.489413 -0.291413 197 223 33
0.258737 0.602599 -0.136225 68 1 84
-0.469822 -0.500648 -0.118491 68 1 84
-0.262557 0.616800 -0.145867 71 42 121
0.293812 -0.048632 -0.146134 68 1 84
-0.030069 0.090543 -0.420651 31 161 135
0.127470 -0.324532 -0.179104 68 1 84
0.435935 0.491194 0.270488 68 1 84
0.601213 -0.171976 0.150447 68 1 84
0.256563 0.487041 -0.158476 71 37 117
0.464771 -0.167647 -0.044223 68 1 84
0.167120 0.061687 -0.222459 68 1 84
-0.297091 -0.121894 -0.124047 68 1 84
-0.240914 0.292068 -0.172100 55 89 140
-0.118607 -0.084315 -0.451177 114 207 85
0.236461 0.146625 -0.203689 70 11 94
-0.123137 -0.107736 -0.374057 39 125 142
-0.584540 -0.506899 0.240016 65 65 134
0.411195 0.067636 -0.044840 68 1 84
0.032042 -0.174330 -0.418883 35 168 131
-0.383854 0.267575 -0.079667 68 1 84
0.175114 0.032712 -0.209233 68 1 84
-0.350975 0.461346 -0.075958 68 1 84
-0.055453 0.077443 -0.439878 87 198 101
0.563802 0.045531 0.160746 68 1 84
0.359926 0.555791 0.046520 68 1 84
-0.345593 0.602400 0.048607 68 1 84
-0.523623 -0.471032 0.023559 68 1 84
0.109903 0.144739 -0.284109 54 91 140
-0.593209 0.164521 0.523302 68 1 84
-0.624838 0.037859 0.487784 53 92 140
-0.653142 -0.103753 0.542271 38 129 142
-0.402423 0.078743 -0.044239 68 1 84
0.366036 -0.355534 -0.105811 68 1 84
0.443167 0.329527 0.037150 68 1 84
-0.623928 -0.395231 0.305161 71 42 121
0.296790 -0.388673 -0.116382 68 1 84
-0.249969 0.112129 -0.169801 72 25 107
-0.438622 0.419881 0.054208 68 1 84
0.427882 0.204420 -0.022313 68 1 84
-0.044296 -0.373980 -0.327885 69 54 129
0.167926 -0.105092 -0.219608 68 1 84
-0.029684 -0.568432 -0.299703 73 193 109
0.566990 0.156806 0.294299 68 1 84
-0.072135 0.038154 -0.493941 77 194 107
-0.563615 -0.401976 0.141135 68 1 84
0.578384 0.001348 0.183327 68 1 84
-0.600686 -0.375686 0.245246 68 1 84
-0.175366 -0.072082 -0.187902 68 1 84
-0.373576 0.124529 -0.069891 68 1 84
-0.305736 0.174511 -0.153567 71 15 98
-0.016625 0.197347 -0.298317 39 124 142
0.168399 0.319222 -0.239993 31 146 140
-0.531930 -0.120487 0.020281 68 1 84
0.303192 0.566527 -0.078553 68 1 84
-0.077044 -0.218297 -0.406391 38 127 142
-0.619801 0.053083 0.405510 68 1 84
0.358714 0.227854 -0.117552 68 1 84
0.273360 0.611148 -0.098861 68 1 84
-0.049122 -0.288308 -0.390875 30 157 136
0.579466 0.102270 0.330351 68 1 84
-0.127436 -0.266658 -0.182239 68 1 84
0.399639 0.540879 0.198942 68 1 84
-0.076653 0.001811 -0.513633 167 219 51
0.320583 0.011526 -0.129549 68 1 84
0.386070 0.551228 0.140575 68 1 84
-0.121498 -0.495708 -0.203850 68 1 84
-0.618342 0.061798 0.503926 55 88 140
0.055829 0.011964 -0.455774 30 157 136
0.475776 -0.516593 -0.154734 72 26 108
-0.157774 -0.020590 -0.238274 69 5 88
-0.397393 0.391886 -0.031410 68 1 84
0.045438 0.312406 -0.316503 34 137 141
-0.532840 -0.519488 0.079079 65 65 134
-0.363882 -0.315167 -0.084405 68 1 84
-0.139973 -0.005775 -0.350111 41 175 127
-0.107690 -0.248979 -0.230852 68 1 84
-0.557289 0.311750 0.381038 68 1 84
0.045147 0.288196 -0.302689 33 167 132
-0.206484 -0.523501 -0.222311 68 1 84
-0.098960 -0.501646 -0.231861 61 75 137
-0.607713 -0.032364 0.284684 71 37 117
0.665551 -0.333896 0.452770 70 48 125
0.241679 -0.031622 -0.174469 68 1 84
-0.205015 -0.114111 -0.164984 68 1 84
0.472743 -0.303027 -0.007414 68 1 84
-0.114655 -0.132277 -0.306651 60 78 138
0.158981 -0.541542 -0.275159 63 71 136
-0.141744 -0.054347 -0.363166 30 151 138
-0.179823 -0.251599 -0.148019 68 1 84
0.565390 0.191668 0.385694 68 1 84
0.544611 0.249511 0.259247 68 1 84
-0.660490 -0.267240 0.577900 36 134 141
-0.568241 -0.105761 0.078302 68 1 84
0.318937 0.207491 -0.156162 68 1 84
-0.548286 -0.029063 0.069710 68 1 84
-0.605817 -0.208237 0.181909 69 54 129
0.405723 0.523773 0.140199 68 1 84
0.646188 -0.235551 0.589786 68 1 84
0.553939 -0.210188 0.053657 68 1 84
0.085052 -0.086572 -0.357594 32 144 140
0.052949 -0.335535 -0.337784 35 168 131
0.445882 -0.056631 -0.038987 68 1 84
-0.502695 -0.207393 -0.009805 68 1 84
0.296018 -0.486271 -0.173013 68 1 84
-0.134634 -0.249898 -0.183827 68 1 84
0.027611 -0.065076 -0.483056 183 221 41
0.525484 0.295847 0.469995 68 1 84
-0.380265 -0.362424 -0.068252 68 1 84
-0.549572 0.316134 0.273198 68 1 84
0.570486 -0.517314 0.129603 52 95 141
0.406638 -0.149968 -0.081410 68 1 84
0.184181 0.001546 -0.202977 68 1 84
-0.444859 0.485705 0.142362 68 1 84
0.506002 0.358549 0.237019 68 1 84
0.208323 0.396773 -0.204108 51 97 141
0.416868 0.509253 0.311608 68 1 84
0.453700 0.435301 0.426148 68 1 84
-0.558657 0.289671 0.511771 68 1 84
-0.165690 0.059010 -0.202044 70 47 124
0.328224 0.610843 0.106795 68 1 84
0.572999 0.022963 0.180399 68 1 84
0.496862 -0.403051 -0.037151 68 1 84
0.291077 -0.393626 -0.115966 68 1 84
-0.549958 0.303184 0.246909 68 1 84
-0.126737 0.633777 -0.283303 30 153 138
-0.298922 -0.307948 -0.120046 68 1 84
-0.037704 0.191091 -0.297315 33 142 140
-0.400042 0.151624 -0.042973 68 1 84
-0.425982 -0.073247 -0.059570 68 1 84
0.338999 -0.543507 -0.230646 68 1 84
0.382317 0.492081 0.035503 68 1 84
0.452299 -0.473203 -0.135451 68 1 84
-0.426599 -0.261102 -0.056091 68 1 84
0.518623 0.318896 0.447704 68 1 84
-0.157114 0.468082 -0.247063 146 215 65
-0.129358 0.150825 -0.268971 51 96 141
-0.064101 -0.361474 -0.266191 65 66 134
0.286884 0.537270 -0.119331 68 1 84
0.401589 -0.339052 -0.079669 68 1 84
0.683773 -0.405669 0.554598 49 101 141
-0.092656 -0.211056 -0.369913 40 122 142
-0.497148 0.424286 0.365580 68 1 84
-0.415534 -0.292274 -0.052957 68 1 84
0.505159 0.198400 0.085879 68 1 84
0.097380 0.569940 -0.308087 30 155 137
0.336628 0.336670 -0.117389 68 1 84
-0.212954 0.385150 -0.215192 31 149 139
-0.507032 -0.443453 -0.029768 68 1 84
0.637872 -0.185553 0.358083 68 1 84
-0.136938 -0.019994 -0.423599 157 217 58
0.002585 -0.020561 -0.514917 98 202 95
-0.119867 0.045124 -0.245726 56 86 139
0.465164 0.149124 0.017958 68 1 84
0.245253 0.580265 -0.168445 69 5 88
-0.126790 0.447287 -0.260264 116 208 84
0.158154 0.014964 -0.231626 70 9 92
0.089495 0.600237 -0.305867 30 154 137
0.515992 -0.395191 -0.016932 68 1 84
0.029969 -0.042311 -0.493365 159 217 56
-0.398051 -0.196216 -0.089150 68 1 84
-0.068709 -0.456761 -0.229798 57 85 139
-0.228699 0.134395 -0.190747 71 37 117
0.317912 -0.503664 -0.200640 68 1 84
-0.533999 -0.473394 0.069013 68 1 84
0.283117 -0.180053 -0.136214 68 1 84
0.132117 0.512248 -0.273615 30 157 136
0.632635 -0.446904 0.342813 62 73 137
-0.598662 0.161828 0.377182 68 1 84
-0.369018 0.446678 -0.051512 68 1 84
-0.232116 0.472057 -0.199402 30 159 136
-0.638040 -0.534752 0.379355 32 145 140
0.256165 0.645875 -0.078729 68 1 84
-0.491211 0.428533 0.217261 68 1 84
-0.321715 -0.314906 -0.111045 68 1 84
0.242912 0.417748 -0.176165 66 61 132
0.586816 0.059044 0.595704 68 1 84
0.127268 -0.071384 -0.294358 69 52 127
-0.532210 -0.507099 0.074118 72 28 110
0.331811 0.607764 0.162744 68 1 84
-0.181663 -0.190281 -0.165076 68 1 84
0.379170 -0.210272 -0.091600 68 1 84
-0.582761 0.037400 0.205114 68 1 84
0.570898 -0.280232 0.097391 68 1 84
0.400448 -0.361116 -0.080971 68 1 84
0.525609 0.073109 0.078493 68 1 84
0.438452 0.291435 0.016161 68 1 84
-0.603126 0.134107 0.505087 68 1 84
0.648851 -0.188799 0.442852 68 1 84
-0.527917 -0.053548 0.029712 68 1 84
0.402624 -0.069641 -0.072026 68 1 84
0.622579 -0.074850 0.507233 68 1 84
-0.643697 -0.015604 0.542174 42 119 142
-0.003686 -0.180216 -0.447560 116 208 84
0.007128 -0.465846 -0.318782 34 137 141
-0.354628 0.267679 -0.121747 68 1 84
-0.387166 -0.322895 -0.065427 68 1 84
0.246060 -0.148622 -0.158587 68 1 84
0.338198 0.257669 -0.136028 68 1 84
-0.493295 0.115690 0.035105 68 1 84
0.125600 -0.389727 -0.149011 68 1 84
0.395589 0.387326 -0.015582 68 1 84
0.049018 -0.431323 -0.314157 56 185 118
-0.308003 -0.439458 -0.118762 68 1 84
-0.092803 0.142600 -0.286950 34 137 141
-0.082100 -0.076396 -0.496247 253 231 36
-0.468078 -0.394703 -0.031928 68 1 84
0.093478 -0.028577 -0.398526 54 184 119
-0.118186 -0.120100 -0.383124 34 138 141
0.537316 0.253813 0.497073 68 1 84
-0.569132 0.172267 0.210704 68 1 84
0.333928 0.597871 0.055890 68 1 84
-0.567308 -0.449224 0.171842 68 1 84
0.320956 -0.354574 -0.119303 68 1 84
0.402184 -0.202292 -0.082347 68 1 84
0.193870 0.627827 -0.212316 66 62 133
0.496018 0.379077 0.227666 68 1 84
0.599398 -0.027046 0.316523 68 1 84
-0.055935 -0.349659 -0.330065 56 86 139
0.442092 0.409442 0.087405 68 1 84
-0.168892 0.145963 -0.240679 42 117 142
0.545193 0.242949 0.254431 68 1 84
-0.134280 -0.076449 -0.335342 49 102 141
0.067876 -0.295006 -0.323093 37 130 142
-0.107378 0.078342 -0.267086 51 97 141
-0.013068 0.352803 -0.309054 39 173 128
0.497959 0.385683 0.344555 68 1 84
-0.478336 -0.479155 -0.097587 68 1 84
0.073291 -0.117398 -0.360684 48 180 122
0.382958 0.133694 -0.081244 68 1 84
-0.568014 -0.230929 0.088401 68 1 84
-0.659585 -0.217450 0.413169 69 54 129
0.617787 -0.390631 0.307257 70 48 125
0.014580 -0.130120 -0.454012 91 200 98
-0.467254 0.384017 0.088074 68 1 84
-0.180163 -0.151367 -0.171639 68 1 84
-0.041578 0.079642 -0.453836 30 160 135
-0.336755 -0.134339 -0.112543 68 1 84
-0.096789 0.075333 -0.281348 48 103 141
0.401424 0.477213 0.060751 68 1 84
-0.562574 0.059452 0.141633 68 1 84
0.071738 -0.532283 -0.299984 33 166 133
-0.127326 -0.127589 -0.252917 72 33 114
0.419214 0.292479 -0.017277 68 1 84
-0.525505 -0.457117 0.026040 68 1 84
-0.140704 -0.031220 -0.408771 114 207 85
-0.091789 -0.246142 -0.320917 62 73 137
-0.412198 0.258688 -0.028634 68 1 84
0.165641 0.314881 -0.241436 39 126 142
-0.653918 -0.286269 0.443312 61 75 137
0.067899 -0.415775 -0.296264 30 153 138
0.046068 -0.241637 -0.382832 30 155 137
0.594880 -0.017017 0.286671 68 1 84
0.499322 0.338969 0.490093 68 1 84
0.566386 0.175503 0.467047 68 1 84
-0.104678 0.057560 -0.266976 57 84 139
-0.606369 -0.390734 0.271873 70 14 97
-0.636523 -0.502294 0.350707 47 105 141
0.124867 0.592412 -0.288616 38 127 142
0.421818 0.369201 0.021226 68 1 84
0.390612 -0.091645 -0.082601 68 1 84
-0.523333 -0.505652 0.041794 68 1 84
-0.078856 -0.479771 -0.228694 62 73 137
0.562828 0.116000 0.217751 68 1 84
-0.087983 0.052682 -0.297516 34 139 141
0.383197 0.193065 -0.082903 68 1 84
0.106818 0.424585 -0.262931 37 130 142
0.336876 0.059630 -0.118245 68 1 84
0.072358 -0.214350 -0.343373 47 179 123
-0.009448 0.547400 -0.331937 62 188 115
-0.480692 0.414209 0.151123 68 1 84
0.653740 -0.217176 0.440546 68 1 84
-0.521730 -0.113699 0.008249 68 1 84
-0.594175 0.116767 0.297478 68 1 84
-0.640279 -0.464267 0.374422 57 85 139
-0.165687 -0.084336 -0.195428 68 1 84
0.241039 -0.190236 -0.155145 68 1 84
-0.366997 0.161825 -0.084679 68 1 84
0.327909 -0.468502 -0.153306 68 1 84
-0.417333 0.543834 0.222162 68 1 84
0.138225 -0.052720 -0.295708 71 44 123
-0.659538 -0.147232 0.536665 47 106 141
0.659604 -0.329177 0.581347 71 37 117
0.639454 -0.164352 0.394622 68 1 84
-0.093592 0.543112 -0.315420 96 201 96
-0.244627 0.520468 -0.199784 38 129 142
0.455547 0.462462 0.261008 68 1 84
-0.610188 -0.067033 0.277380 71 42 121
-0.404625 0.129745 -0.038741 68 1 84
0.046017 0.395707 -0.284797 32 164 133
-0.047034 0.086426 -0.407637 57 185 118
0.237021 0.269441 -0.158602 68 1 84
-0.660826 -0.211151 0.438472 60 77 138
0.360421 -0.516128 -0.207448 68 1 84
0.172170 -0.473971 -0.182400 68 1 84
-0.207202 0.450748 -0.214037 38 172 129
-0.086748 0.023063 -0.296947 50 99 141
-0.201011 0.448484 -0.218007 71 192 110
-0.452607 0.494306 0.299267 68 1 84
-0.082281 -0.284379 -0.322003 51 96 141
-0.658761 -0.266760 0.343821 53 92 140
-0.611427 0.094631 0.503958 68 1 84
0.379966 0.561288 0.221981 68 1 84
0.207429 -0.211645 -0.167788 68 1 84
0.453454 -0.320175 -0.021335 68 1 84
-0.156951 0.370595 -0.252658 73 193 109
0.096684 0.524019 -0.303453 40 174 127
0.105106 0.251153 -0.259456 31 162 134
-0.477507 -0.301276 -0.005752 68 1 84
0.651891 -0.207205 0.446589 68 1 84
0.023904 0.001779 -0.504366 42 176 126
-0.382812 -0.506422 -0.180283 68 1 84
-0.083516 -0.479975 -0.221425 60 78 138
0.605311 -0.217358 0.176645 68 1 84
0.666655 -0.418994 0.450461 63 69 135
0.104634 -0.380475 -0.198547 67 59 131
-0.652050 -0.320666 0.493669 35 137 141
-0.391330 -0.584155 -0.198746 66 62 133
0.418557 0.454621 0.077854 68 1 84
-0.292211 -0.369903 -0.123336 68 1 84
0.135006 0.151309 -0.271981 62 72 136
0.436313 -0.425025 -0.073833 68 1 84
-0.428522 0.529506 0.240565 68 1 84
0.303102 -0.530272 -0.228424 68 1 84
0.366628 -0.591912 -0.232126 71 40 120
0.506464 0.341278 0.200971 68 1 84
-0.654084 -0.425008 0.413276 46 108 142
-0.068386 -0.348307 -0.241059 71 18 101
-0.361839 0.599176 0.152420 68 1 84
0.439386 -0.121148 -0.056888 68 1 84
0.519204 0.225421 0.132044 68 1 84
-0.101886 -0.265573 -0.230018 68 1 84
0.116907 0.286902 -0.270534 33 166 133
-0.162547 0.173024 -0.252167 51 96 141
-0.420448 0.491709 0.075845 68 1 84
0.637116 -0.337076 0.353022 72 35 116
-0.033760 -0.398421 -0.322379 58 82 139
0.633901 -0.492567 0.349197 36 134 141
0.617424 -0.477761 0.312111 56 86 139
-0.610750 0.102548 0.389926 68 1 84
-0.083479 -0.508748 -0.254260 45 110 142
-0.551135 0.264327 0.207167 68 1 84
-0.133918 0.086158 -0.241723 59 80 138
-0.421874 0.532654 0.164864 68 1 84
-0.167843 0.381861 -0.244337 107 205 89
-0.389199 0.532711 0.043155 68 1 84
0.328937 0.583759 0.007033 68 1 84
-0.554514 0.138906 0.145607 68 1 84
-0.312410 -0.470805 -0.164522 68 1 84
0.260139 0.623748 -0.110649 68 1 84
0.357785 0.013001 -0.096610 68 1 84
0.647182 -0.378897 0.389929 69 54 129
0.016478 0.081677 -0.365751 31 147 139
-0.597259 0.002451 0.251603 68 1 84
0.653614 -0.344139 0.392841 67 59 131
-0.321671 -0.456052 -0.129236 68 1 84
-0.071998 -0.380372 -0.188435 68 1 84
-0.301352 -0.486428 -0.183538 68 1 84
0.627518 -0.096891 0.430341 68 1 84
0.098765 0.293593 -0.288236 32 164 133
-0.636389 -0.167620 0.339488 50 99 141
-0.261052 0.147169 -0.175699 72 33 114
0.642984 -0.238909 0.554399 71 24 106
-0.074972 -0.321294 -0.247791 71 40 120
0.166789 0.262787 -0.212533 47 106 141
-0.021557 -0.595598 -0.303010 100 203 93
0.034178 -0.439354 -0.319631 48 180 122
0.470345 0.273385 0.056735 68 1 84
-0.501035 0.422767 0.285929 68 1 84
0.577404 0.100687 0.305479 68 1 84
0.376103 0.344734 -0.070251 68 1 84
0.000934 -0.299843 -0.391782 31 161 135
0.025133 -0.353207 -0.355468 39 126 142
-0.594402 0.198499 0.408077 68 1 84
0.484880 0.324344 0.111910 68 1 84
-0.513082 0.158293 0.069699 68 1 84
-0.570399 0.031866 0.158348 68 1 84
0.054347 -0.501517 -0.306329 33 166 133
0.613504 -0.222480 0.215186 68 1 84
-0.193110 0.575348 -0.250310 81 196 104
-0.046647 0.401804 -0.285005 32 165 133
-0.384654 0.328749 -0.072476 68 1 84
-0.571305 0.204666 0.243818 68 1 84
0.587809 0.072171 0.384243 68 1 84
0.356145 0.183860 -0.118334 68 1 84
-0.130923 -0.071792 -0.424071 48 180 122
0.475407 0.396924 0.166667 68 1 84
-0.085344 0.006680 -0.342721 31 146 140
-0.056980 0.239476 -0.277981 31 146 140
-0.114020 -0.086736 -0.458396 159 217 56
0.385321 0.292577 -0.072849 68 1 84
0.370525 0.513232 0.027946 68 1 84
0.552888 0.232649 0.444544 68 1 84
0.470647 -0.225342 -0.032398 68 1 84
-0.578614 -0.369083 0.168054 68 1 84
0.602991 -0.108750 0.167126 68 1 84
0.497570 0.148235 0.057213 68 1 84
0.632686 -0.482588 0.345534 36 132 141
0.064648 -0.325868 -0.319931 34 139 141
-0.055145 0.396193 -0.284491 30 154 137
0.126119 0.004538 -0.311913 46 109 142
-0.466942 0.474575 0.307931 68 1 84
0.285629 0.636787 -0.001879 68 1 84
-0.617068 -0.061097 0.318682 69 53 128
0.117455 -0.100945 -0.287746 71 44 123
0.441995 0.408208 0.085854 68 1 84
-0.092107 0.548022 -0.316749 129 211 76
-0.292239 0.647896 0.029423 68 1 84
-0.302072 0.605991 -0.075472 68 1 84
0.088099 0.002396 -0.337240 65 66 134
0.418491 0.498735 0.349150 68 1 84
-0.637057 -0.475023 0.349220 54 91 140
0.228987 0.233304 -0.189405 68 1 84
-0.478155 -0.332447 0.000360 68 1 84
-0.404256 0.528199 0.079514 68 1 84
-0.387342 -0.263312 -0.079050 68 1 84
-0.387630 0.300936 -0.071881 68 1 84
-0.586799 0.053511 0.227284 68 1 84
0.111397 -0.371475 -0.181893 72 33 114
0.646585 -0.216402 0.391253 68 1 84
-0.432170 0.066446 -0.024650 68 1 84
0.031274 0.209745 -0.299394 62 188 115
0.422579 -0.384251 -0.052136 68 1 84
0.217048 0.580402 -0.204811 43 115 142
-0.640748 -0.063515 0.507794 33 142 140
-0.238229 -0.482238 -0.165080 68 1 84
-0.266175 0.071762 -0.149419 71 37 117
0.241379 0.388329 -0.179663 60 78 138
0.225562 0.128707 -0.205607 68 1 84
-0.476370 0.416379 0.141954 68 1 84
0.184923 -0.349005 -0.117156 68 1 84
-0.588814 -0.124958 0.128849 68 1 84
-0.255200 0.514091 -0.189192 34 139 141
0.508782 0.349096 0.417849 68 1 84
0.520121 -0.121955 0.006684 68 1 84
-0.015838 0.015882 -0.513706 136 213 71
-0.605922 0.084000 0.345265 69 5 88
-0.139335 0.107029 -0.247812 58 82 139
0.327060 0.032856 -0.124823 68 1 84
-0.202752 0.496238 -0.227487 41 175 127
0.461101 -0.107796 -0.039223 68 1 84
0.689509 -0.435300 0.562658 56 87 140
-0.139505 -0.112124 -0.226317 68 1 84
0.639068 -0.293127 0.340667 69 6 90
0.492749 -0.264152 -0.001285 68 1 84
-0.577675 0.168291 0.244564 68 1 84
0.491173 -0.212075 -0.017052 68 1 84
-0.591053 0.022772 0.233476 68 1 84
0.595376 -0.371514 0.202601 72 28 110
0.454924 -0.597183 -0.176651 56 86 139
0.590747 -0.337727 0.168307 71 17 99
0.617662 -0.340099 0.290528 68 2 85
0.609284 -0.347306 0.254770 68 1 84
0.545255 0.165567 0.178765 68 1 84
-0.032057 0.533213 -0.330811 126 210 78
0.350961 -0.478054 -0.166373 68 1 84
0.144071 -0.464181 -0.198650 70 14 97
0.414104 0.228507 -0.040277 68 1 84
0.223766 0.196160 -0.212542 68 1 84
0.664727 -0.312005 0.504003 67 59 131
-0.660885 -0.226981 0.536957 40 122 142
0.611529 -0.119669 0.232979 68 1 84
-0.389353 0.103626 -0.053209 68 1 84
-0.242878 0.609553 -0.183281 40 123 142
0.670406 -0.335819 0.476650 67 58 131
0.521370 -0.095370 0.013008 68 1 84
0.195893 0.127313 -0.226125 71 24 106
-0.603609 0.140026 0.491406 68 1 84
0.012348 0.158026 -0.294330 36 134 141
-0.107051 -0.456835 -0.161122 68 1 84
-0.644964 -0.206358 0.344530 55 88 140
-0.488328 0.395739 0.150295 68 1 84
-0.249893 -0.251739 -0.131570 68 1 84
-0.490868 0.423413 0.442773 68 1 84
0.086429 0.666733 -0.266353 64 67 135
0.140397 -0.291158 -0.189990 68 2 85
0.150259 -0.359921 -0.123966 68 1 84
-0.484703 0.297597 0.067228 68 1 84
-0.654317 -0.323869 0.331608 56 86 139
-0.207405 -0.397652 -0.129609 68 1 84
0.061634 0.504411 -0.314413 103 204 92
-0.410866 0.548901 0.169505 68 1 84
0.308758 0.627666 0.118118 68 1 84
0.581412 0.086786 0.553879 68 1 84
-0.328801 0.543718 -0.078556 68 1 84
0.436629 0.143175 -0.016893 68 1 84
0.195049 0.574181 -0.230575 56 87 140
-0.383809 0.307841 -0.078064 68 1 84
0.641401 -0.143386 0.458045 68 1 84
0.221442 -0.429441 -0.109277 68 1 84
0.229717 0.300870 -0.171971 68 1 84
0.482848 0.225718 0.059100 68 1 84
0.003701 -0.540240 -0.307783 87 198 101
-0.546777 -0.231680 0.054410 71 37 117
0.629570 -0.132190 0.388302 68 1 84
0.048293 0.669519 -0.275157 58 83 139
0.454732 0.355819 0.070323 68 1 84
-0.653750 -0.310368 0.459503 49 101 141
-0.532540 0.115153 0.090268 68 1 84
-0.257606 -0.233509 -0.131881 68 1 84
0.542018 0.266393 0.269580 68 1 84
0.357126 -0.504028 -0.196025 68 1 84
0.153526 0.671904 -0.210651 71 20 102
-0.518498 -0.507043 0.022147 68 1 84
-0.007811 0.011817 -0.513989 144 214 67
-0.197494 0.181212 -0.225419 43 116 142
-0.583570 0.034241 0.207392 68 1 84
0.174552 -0.370591 -0.107957 68 1 84
0.646323 -0.173979 0.427185 68 1 84
0.398102 0.538647 0.155971 68 1 84
0.669985 -0.369027 0.498324 68 57 130
0.087212 0.066726 -0.298326 53 93 140
-0.441388 -0.270390 -0.043302 68 1 84
0.294226 0.093007 -0.152381 68 1 84
0.476336 0.427878 0.263935 68 1 84
-0.127194 -0.593920 -0.283215 89 199 100
-0.216724 -0.161815 -0.152796 68 1 84
0.613693 -0.030431 0.526763 68 1 84
-0.228443 -0.473266 -0.145522 68 1 84
-0.577897 -0.073309 0.119450 68 1 84
-0.676880 -0.437431 0.472743 30 156 137
-0.613460 0.109342 0.437823 68 1 84
0.607932 -0.042513 0.384068 68 1 84
-0.372628 0.172789 -0.079995 68 1 84
0.639529 -0.198052 0.354134 68 1 84
-0.084084 0.023932 -0.301760 59 80 138
-0.475565 0.463876 0.277765 68 1 84
0.057599 0.246124 -0.279342 41 175 127
0.463706 0.268306 0.045690 68 1 84
-0.122672 0.035205 -0.246353 53 92 140
-0.113752 -0.597010 -0.286368 141 214 68
0.108676 -0.374092 -0.188232 70 14 97
-0.218427 -0.109133 -0.158614 68 1 84
-0.588097 0.046930 0.230246 68 1 84
0.258626 -0.569201 -0.253100 56 86 139
0.323566 0.552386 -0.044348 68 1 84
0.477008 0.189337 0.040625 68 1 84
-0.451246 -0.456849 -0.107661 68 1 84
0.427726 0.168641 -0.026662 68 1 84
-0.516390 0.330268 0.160408 68 1 84
0.218873 -0.554564 -0.261098 59 81 138
-0.079518 0.524054 -0.319211 162 218 55
0.431562 0.496874 0.274590 68 1 84
0.029083 -0.114049 -0.450227 62 188 115
-0.307544 0.258704 -0.162844 68 55 129
0.398061 0.534591 0.289428 68 1 84
-0.621690 -0.415859 0.305109 72 33 114
-0.333311 0.092195 -0.103441 68 1 84
-0.511214 -0.441437 -0.019839 68 1 84
-0.145045 0.496733 -0.267528 126 210 78
0.517652 0.161556 0.096734 68 1 84
-0.660837 -0.358624 0.463180 39 124 142
-0.064673 0.542927 -0.327055 157 217 58
0.087341 -0.567584 -0.298425 81 196 104
0.668921 -0.485772 0.459091 33 140 141
