ply
format ascii 1.0
element vertex 1251
property float x
property float y
property float z
property uchar red
property uchar green
property uchar blue
end_header
0.311966 -0.435843 -0.299601 65 66 134
0.561684 0.154144 0.091381 56 86 139
-0.605596 -0.428613 0.079502 36 132 141
0.305940 0.002733 -0.185373 68 1 84
0.601418 0.001873 0.112793 45 111 142
0.296386 0.257534 -0.147191 68 1 84
0.652505 -0.286614 0.296239 94 201 97
0.506564 0.353704 0.428194 35 168 131
0.562550 0.174856 0.517773 162 218 55
-0.455533 0.243521 0.004893 67 59 131
0.089533 -0.367855 -0.316196 69 6 90
-0.568948 -0.447973 0.001669 43 115 142
0.656947 -0.336594 0.459859 202 224 30
0.421152 -0.510117 -0.253143 52 95 141
0.525601 -0.126747 -0.029604 45 110 142
-0.592861 0.067010 0.487311 83 197 103
-0.526864 0.227615 0.088897 71 43 122
0.414938 -0.314191 -0.129873 51 96 141
0.102205 -0.236047 -0.255884 68 1 84
0.064658 0.364389 -0.231602 68 1 84
0.431000 0.168936 -0.068572 70 45 124
-0.177021 0.049028 -0.206257 68 1 84
0.117324 -0.013286 -0.362987 68 1 84
0.634243 -0.021795 0.214318 31 163 134
-0.690932 -0.453264 0.395608 33 140 141
0.398858 0.494084 0.175347 57 84 139
0.508426 0.309803 0.108501 62 73 137
-0.576230 -0.280870 0.033472 54 91 140
0.642687 -0.464727 0.233451 77 194 107
0.633257 -0.379680 0.194290 42 176 126
0.562162 -0.088119 0.023611 45 111 142
-0.608101 0.092897 0.202480 39 125 142
0.519003 0.262482 0.085838 68 55 129
0.569622 0.206420 0.461236 64 189 114
0.554232 -0.450569 -0.015817 30 158 136
0.651343 -0.310166 0.404876 154 216 60
-0.135616 -0.089774 -0.338056 68 1 84
0.437930 -0.272339 -0.102698 42 118 142
-0.661581 -0.281199 0.232107 37 131 141
-0.626967 -0.122286 0.153555 40 122 142
-0.052630 -0.149684 -0.386611 68 1 84
0.054822 0.274470 -0.254652 68 1 84
-0.666933 -0.245803 0.361942 30 152 138
-0.561184 0.170488 0.516898 75 194 108
0.178700 0.258199 -0.190576 68 1 84
-0.278940 0.462435 -0.069721 69 5 88
-0.677211 -0.225732 0.469160 73 193 109
0.654487 -0.231838 0.262420 85 198 102
-0.164529 0.294677 -0.188437 68 1 84
0.522374 -0.136374 -0.033954 50 98 141
-0.648050 -0.351761 0.169053 38 128 142
-0.039336 0.658895 -0.091746 68 1 84
0.054624 -0.367401 -0.328012 70 12 95
-0.424396 -0.330793 -0.148299 70 48 125
0.603287 0.160085 0.359782 31 161 135
-0.317678 -0.323316 -0.205056 68 2 85
-0.539562 0.291739 0.447425 30 154 137
0.583399 -0.333264 0.058743 32 144 140
-0.031687 0.011064 -0.459273 68 1 84
0.106587 -0.216646 -0.261175 68 1 84
0.592964 0.047850 0.108896 38 128 142
0.564925 -0.445975 0.007792 43 177 125
0.149951 0.428373 -0.167509 68 1 84
0.107466 -0.134151 -0.294224 68 1 84
0.521178 -0.126414 -0.035165 49 101 141
-0.370823 -0.124216 -0.155416 72 34 115
-0.389776 -0.044023 -0.146982 69 8 91
-0.307144 -0.080203 -0.179338 70 12 95
0.358222 0.268184 -0.098088 68 1 84
-0.599192 -0.020434 0.112254 46 108 142
-0.632117 0.010156 0.349067 30 157 136
0.060240 -0.326932 -0.294511 68 1 84
0.546329 0.294859 0.179569 41 120 142
-0.580347 -0.249353 0.041309 46 108 142
0.139263 -0.225388 -0.224507 72 32 113
-0.117374 -0.232760 -0.249571 68 1 84
-0.370548 0.043267 -0.151016 68 1 84
0.531780 0.285049 0.132684 55 89 140
0.268213 -0.391838 -0.289816 71 40 120
-0.192118 0.620362 -0.016131 68 1 84
-0.690060 -0.501109 0.353575 30 153 138
0.524044 -0.018889 -0.018895 58 82 139
-0.067134 0.509218 -0.202652 68 1 84
-0.136574 -0.074138 -0.352748 68 1 84
-0.605135 -0.036950 0.121867 45 110 142
-0.148918 0.554268 -0.161260 68 1 84
0.310943 -0.219345 -0.186843 71 40 120
0.449418 -0.199110 -0.102712 57 84 139
-0.650681 -0.305382 0.167868 44 112 142
0.000535 -0.451339 -0.367203 68 1 84
-0.536153 0.215009 0.096790 69 53 128
-0.582328 0.130569 0.473600 51 182 121
0.645550 -0.560606 0.261129 124 210 79
-0.600198 -0.290595 0.076637 42 117 142
0.037106 0.547802 -0.199626 70 11 94
-0.118366 -0.405467 -0.345761 68 1 84
0.606092 0.088880 0.163921 33 140 141
-0.666578 -0.277695 0.439513 38 172 129
-0.596641 -0.496077 0.047342 40 122 142
0.540967 0.188138 0.069966 56 86 139
-0.078329 0.067436 -0.297538 68 1 84
-0.384146 -0.148877 -0.149935 71 42 121
-0.489467 0.388361 0.249235 50 98 141
-0.516606 0.336712 0.205809 57 85 139
-0.701620 -0.570496 0.426921 31 148 139
0.052366 0.043583 -0.363852 68 1 84
-0.593837 -0.306760 0.064078 53 93 140
0.496437 -0.062605 -0.056472 64 68 135
-0.575179 0.130101 0.122827 57 85 139
-0.527628 -0.116162 -0.032788 60 78 138
0.658203 -0.270252 0.341673 105 204 91
0.539236 0.301057 0.424363 34 167 132
-0.141608 -0.200389 -0.234712 68 1 84
0.223424 0.602723 -0.068239 68 1 84
-0.256993 0.037694 -0.185969 68 1 84
0.526751 0.129827 0.021850 52 94 141
-0.219070 -0.047559 -0.200252 68 1 84
0.023340 0.532252 -0.202981 68 1 84
0.485381 0.397934 0.189850 46 107 142
-0.459082 0.298680 0.043718 64 68 135
-0.176942 0.010424 -0.331563 68 1 84
0.433011 0.423376 0.095621 68 57 130
0.028180 -0.126323 -0.387552 68 1 84
-0.314875 0.205200 -0.136136 68 1 84
-0.658186 -0.217010 0.241845 34 139 141
0.569865 0.275737 0.264405 34 139 141
-0.457201 -0.494689 -0.229754 67 58 131
-0.665129 -0.239271 0.373935 31 149 139
-0.533641 -0.296841 -0.026779 57 85 139
-0.048071 -0.124420 -0.399730 68 1 84
-0.451202 0.024174 -0.092107 69 52 127
0.659613 -0.523803 0.332137 159 217 56
-0.037676 -0.094724 -0.420744 68 1 84
-0.118445 -0.377007 -0.311945 68 1 84
-0.451061 -0.407470 -0.208417 72 29 111
0.484991 -0.128901 -0.074238 52 95 141
0.550952 -0.270674 0.005196 35 137 141
-0.141635 -0.185123 -0.242538 68 1 84
0.609166 0.126611 0.199037 39 126 142
-0.642374 -0.104910 0.493801 51 182 121
0.047916 -0.440239 -0.365840 68 1 84
-0.430684 -0.159484 -0.125037 70 48 125
-0.142266 -0.001676 -0.400029 68 1 84
0.504134 0.386845 0.252417 40 122 142
0.174703 -0.263059 -0.197092 71 20 102
-0.226737 0.591930 -0.025508 68 1 84
-0.703636 -0.528450 0.442303 30 153 138
0.581336 0.229437 0.379118 36 170 130
-0.618981 -0.446099 0.102408 44 113 142
-0.640648 -0.374220 0.149788 37 131 141
0.201342 0.572728 -0.127127 68 1 84
0.193209 0.330102 -0.175270 68 1 84
0.033169 -0.437643 -0.365570 68 1 84
0.302281 0.256003 -0.145298 68 1 84
0.637801 -0.255366 0.178335 38 172 129
0.543432 0.195702 0.078820 57 84 139
-0.389070 -0.098526 -0.146802 68 55 129
0.213601 -0.359014 -0.264483 72 34 115
-0.295873 0.538898 0.028066 68 1 84
0.296486 -0.116558 -0.179606 68 1 84
0.652506 -0.410121 0.321037 136 213 71
-0.047000 0.481872 -0.202795 68 1 84
-0.481063 0.266378 0.049573 69 54 129
0.464883 -0.394351 -0.166710 41 120 142
0.052522 0.599711 -0.171682 71 15 98
0.439586 -0.043608 -0.108113 71 24 106
-0.449153 -0.269880 -0.094425 65 65 134
0.340639 0.465614 -0.020899 68 1 84
0.497193 -0.374019 -0.100876 36 134 141
0.563181 0.072180 0.058731 49 102 141
0.433260 0.458203 0.184248 53 92 140
-0.436980 0.432943 0.177126 56 86 139
-0.046994 0.347393 -0.249920 68 1 84
0.413928 0.479514 0.270148 43 116 142
0.483196 0.289718 0.048261 64 67 135
0.056533 0.482286 -0.206016 70 9 92
-0.002605 -0.442700 -0.366100 68 1 84
-0.656749 -0.189343 0.250552 32 143 140
-0.309877 0.372494 -0.082094 71 44 123
-0.641446 -0.448656 0.158624 39 125 142
-0.201537 0.613272 0.004634 68 1 84
-0.224595 0.602670 0.053659 71 20 102
-0.642043 -0.119362 0.205545 34 139 141
0.516895 -0.342495 -0.047605 33 141 140
0.650684 -0.500761 0.283625 139 213 70
0.265107 -0.327767 -0.201838 68 57 130
-0.506586 -0.504282 -0.150180 68 55 129
0.614311 -0.423972 0.144826 56 185 118
-0.665895 -0.318067 0.395544 36 133 141
-0.480570 0.187388 -0.000720 72 33 114
-0.414841 0.427388 0.102547 71 37 117
0.508154 -0.117591 -0.049892 48 103 141
0.415359 -0.307255 -0.127608 51 96 141
0.198218 0.194683 -0.224880 68 1 84
-0.127277 -0.335855 -0.242833 68 1 84
-0.502483 0.368860 0.397225 39 124 142
-0.177765 -0.016783 -0.300016 68 1 84
0.250680 0.549328 -0.086106 68 1 84
0.148091 0.020092 -0.319307 68 1 84
0.609208 -0.065715 0.118411 30 151 138
-0.696660 -0.455405 0.479674 44 177 125
-0.281996 -0.162288 -0.181295 72 33 114
0.391419 -0.062463 -0.142373 71 20 102
-0.044080 0.372012 -0.204578 68 1 84
0.648424 -0.422951 0.290321 89 199 100
-0.203095 0.608560 -0.052805 68 1 84
0.605001 -0.519491 0.102693 66 190 113
0.473069 0.232896 -0.000192 71 42 121
-0.109914 -0.301518 -0.233482 68 2 85
0.576915 -0.225950 0.043804 32 143 140
0.055223 0.361360 -0.238638 68 1 84
0.461071 0.254317 -0.002363 69 52 127
0.351812 0.229700 -0.113163 68 1 84
-0.618923 0.076680 0.361367 31 163 134
-0.453668 0.294874 0.034353 65 65 134
-0.085212 0.571251 -0.185792 68 1 84
0.233209 -0.389701 -0.287882 72 35 116
-0.641678 -0.431389 0.160255 39 125 142
0.653307 -0.199417 0.410207 149 215 63
0.464572 0.431852 0.301107 33 142 140
0.150287 0.089316 -0.236537 68 1 84
-0.670646 -0.490866 0.266009 33 141 140
-0.263100 0.211638 -0.178512 68 1 84
-0.528167 -0.420321 -0.095160 52 94 141
-0.434603 0.418063 0.134361 67 60 132
0.474144 0.421965 0.304026 32 143 140
-0.566442 -0.428259 -0.001173 46 108 142
-0.646106 -0.259093 0.180101 38 129 142
0.166101 0.141467 -0.240978 68 1 84
0.648430 -0.467651 0.274681 112 206 86
0.635540 -0.242994 0.168690 36 170 130
-0.340379 0.029299 -0.167355 68 1 84
0.667695 -0.584993 0.412100 105 204 91
-0.670329 -0.290575 0.298874 37 130 142
0.420959 0.140580 -0.087608 68 55 129
-0.668402 -0.339455 0.360492 30 156 137
0.152004 0.022543 -0.305694 68 1 84
0.469646 -0.365256 -0.132727 38 128 142
0.372348 0.303535 -0.075256 68 1 84
0.170855 -0.015229 -0.228724 68 1 84
-0.220543 0.532901 -0.108486 68 1 84
0.093440 -0.017727 -0.392243 68 1 84
-0.687002 -0.412472 0.416920 30 158 136
0.479300 0.357861 0.097510 64 67 135
0.364890 0.512430 0.084886 69 54 129
-0.638553 -0.103231 0.197839 38 129 142
0.340712 0.437656 -0.037912 68 1 84
-0.480474 0.388694 0.422800 30 151 138
-0.315705 0.280178 -0.110473 68 1 84
-0.606995 -0.462716 0.076711 41 121 142
0.010147 -0.128505 -0.396135 68 1 84
0.591500 0.135440 0.147717 43 115 142
-0.173839 0.181879 -0.244398 68 1 84
0.114673 -0.293479 -0.223242 71 20 102
0.653868 -0.269696 0.301566 103 204 92
0.201352 0.427808 -0.145380 68 1 84
-0.270497 0.178577 -0.179002 68 1 84
-0.003643 0.488034 -0.204955 68 3 87
-0.213470 -0.086825 -0.201989 68 1 84
-0.294734 -0.309027 -0.198101 68 2 85
0.287874 0.327382 -0.122983 68 1 84
-0.235767 0.366508 -0.127999 68 1 84
0.619968 -0.044957 0.455494 129 211 76
-0.547523 -0.054752 0.007205 54 90 140
0.380161 0.506505 0.118279 63 71 136
-0.308345 0.550457 0.177535 64 67 135
0.518910 0.325289 0.152103 48 104 141
0.537156 -0.420933 -0.053480 32 145 140
0.657614 -0.205020 0.331622 100 203 93
0.147357 0.139705 -0.251148 68 1 84
0.198544 0.626587 -0.054066 71 24 106
-0.605492 -0.122535 0.098352 48 104 141
0.654332 -0.416614 0.329657 146 215 65
-0.200673 0.438776 -0.134402 71 20 102
0.450669 -0.494759 -0.226978 53 92 140
-0.668240 -0.310376 0.344600 33 140 141
0.513239 -0.406057 -0.104292 37 131 141
-0.271592 0.563252 0.017788 70 9 92
-0.305832 0.543473 0.068143 72 33 114
0.189310 -0.160016 -0.212120 71 22 105
-0.614208 -0.400557 0.094363 37 131 141
0.150271 0.412940 -0.168191 68 1 84
0.239760 0.284513 -0.138518 68 1 84
-0.145586 0.365185 -0.178123 68 1 84
-0.201968 0.307639 -0.154471 68 1 84
0.653492 -0.140564 0.299785 85 198 102
0.654818 -0.207280 0.259371 57 185 118
-0.162547 -0.046206 -0.311092 68 1 84
-0.657577 -0.178222 0.426724 30 158 136
-0.379888 0.053667 -0.143138 71 18 101
-0.584027 0.194970 0.398064 30 153 138
-0.346088 -0.105405 -0.163673 70 48 125
0.651290 -0.281209 0.405223 141 214 68
-0.534973 -0.420995 -0.080028 50 99 141
0.016634 -0.403447 -0.356934 68 1 84
-0.324309 -0.095569 -0.171471 72 25 107
0.650576 -0.405748 0.303271 144 214 67
-0.098729 0.036697 -0.338997 68 1 84
-0.061266 0.210145 -0.303230 68 1 84
-0.619741 0.047366 0.234409 38 128 142
-0.489808 0.124421 -0.017134 57 84 139
0.520863 0.274731 0.099753 59 80 138
-0.204426 0.347692 -0.146927 68 1 84
0.501651 0.243280 0.043892 72 29 111
0.149022 0.643421 -0.079007 68 2 85
0.044246 0.370060 -0.210897 68 1 84
0.011128 -0.200214 -0.368906 68 1 84
0.147165 -0.417746 -0.352039 68 1 84
-0.081061 0.441791 -0.183640 68 1 84
-0.124392 -0.194378 -0.272374 68 1 84
-0.302003 0.316147 -0.106804 68 1 84
0.611764 -0.453772 0.134346 71 192 110
0.604686 0.062432 0.447106 85 198 102
0.625815 -0.541835 0.162254 96 201 96
-0.266848 -0.169666 -0.185033 70 12 95
-0.091673 0.600226 -0.165328 68 1 84
0.526335 -0.372265 -0.051218 33 140 141
-0.142648 0.351028 -0.190689 68 1 84
0.630913 -0.122002 0.453240 167 219 51
0.179710 -0.143183 -0.219238 68 1 84
0.518488 -0.054784 -0.031997 55 88 140
0.026895 -0.332211 -0.320368 68 1 84
-0.496665 0.101613 -0.017103 60 77 138
-0.370950 0.433278 0.034786 72 32 113
0.031023 -0.263451 -0.327352 68 1 84
-0.418337 0.193659 -0.059454 71 21 103
-0.348150 0.000086 -0.167373 68 2 85
-0.632094 0.005068 0.295610 30 151 138
-0.677693 -0.332951 0.449680 41 175 127
0.612601 0.072178 0.180882 32 144 140
-0.460047 0.345360 0.085464 70 48 125
0.177543 -0.282810 -0.191179 70 47 124
-0.481562 0.395370 0.384659 33 140 141
0.420464 0.258772 -0.042548 70 12 95
-0.639619 -0.336413 0.141545 37 130 142
0.612119 -0.523185 0.123255 75 194 108
0.652795 -0.136407 0.278766 61 187 116
-0.100462 0.058715 -0.407983 68 1 84
-0.679695 -0.366180 0.418920 30 156 137
0.636880 -0.105105 0.191690 31 163 134
-0.193055 0.151811 -0.225315 68 1 84
-0.076189 -0.326341 -0.287706 68 1 84
0.123076 -0.236522 -0.233202 68 1 84
-0.560697 -0.491024 -0.024290 48 104 141
0.672025 -0.495170 0.459467 212 225 26
-0.676390 -0.471015 0.299738 31 147 139
0.291496 -0.428049 -0.301283 71 44 123
0.160778 -0.073876 -0.240024 68 1 84
-0.175759 0.030321 -0.323850 68 1 84
-0.495617 0.367207 0.200569 54 90 140
-0.134260 -0.314109 -0.212821 68 3 87
-0.239687 0.595627 0.084583 72 29 111
-0.249645 -0.067312 -0.193195 68 1 84
-0.556356 0.263181 0.420031 33 140 141
-0.295917 0.372213 -0.092397 72 26 108
0.461588 0.434056 0.308003 35 136 141
0.477875 -0.152622 -0.081963 58 83 139
0.583962 -0.434292 0.052245 33 166 133
-0.668359 -0.442705 0.272346 32 143 140
0.126923 -0.169623 -0.256633 68 1 84
0.030984 -0.032290 -0.438932 68 1 84
-0.684470 -0.410077 0.398784 30 153 138
0.565771 0.240065 0.167864 44 112 142
0.294472 -0.013432 -0.189899 68 1 84
-0.275464 -0.345755 -0.266045 72 30 112
-0.089315 0.484119 -0.193611 68 1 84
-0.028963 0.070675 -0.436811 68 1 84
0.495377 0.227527 0.025406 65 65 134
0.097521 -0.381002 -0.329573 68 1 84
-0.513060 -0.457667 -0.139852 56 87 140
-0.396824 -0.488757 -0.289058 57 85 139
0.556831 -0.098091 0.014479 41 120 142
-0.446040 0.353648 0.072044 71 20 102
0.082040 0.253209 -0.263112 68 1 84
0.539068 0.112857 0.033490 55 88 140
-0.303603 0.554761 0.136724 71 40 120
0.441130 -0.092148 -0.108373 70 49 126
0.172700 0.083145 -0.224695 68 1 84
0.593595 -0.095877 0.079238 41 120 142
-0.526004 0.333841 0.390133 40 123 142
-0.164868 -0.206427 -0.211026 71 15 98
-0.283558 0.567787 0.151576 70 49 126
0.568776 0.267596 0.218890 41 120 142
0.632409 -0.143229 0.522245 189 222 38
-0.296939 0.435966 -0.062928 72 33 114
0.546662 -0.458570 -0.033667 30 151 138
-0.159517 0.404529 -0.156051 68 1 84
-0.173914 0.271906 -0.181386 68 1 84
0.652756 -0.266826 0.422094 167 219 51
-0.656541 -0.176863 0.394383 38 127 142
0.010735 0.523578 -0.203561 70 9 92
0.219244 -0.235447 -0.199515 72 30 112
-0.059804 0.644952 -0.123238 68 1 84
-0.124270 -0.371394 -0.298391 68 1 84
-0.654272 -0.494219 0.194807 40 123 142
-0.484836 0.389233 0.222397 50 98 141
-0.552072 0.207854 0.517153 81 196 104
-0.675409 -0.204560 0.470811 69 191 111
-0.520914 0.293193 0.144363 59 81 138
0.340621 0.165874 -0.139805 68 1 84
-0.214992 -0.045196 -0.201027 68 1 84
-0.410067 0.468099 0.232547 56 86 139
0.603765 0.171901 0.335552 31 161 135
0.633343 -0.089384 0.425238 91 200 98
0.620940 0.035484 0.401659 59 186 117
0.643523 -0.512618 0.240191 139 213 70
-0.660674 -0.506773 0.217582 33 142 140
0.585082 0.005098 0.078806 46 107 142
-0.280433 -0.247616 -0.203772 68 1 84
-0.089835 -0.272357 -0.273971 68 1 84
-0.189332 -0.306764 -0.187208 69 8 91
0.046816 -0.227306 -0.333590 68 1 84
0.088576 -0.021705 -0.396659 68 1 84
-0.382229 -0.232633 -0.153175 71 38 118
-0.152326 -0.229958 -0.210071 71 38 118
0.447106 0.450275 0.223585 47 106 141
-0.606892 0.125952 0.374017 31 163 134
0.654148 -0.168444 0.260721 51 182 121
-0.332040 0.387664 -0.054512 71 37 117
0.662508 -0.459434 0.376804 210 225 27
0.118816 0.052471 -0.298490 68 1 84
-0.533073 0.264699 0.138608 60 78 138
0.662956 -0.448046 0.387404 189 222 38
0.633951 -0.086740 0.186725 33 166 133
0.000208 -0.204506 -0.369271 68 1 84
0.509993 0.355671 0.405856 31 163 134
-0.697993 -0.554640 0.384305 30 153 138
0.656611 -0.196840 0.375075 114 207 85
-0.483167 -0.013791 -0.067509 65 65 134
-0.067305 -0.150155 -0.380231 68 1 84
0.311257 0.053744 -0.178451 71 24 106
0.609422 0.159158 0.272913 31 146 140
-0.487339 0.284965 0.072685 64 67 135
-0.064070 -0.152026 -0.380771 68 1 84
-0.513471 0.347259 0.424881 33 142 140
-0.111631 0.054187 -0.371469 68 1 84
0.519929 0.101381 0.003439 51 96 141
0.067135 0.273746 -0.250972 68 1 84
-0.541826 0.313256 0.281196 42 119 142
0.632765 -0.124861 0.446219 159 217 56
-0.176464 0.209006 -0.242704 68 1 84
-0.450691 0.034023 -0.090068 70 45 124
-0.432896 0.046289 -0.103575 71 38 118
0.648732 -0.107007 0.327516 87 198 101
0.572248 0.133179 0.100996 45 110 142
0.325638 -0.043340 -0.178247 68 1 84
0.049807 0.056471 -0.403717 68 1 84
-0.145967 -0.083899 -0.317240 68 1 84
0.574075 0.156632 0.494519 141 214 68
0.263579 0.087837 -0.190163 69 5 88
0.024758 0.519845 -0.204606 68 3 87
0.260090 0.046954 -0.194555 68 1 84
-0.061888 -0.144865 -0.384830 68 1 84
0.521106 0.048729 -0.007008 53 93 140
-0.553504 0.175224 0.535739 119 208 82
0.001275 0.162903 -0.295533 68 1 84
-0.423916 -0.254945 -0.117597 71 17 99
0.629203 0.001340 0.203251 32 145 140
0.654174 -0.416879 0.327848 144 214 67
-0.097984 0.058291 -0.412028 68 1 84
-0.469252 0.401647 0.418122 32 144 140
-0.057678 -0.425471 -0.361813 68 1 84
0.532650 0.302016 0.450576 47 179 123
0.037501 0.034103 -0.437313 68 1 84
-0.064116 0.072808 -0.323339 68 1 84
0.195263 0.510739 -0.153732 68 1 84
-0.044155 0.003018 -0.458771 68 1 84
-0.573839 0.002528 0.064989 63 71 136
-0.269648 -0.155684 -0.183330 68 1 84
-0.180464 0.428759 -0.146020 68 2 85
-0.138692 -0.024643 -0.397068 68 1 84
0.619361 -0.225394 0.125062 30 157 136
0.598532 -0.488445 0.085724 69 191 111
-0.608382 -0.198895 0.088555 46 109 142
0.655935 -0.324508 0.465558 191 223 36
0.613274 -0.078046 0.127343 30 153 138
0.417795 0.473140 0.172120 56 87 140
-0.073320 -0.047707 -0.438377 68 1 84
-0.181066 -0.321372 -0.192048 68 1 84
-0.652175 -0.442153 0.198616 35 137 141
0.213692 -0.171542 -0.200630 69 5 88
0.541059 -0.464862 -0.047275 30 153 138
-0.536318 -0.173999 -0.024341 57 84 139
0.370590 -0.402198 -0.256824 62 73 137
-0.396438 0.155731 -0.095003 69 5 88
-0.206578 0.054611 -0.193903 68 1 84
0.656867 -0.220871 0.412942 170 219 50
0.506093 -0.095655 -0.050266 52 95 141
0.016084 0.602459 -0.169403 72 25 107
-0.617529 -0.004795 0.166216 51 96 141
-0.486953 -0.043153 -0.069237 67 58 131
0.553182 -0.171842 0.006626 42 118 142
-0.274423 0.487830 -0.064751 71 17 99
0.560531 0.291252 0.341177 30 153 138
0.607221 0.000945 0.487760 181 221 43
-0.575977 0.173360 0.160610 42 118 142
0.621337 -0.514182 0.149165 85 198 102
0.210202 0.444420 -0.141354 68 1 84
-0.214657 0.576844 -0.087594 68 1 84
0.229261 -0.438206 -0.337693 72 30 112
-0.613702 -0.242769 0.095836 46 109 142
0.141276 0.022020 -0.332656 68 1 84
0.652405 -0.354247 0.241469 77 194 107
0.301333 -0.001776 -0.187211 68 1 84
0.494653 -0.169712 -0.065323 50 98 141
0.116615 0.073086 -0.256321 68 1 84
0.274074 0.096506 -0.186542 68 1 84
-0.029016 -0.362256 -0.332623 68 1 84
0.220396 -0.332580 -0.211311 70 49 126
0.117949 0.588423 -0.170981 68 1 84
0.661370 -0.550783 0.342749 124 210 79
0.293975 -0.508036 -0.336907 72 28 110
0.545007 -0.425346 -0.034178 30 155 137
-0.701174 -0.532424 0.412058 30 152 138
0.642977 -0.075864 0.236250 38 172 129
-0.457733 0.367482 0.103191 72 32 113
-0.595798 0.184483 0.311009 31 149 139
0.325823 0.544364 0.048546 69 54 129
0.622983 0.044362 0.209356 30 151 138
0.649063 -0.147560 0.226196 41 175 127
-0.645443 -0.185496 0.186697 36 133 141
0.212715 0.490395 -0.143637 68 1 84
-0.254623 -0.447221 -0.332588 72 30 112
-0.429021 -0.294194 -0.113437 71 38 118
-0.446773 -0.459498 -0.239681 63 69 135
-0.673209 -0.415021 0.311689 33 142 140
-0.210628 -0.459599 -0.354497 68 1 84
0.475028 0.373506 0.108572 59 81 138
0.334855 0.417654 -0.055824 68 1 84
0.472603 -0.512714 -0.194730 49 100 141
-0.311983 0.359329 -0.085301 72 35 116
-0.009893 0.469206 -0.202348 68 1 84
-0.661932 -0.193268 0.362371 30 158 136
0.575625 0.183068 0.463333 85 198 102
-0.177814 -0.169736 -0.212925 70 14 97
-0.036530 0.063460 -0.442536 68 1 84
0.667308 -0.460599 0.425379 202 224 30
-0.518067 -0.121785 -0.045571 58 83 139
0.651236 -0.388425 0.283339 100 203 93
0.356861 0.340531 -0.074009 68 1 84
-0.380410 0.298392 -0.045327 72 32 113
0.381535 0.194743 -0.099691 68 1 84
0.039597 0.564413 -0.193038 69 8 91
0.522393 0.327397 0.162772 43 116 142
0.217587 0.362464 -0.148110 68 1 84
-0.069068 0.386833 -0.187792 68 1 84
-0.583866 -0.517378 0.018851 40 122 142
0.502341 0.387287 0.238314 41 120 142
0.114492 0.285187 -0.234622 68 1 84
0.609702 0.150128 0.334099 30 160 135
-0.169835 0.537437 -0.151232 68 1 84
-0.352092 0.178879 -0.114387 68 1 84
-0.601595 0.145288 0.235666 37 130 142
0.127349 -0.033021 -0.331531 68 1 84
0.282564 -0.397785 -0.289425 65 66 134
0.493065 -0.293089 -0.053173 43 116 142
-0.639864 -0.033911 0.320474 30 151 138
0.341044 0.408577 -0.054505 68 1 84
-0.386017 0.332497 -0.020704 71 44 123
-0.668431 -0.338516 0.357668 30 157 136
0.186724 -0.315281 -0.185876 72 25 107
0.099209 -0.301851 -0.243119 68 1 84
0.539891 0.333902 0.278616 35 137 141
0.618277 -0.175603 0.122949 30 157 136
0.457258 -0.039389 -0.092486 71 38 118
-0.266258 0.484777 -0.075386 68 3 87
0.295080 0.285871 -0.132930 68 1 84
0.076668 0.035619 -0.395345 68 1 84
-0.491973 0.145366 -0.006509 69 54 129
-0.491110 0.247217 0.049018 69 50 127
0.625522 0.038453 0.218909 33 140 141
-0.211244 -0.338139 -0.222978 68 1 84
-0.428582 0.357221 0.049659 71 40 120
-0.033189 -0.309109 -0.323284 71 17 99
-0.242436 0.234247 -0.175282 68 1 84
0.367306 0.199472 -0.108893 68 1 84
-0.666152 -0.405367 0.271958 33 142 140
0.564417 -0.020473 0.035113 46 107 142
-0.495830 0.368780 0.205738 53 93 140
-0.396569 0.103818 -0.116196 68 1 84
0.584062 0.098518 0.504909 131 211 75
0.655056 -0.217849 0.446531 159 217 56
-0.590859 -0.223041 0.059710 47 105 141
-0.498723 0.150538 0.003632 67 58 131
0.619745 -0.219633 0.125357 32 164 133
-0.364039 -0.194076 -0.157179 72 34 115
-0.332678 -0.486823 -0.318813 66 64 133
0.350530 0.531562 0.097549 61 74 137
0.564367 0.283689 0.237946 39 124 142
0.617649 0.122361 0.256730 34 138 141
-0.347403 -0.330781 -0.213581 71 22 105
0.082720 0.194271 -0.294327 68 1 84
-0.620425 -0.023917 0.168054 46 107 142
0.092416 0.511485 -0.203197 68 1 84
-0.663266 -0.193882 0.439113 37 171 129
0.235297 0.408971 -0.128444 68 1 84
0.275878 0.391993 -0.109056 68 1 84
-0.228993 0.457815 -0.113298 72 25 107
0.494893 0.384658 0.373215 30 153 138
-0.116629 -0.088617 -0.372571 68 1 84
-0.665684 -0.438777 0.260513 35 136 141
-0.414367 -0.037476 -0.131439 71 15 98
-0.291671 -0.477656 -0.333320 71 40 120
0.629031 0.007564 0.389732 47 179 123
-0.664955 -0.366223 0.277827 42 119 142
-0.044766 -0.440371 -0.365167 68 1 84
0.117417 0.643831 -0.102658 68 1 84
0.562213 0.125371 0.078031 47 106 141
-0.264664 -0.344095 -0.229613 68 1 84
0.657831 -0.228743 0.468219 162 218 55
-0.552708 0.284387 0.383647 31 146 140
-0.020354 -0.326666 -0.326581 71 18 101
-0.486421 0.096131 -0.031144 65 65 134
0.127627 0.264946 -0.228013 68 1 84
0.422579 0.452382 0.118989 53 93 140
0.608028 0.087316 0.170368 34 139 141
0.576896 -0.023534 0.054960 49 100 141
-0.373156 0.169599 -0.104973 68 1 84
-0.167118 -0.018564 -0.342362 68 1 84
0.241595 0.197338 -0.200225 68 1 84
0.352198 -0.365427 -0.250397 71 40 120
-0.457509 0.226990 -0.003174 70 47 124
0.394947 0.463923 0.066789 70 14 97
-0.556964 -0.235840 0.002853 46 108 142
0.542492 0.309877 0.392099 33 166 133
-0.048798 0.029150 -0.455384 68 1 84
0.615808 -0.278619 0.122701 31 161 135
-0.637417 -0.049605 0.394343 47 179 123
0.184126 0.218991 -0.228378 68 1 84
-0.366740 0.325753 -0.045386 72 26 108
0.035046 0.039317 -0.334840 68 1 84
0.639986 -0.193792 0.177293 38 172 129
-0.158902 -0.144652 -0.233307 68 1 84
0.154360 -0.006549 -0.275128 68 1 84
0.104640 -0.173788 -0.282137 68 1 84
0.227778 0.017152 -0.203924 68 1 84
0.222546 -0.389575 -0.287842 72 25 107
-0.001425 0.268953 -0.276391 68 1 84
-0.378319 -0.108083 -0.152295 70 45 124
0.595998 -0.086393 0.085045 38 127 142
-0.494361 -0.465865 -0.180306 56 86 139
-0.686833 -0.385772 0.473522 34 167 132
0.658140 -0.219144 0.359216 112 206 86
-0.564792 -0.114148 0.022001 58 82 139
-0.009464 0.637891 -0.134439 68 1 84
-0.515270 0.218422 0.062863 63 71 136
0.070345 0.033675 -0.345732 68 1 84
0.090691 0.000229 -0.398228 68 1 84
0.231769 0.395848 -0.132231 68 1 84
-0.142796 -0.213707 -0.226708 68 1 84
-0.351252 0.514221 0.130969 70 48 125
-0.556421 -0.446687 -0.028787 45 110 142
0.532031 0.327826 0.390913 33 166 133
-0.562108 -0.263986 0.010532 49 102 141
0.146971 -0.037676 -0.262280 68 1 84
-0.394482 0.457323 0.112224 69 52 127
0.486342 0.303455 0.062318 70 48 125
-0.209246 0.167544 -0.217674 68 1 84
-0.039548 -0.294719 -0.325237 68 1 84
0.132731 0.164311 -0.265452 68 1 84
0.563416 -0.164329 0.022316 36 133 141
-0.296861 -0.420822 -0.297271 71 44 123
0.647059 -0.091320 0.259723 44 177 125
-0.549146 0.296212 0.344511 32 145 140
-0.366614 0.473704 0.073011 71 42 121
-0.544824 -0.503279 -0.062582 54 90 140
0.520633 0.084234 -0.000487 55 89 140
0.381759 0.021069 -0.144304 72 25 107
0.641841 -0.520795 0.229131 134 212 73
-0.451665 -0.205034 -0.104174 69 52 127
0.270506 -0.350379 -0.246538 70 48 125
0.080999 0.036771 -0.296210 68 1 84
0.369358 -0.338144 -0.208252 67 59 131
-0.621995 -0.353922 0.114831 37 131 141
0.610096 -0.538629 0.115637 41 175 127
-0.121664 -0.011806 -0.425267 68 1 84
-0.024888 -0.230832 -0.358920 68 1 84
-0.275289 -0.369448 -0.280797 70 45 124
-0.494705 0.368222 0.441906 30 157 136
-0.103890 -0.288526 -0.240058 68 3 87
-0.683823 -0.530722 0.314788 32 144 140
0.523967 -0.020428 -0.019269 58 82 139
-0.116709 -0.179226 -0.314318 68 1 84
-0.447934 0.068736 -0.082684 72 30 112
-0.592460 -0.218226 0.062011 48 104 141
-0.587493 -0.359717 0.049508 42 117 142
-0.483550 -0.369767 -0.134207 59 81 138
-0.691327 -0.424364 0.464940 32 165 133
0.496031 0.375769 0.401232 35 168 131
0.556742 -0.375280 -0.000836 34 138 141
0.269962 0.252615 -0.154117 68 1 84
0.281171 0.286682 -0.133757 68 1 84
0.171452 0.596040 -0.136910 68 1 84
0.549196 -0.208055 0.001482 39 125 142
0.510464 0.000979 -0.030047 67 59 131
-0.344831 -0.295151 -0.188114 72 29 111
0.660220 -0.312986 0.365757 131 211 75
-0.512523 -0.329531 -0.059919 66 62 133
-0.545549 0.202649 0.539575 77 194 107
0.555310 -0.233502 0.010389 37 131 141
0.645072 -0.484905 0.240645 91 200 98
0.480385 0.367934 0.113871 54 90 140
-0.328389 0.536201 0.184115 67 59 131
0.627247 0.063613 0.266497 31 162 134
-0.484838 0.225955 0.026562 66 64 133
-0.308291 0.143137 -0.152047 68 1 84
-0.023391 0.658351 -0.094995 68 1 84
0.245435 0.248223 -0.156016 68 1 84
0.426273 0.203397 -0.060104 71 43 122
0.315365 0.073309 -0.173933 68 1 84
0.647707 -0.290839 0.433761 186 222 39
0.100592 0.040377 -0.324116 68 1 84
-0.531412 0.331192 0.289804 46 108 142
-0.589161 0.072989 0.492358 77 194 107
-0.482306 -0.350380 -0.117550 59 80 138
-0.060999 -0.203878 -0.360316 68 1 84
0.479166 -0.231544 -0.072437 50 98 141
-0.062167 0.233865 -0.297603 68 1 84
-0.113741 0.177911 -0.282334 68 1 84
-0.604202 0.152494 0.304130 31 147 139
-0.612207 0.060715 0.191763 42 117 142
0.241581 -0.422834 -0.314439 71 43 122
0.607754 0.024526 0.136550 35 135 141
0.342858 -0.077161 -0.166845 69 5 88
0.041047 -0.342723 -0.316522 68 1 84
-0.636484 -0.049996 0.548568 175 220 46
0.582546 0.235642 0.347311 32 164 133
-0.240516 0.435970 -0.108243 71 21 103
-0.371604 0.367888 -0.017739 72 33 114
0.048661 0.372726 -0.205994 68 1 84
0.222097 -0.335929 -0.217876 69 54 129
-0.484424 0.386745 0.212831 52 95 141
-0.554025 -0.181513 -0.000323 56 86 139
0.562113 -0.128314 0.021069 43 115 142
0.017046 0.367533 -0.211033 68 1 84
-0.494574 -0.003675 -0.052063 70 48 125
0.114107 0.094533 -0.258296 68 1 84
-0.293723 0.159963 -0.159899 68 1 84
0.368974 0.007741 -0.154068 69 6 90
0.555227 0.072347 0.045734 49 101 141
0.657769 -0.232402 0.458987 173 220 48
-0.158642 0.558818 -0.152089 68 1 84
-0.569786 -0.448814 0.003433 44 114 142
0.648268 -0.114558 0.369710 98 202 95
-0.665780 -0.569232 0.229145 40 123 142
0.661841 -0.371988 0.473681 215 226 25
0.294086 0.574400 0.091213 63 71 136
0.603263 0.115883 0.416368 39 173 128
0.419750 0.461800 0.132911 60 78 138
-0.533608 -0.111790 -0.024164 61 74 137
0.644886 -0.127371 0.215681 36 170 130
-0.033435 0.160861 -0.294949 68 1 84
0.615061 -0.090424 0.131554 30 157 136
-0.245499 0.580481 -0.005884 68 1 84
0.649578 -0.193680 0.213650 44 177 125
-0.379332 0.381967 0.000266 67 58 131
0.426057 0.469536 0.271723 39 125 142
0.647748 -0.134639 0.227157 40 174 127
-0.276124 0.464010 -0.072180 71 15 98
-0.216384 0.084198 -0.194597 68 1 84
-0.193389 -0.101536 -0.209366 68 1 84
0.476386 -0.157700 -0.083361 54 91 140
-0.689688 -0.520622 0.344679 30 151 138
-0.188174 -0.410381 -0.321342 68 1 84
-0.641916 -0.201243 0.171229 40 122 142
0.304722 -0.470195 -0.322531 64 68 135
-0.083898 0.096973 -0.294629 68 1 84
-0.648233 -0.359487 0.173266 39 126 142
-0.205228 0.227824 -0.211965 68 1 84
0.140949 0.283574 -0.219814 68 1 84
0.590187 -0.056956 0.075683 41 121 142
-0.525130 0.338324 0.254735 47 105 141
-0.290825 0.081434 -0.172564 68 1 84
-0.513048 -0.312866 -0.050882 65 66 134
0.528144 0.095651 0.012168 53 92 140
0.301497 0.476099 -0.062907 68 1 84
-0.193406 -0.066829 -0.209426 68 1 84
0.638336 -0.269850 0.182495 47 179 123
0.359554 0.509156 0.063367 70 12 95
-0.388800 0.187567 -0.085915 68 1 84
-0.638274 -0.087635 0.465068 61 187 116
-0.660979 -0.236309 0.407664 30 156 137
0.348904 -0.263595 -0.188526 69 52 127
0.040002 0.273551 -0.258645 68 1 84
-0.093317 0.067099 -0.402909 68 1 84
0.068466 0.116680 -0.294388 68 1 84
0.624727 -0.519094 0.157299 112 206 86
0.554394 0.306189 0.325179 34 138 141
-0.509639 -0.082602 -0.051216 64 67 135
-0.138940 0.608504 -0.134655 68 1 84
-0.208038 0.365552 -0.141216 68 1 84
-0.390193 -0.045140 -0.146725 70 14 97
0.318864 0.042322 -0.176695 70 11 94
0.514551 -0.526323 -0.106237 45 111 142
0.113103 0.524297 -0.196650 68 1 84
0.436499 0.046013 -0.096493 70 14 97
0.322613 -0.245246 -0.195787 71 40 120
0.186825 -0.213796 -0.204297 72 25 107
0.101387 0.439079 -0.185448 68 1 84
-0.599299 -0.090447 0.093186 49 102 141
-0.630849 -0.453157 0.127959 40 122 142
0.506286 0.101522 -0.012772 51 96 141
0.500473 0.378267 0.370248 30 153 138
-0.149347 -0.163514 -0.240826 68 1 84
-0.478294 -0.314925 -0.086635 61 75 137
-0.639595 -0.068022 0.536371 162 218 55
0.543023 -0.147022 -0.007462 47 105 141
-0.305366 -0.366994 -0.276551 71 39 119
0.592849 -0.526285 0.066131 41 175 127
0.657234 -0.287479 0.326370 103 204 92
0.009101 0.519808 -0.203867 68 1 84
0.103986 -0.258788 -0.243630 68 1 84
0.121502 0.355100 -0.219453 68 1 84
0.526647 0.186422 0.048322 63 71 136
-0.103666 -0.048014 -0.420567 68 1 84
0.496208 -0.494057 -0.150503 44 113 142
0.352789 -0.305143 -0.180108 71 38 118
0.630814 -0.218393 0.152509 31 162 134
0.313165 0.030797 -0.180357 70 11 94
0.449919 -0.442805 -0.221207 44 114 142
0.158366 0.011731 -0.271028 68 1 84
0.410556 -0.215015 -0.128102 67 60 132
-0.610397 0.035269 0.469732 83 197 103
-0.673988 -0.481470 0.284027 32 143 140
0.493306 0.402013 0.280177 35 135 141
-0.287699 0.494625 -0.043339 68 1 84
-0.379162 0.194686 -0.088857 68 1 84
-0.308082 0.550138 0.185211 62 73 137
-0.114218 -0.150244 -0.334396 68 1 84
-0.322122 0.246907 -0.116913 68 1 84
-0.169708 -0.022390 -0.329314 68 1 84
-0.405543 0.354525 0.014512 68 55 129
0.004053 -0.291474 -0.329621 68 1 84
0.138103 0.054558 -0.260303 68 1 84
0.440490 -0.009732 -0.103990 71 15 98
0.370368 -0.512279 -0.293125 60 77 138
0.618127 -0.009830 0.152536 35 136 141
0.606351 0.118604 0.397447 43 177 125
-0.549221 0.039639 0.033580 67 59 131
-0.049503 0.645626 -0.123955 68 1 84
-0.461566 0.359029 0.100669 68 55 129
0.626212 -0.089054 0.481046 173 220 48
0.070511 0.429399 -0.189279 68 1 84
-0.372134 -0.337471 -0.226904 71 24 106
-0.380762 -0.497626 -0.299013 63 71 136
-0.667655 -0.560695 0.239681 41 120 142
-0.043067 -0.424731 -0.361965 68 1 84
-0.327475 0.535799 0.127914 71 39 119
0.483527 -0.498665 -0.178297 44 114 142
0.291519 -0.218760 -0.190700 72 25 107
0.623388 0.090641 0.294447 30 156 137
-0.550521 0.118895 0.063440 56 86 139
-0.504707 0.072138 -0.017436 67 60 132
0.636015 -0.023460 0.228475 32 164 133
-0.407904 0.088992 -0.112422 68 1 84
0.050785 0.218724 -0.302694 68 1 84
0.664365 -0.518723 0.363403 173 220 48
0.092003 0.037628 -0.312582 68 1 84
0.594603 -0.256460 0.075032 30 160 135
-0.638994 -0.074174 0.409963 50 181 122
-0.031660 -0.090232 -0.422998 68 1 84
-0.419527 -0.480359 -0.269489 68 55 129
-0.667755 -0.326668 0.362852 34 138 141
0.582556 -0.236199 0.053768 31 147 139
0.241483 0.049570 -0.198723 68 1 84
-0.690608 -0.457746 0.388765 31 148 139
0.530633 -0.411923 -0.066107 31 149 139
-0.568853 0.244706 0.230711 35 135 141
0.141073 0.326840 -0.222818 68 1 84
-0.066433 0.094635 -0.309483 68 1 84
-0.199552 0.245681 -0.199091 68 1 84
0.479646 -0.290870 -0.063974 36 133 141
0.240325 0.433163 -0.123422 68 1 84
-0.124874 -0.393156 -0.330949 68 3 87
0.544464 0.321762 0.342161 30 154 137
-0.029245 -0.084482 -0.426097 68 1 84
0.469227 -0.510671 -0.200178 52 95 141
0.447363 -0.324381 -0.107871 42 118 142
-0.063449 -0.295955 -0.304926 72 32 113
-0.635755 -0.044419 0.395926 33 167 132
0.583930 0.231814 0.346711 31 163 134
-0.269682 -0.386490 -0.285510 70 48 125
0.107587 0.500824 -0.198944 68 1 84
0.143231 0.543662 -0.180012 68 1 84
-0.704574 -0.517959 0.466276 30 158 136
-0.549455 0.189930 0.537244 131 211 75
0.652369 -0.133101 0.330077 83 197 103
0.001846 0.283187 -0.259465 68 1 84
-0.567093 0.264068 0.304353 35 135 141
-0.212934 0.189642 -0.217109 68 1 84
0.527081 -0.458855 -0.086269 30 151 138
0.157560 0.524527 -0.175960 68 1 84
-0.597535 -0.469071 0.056840 44 113 142
0.174101 0.201624 -0.241061 68 1 84
0.143292 0.048175 -0.280557 68 1 84
0.240964 -0.435197 -0.327997 69 53 128
0.617281 -0.022608 0.449542 103 204 92
0.307739 0.566523 0.129078 53 92 140
-0.060947 0.550193 -0.197602 68 1 84
-0.132989 0.144186 -0.264204 68 1 84
-0.368918 0.341383 -0.034756 69 54 129
-0.479686 0.405951 0.318906 49 101 141
0.477274 0.381766 0.126762 50 98 141
0.041126 0.306379 -0.257465 68 1 84
-0.609334 -0.409341 0.086071 39 126 142
0.586231 -0.472358 0.052364 57 185 118
-0.310911 0.471780 -0.025230 68 1 84
-0.395599 -0.266785 -0.147789 71 20 102
0.180005 0.288622 -0.190655 68 1 84
0.243134 0.125952 -0.199304 68 1 84
0.377771 -0.032731 -0.152078 69 8 91
0.103068 0.606185 -0.162441 68 1 84
0.448464 0.058552 -0.082350 71 20 102
0.086414 -0.147266 -0.319445 68 1 84
-0.573215 0.128618 0.116981 55 89 140
-0.145734 0.042313 -0.343804 68 1 84
-0.520495 -0.477286 -0.116998 56 87 140
0.520926 -0.409738 -0.089313 33 140 141
0.408172 0.423236 0.047583 69 6 90
0.167945 0.338797 -0.192961 68 1 84
0.601636 0.069026 0.139433 33 142 140
-0.677808 -0.514446 0.291365 35 136 141
0.069391 0.029534 -0.410431 68 1 84
0.076284 0.582777 -0.184105 68 1 84
-0.084508 -0.315778 -0.273509 68 1 84
0.589335 0.223059 0.238641 38 129 142
-0.001584 -0.420471 -0.362743 69 6 90
0.019764 0.399626 -0.185562 68 1 84
-0.019576 0.432644 -0.193517 71 17 99
-0.054608 -0.118240 -0.401242 68 1 84
0.653989 -0.341078 0.280310 96 201 96
-0.644351 -0.146312 0.200911 39 126 142
-0.072948 -0.311608 -0.290582 69 5 88
-0.130518 -0.330517 -0.233489 68 1 84
0.012862 0.017255 -0.454958 68 1 84
0.020192 0.054657 -0.344989 68 1 84
-0.217655 0.582414 -0.076454 68 1 84
0.234624 0.165612 -0.207193 68 1 84
-0.662273 -0.246341 0.252548 32 145 140
-0.110403 0.390094 -0.178555 68 1 84
0.606840 -0.461376 0.117615 62 188 115
-0.614818 0.085449 0.382133 33 167 132
-0.638485 -0.058210 0.244406 42 119 142
-0.170638 -0.033338 -0.298963 68 1 84
0.001400 0.327459 -0.261383 68 1 84
-0.308872 0.371318 -0.083282 71 38 118
-0.603533 0.125847 0.395640 33 166 133
-0.302552 -0.121752 -0.175726 68 1 84
-0.058748 -0.190070 -0.367101 68 1 84
-0.108867 0.261357 -0.245180 68 1 84
0.123114 0.271778 -0.229113 68 1 84
0.068290 0.193007 -0.299952 68 1 84
0.128903 -0.056772 -0.291833 68 1 84
-0.571258 0.108017 0.529676 98 202 95
-0.360732 -0.157934 -0.158818 72 34 115
-0.060136 0.087419 -0.398618 68 1 84
0.642354 -0.143058 0.419933 119 208 82
-0.291479 -0.251875 -0.203096 69 5 88
-0.663743 -0.220408 0.374495 30 160 135
0.320513 -0.141773 -0.170537 70 12 95
-0.491335 -0.283124 -0.063092 67 60 132
-0.155591 0.193413 -0.259185 68 1 84
-0.503237 -0.229123 -0.059093 68 55 129
0.223034 0.029201 -0.204174 68 1 84
-0.664093 -0.301287 0.399159 34 138 141
-0.081596 0.615059 -0.155652 68 1 84
-0.177475 -0.018701 -0.258666 68 1 84
-0.669695 -0.274395 0.305788 35 135 141
-0.641873 -0.081346 0.515071 116 208 84
0.182184 -0.388905 -0.295551 71 18 101
-0.675893 -0.481627 0.292697 30 151 138
0.305940 -0.349406 -0.249048 67 58 131
-0.686668 -0.379580 0.486797 47 179 123
0.554932 -0.410551 -0.009900 31 161 135
0.634503 -0.014005 0.376379 57 185 118
-0.117762 -0.406621 -0.346885 68 1 84
0.550995 -0.501564 -0.026330 30 151 138
-0.049294 -0.305262 -0.316248 72 26 108
0.156377 0.196054 -0.254983 68 1 84
-0.427840 0.452014 0.357959 44 112 142
-0.398336 0.340851 -0.002467 69 54 129
0.337540 0.230077 -0.126856 68 1 84
-0.123932 -0.101536 -0.349574 68 1 84
0.012402 -0.304109 -0.324989 68 2 85
-0.488649 0.388924 0.374827 35 135 141
-0.675115 -0.539362 0.276839 33 141 140
-0.316876 -0.413733 -0.287490 69 6 90
0.411378 -0.000381 -0.126747 68 3 87
0.156432 -0.004963 -0.263007 68 1 84
-0.243243 -0.464319 -0.347250 70 9 92
-0.469806 -0.481256 -0.216260 64 68 135
0.358006 -0.410524 -0.267979 60 78 138
0.661962 -0.562943 0.347834 126 210 78
0.148577 -0.355862 -0.257778 71 15 98
-0.020421 -0.389201 -0.347877 70 11 94
0.480676 0.400492 0.177927 46 107 142
0.401830 0.321630 -0.035491 68 1 84
-0.381174 0.448283 0.066661 72 35 116
0.614742 -0.084307 0.130926 31 161 135
-0.550489 0.238388 0.152694 45 110 142
0.661657 -0.393323 0.415030 175 220 46
-0.296311 0.509433 -0.016628 68 1 84
-0.480152 0.401167 0.254905 48 103 141
-0.135662 -0.283499 -0.201895 71 18 101
0.029781 0.337682 -0.259976 68 1 84
-0.573798 -0.315249 0.027599 54 91 140
-0.368802 -0.322295 -0.184651 70 9 92
0.584220 -0.443109 0.051787 41 175 127
0.392988 -0.180934 -0.139751 71 39 119
0.643754 -0.563249 0.249374 121 209 81
-0.217333 -0.421186 -0.320503 68 1 84
-0.012539 0.595883 -0.173936 68 1 84
-0.130913 0.151046 -0.267015 68 1 84
-0.259553 0.395406 -0.108777 72 25 107
-0.606698 -0.067518 0.117265 42 117 142
0.421633 0.472537 0.199256 59 80 138
0.519308 -0.031824 -0.026628 61 75 137
-0.070840 -0.131341 -0.387411 68 1 84
0.116352 0.048180 -0.313490 68 1 84
-0.140911 0.496439 -0.173201 68 1 84
-0.203937 -0.296862 -0.194750 68 1 84
0.196776 0.601592 -0.106505 68 1 84
-0.649313 -0.388656 0.185888 34 138 141
0.413966 0.060289 -0.113159 70 12 95
-0.632570 -0.084582 0.181138 38 129 142
-0.227355 0.512157 -0.107738 71 17 99
-0.220683 0.431138 -0.121967 71 22 105
0.200277 0.431210 -0.145874 68 1 84
0.093480 0.083288 -0.269171 68 1 84
0.567731 0.270301 0.362746 30 159 136
0.572645 0.248554 0.386880 35 168 131
0.161965 0.313699 -0.208099 68 1 84
0.469770 -0.463357 -0.203048 46 109 142
-0.467104 0.413335 0.368195 39 124 142
0.291390 0.534585 -0.041432 68 1 84
0.614330 -0.037774 0.538470 215 226 25
-0.085954 -0.248450 -0.307752 68 1 84
-0.062706 -0.025544 -0.450791 68 1 84
-0.681892 -0.422919 0.365606 30 152 138
-0.221306 -0.452410 -0.348435 68 1 84
-0.680414 -0.395695 0.384896 31 147 139
-0.589853 -0.109926 0.067549 47 106 141
-0.686558 -0.392161 0.449389 31 163 134
-0.427069 -0.116121 -0.126521 71 43 122
0.474193 -0.440907 -0.190547 39 125 142
0.544691 0.047971 0.023164 49 102 141
0.200091 0.578561 -0.124641 68 1 84
0.483112 0.414122 0.262836 39 126 142
-0.226684 0.160687 -0.206910 68 1 84
0.391216 -0.288884 -0.153622 66 61 132
0.107177 0.048848 -0.295549 68 1 84
0.534124 0.174923 0.053673 60 78 138
-0.111577 -0.287576 -0.229155 68 1 84
0.243346 -0.346548 -0.251656 68 57 130
-0.665600 -0.223666 0.308344 32 145 140
-0.233753 0.216652 -0.195070 68 1 84
0.280074 0.548952 -0.044410 68 1 84
-0.153386 -0.080903 -0.283898 68 1 84
0.638708 -0.123539 0.192121 34 167 132
0.582882 0.123419 0.488340 129 211 76
-0.401322 -0.032756 -0.139969 70 12 95
-0.107690 0.283502 -0.231105 68 1 84
0.211551 -0.188630 -0.200250 72 25 107
-0.163553 -0.048663 -0.294675 68 1 84
0.323985 0.456992 -0.047181 68 1 84
-0.600157 0.100999 0.175152 46 107 142
-0.143139 0.562049 -0.161971 68 1 84
-0.668335 -0.177173 0.490445 81 196 104
-0.268467 0.124903 -0.176059 68 1 84
0.130310 0.144952 -0.262741 68 1 84
-0.460176 -0.120141 -0.102860 69 53 128
-0.623073 0.012780 0.212649 42 117 142
-0.250417 0.028309 -0.188300 68 1 84
0.296575 0.531463 -0.037038 68 1 84
0.635093 0.004540 0.273429 35 169 130
0.143791 0.172919 -0.260538 68 1 84
0.582056 0.163928 0.458306 81 196 104
0.008921 0.577340 -0.185459 68 3 87
0.514352 0.373482 0.279514 36 132 141
-0.443305 -0.270067 -0.099653 67 59 131
0.287433 -0.074550 -0.189098 68 1 84
-0.307060 -0.408398 -0.287347 70 9 92
-0.383991 0.086628 -0.131105 68 1 84
-0.512879 -0.383775 -0.102384 54 91 140
0.211133 0.625569 -0.021095 72 25 107
-0.697368 -0.477339 0.418119 30 159 136
-0.645810 -0.204030 0.184055 34 137 141
-0.435058 0.443531 0.214934 59 81 138
0.311291 0.556570 0.047879 71 39 119
-0.609854 -0.174128 0.094366 46 108 142
-0.501365 0.119648 -0.005923 64 68 135
-0.379401 -0.163708 -0.151467 72 35 116
0.188830 0.279429 -0.179066 68 1 84
-0.587216 0.184484 0.215009 40 123 142
0.492613 0.402982 0.271270 37 131 141
-0.536441 -0.351439 -0.039762 52 94 141
-0.008738 0.099382 -0.376278 68 1 84
0.339932 0.490768 -0.005191 68 1 84
-0.633055 -0.543514 0.117461 52 95 141
0.204057 -0.219465 -0.200335 72 26 108
0.395756 -0.259811 -0.150206 69 53 128
0.442492 0.433950 0.137732 59 80 138
0.560844 0.227025 0.467342 77 194 107
-0.007293 -0.198030 -0.372482 68 1 84
0.652037 -0.457368 0.300769 146 215 65
-0.164832 -0.081671 -0.238516 68 1 84
-0.310843 0.211747 -0.139045 68 1 84
0.549364 0.314005 0.240225 39 125 142
-0.466327 0.419621 0.271883 51 96 141
0.080303 0.110500 -0.286105 68 1 84
-0.391696 0.468348 0.134710 65 65 134
0.338212 0.459380 -0.028039 68 1 84
-0.468805 0.056778 -0.064153 71 42 121
0.187710 -0.333973 -0.207855 71 37 117
-0.267310 0.418910 -0.094925 72 32 113
0.508897 0.372803 0.348163 33 141 140
-0.595819 -0.482134 0.049761 39 124 142
0.377026 -0.161870 -0.148863 72 32 113
-0.669805 -0.370299 0.341852 34 137 141
-0.682295 -0.346736 0.480245 54 184 119
-0.686192 -0.402294 0.424931 31 148 139
-0.594642 0.173919 0.367595 30 158 136
-0.305920 0.551341 0.188775 60 78 138
0.505142 -0.283474 -0.042368 39 125 142
0.283851 -0.276673 -0.201366 69 52 127
0.095293 -0.079407 -0.344246 68 1 84
0.163030 -0.116500 -0.233839 68 1 84
-0.130850 0.539741 -0.176749 68 1 84
-0.249816 0.587362 0.040219 71 21 103
-0.627924 -0.018084 0.546563 109 206 88
-0.534284 -0.182571 -0.027283 57 84 139
-0.515786 -0.026635 -0.032337 65 65 134
-0.185074 0.548389 -0.135034 68 1 84
-0.610463 0.091321 0.399275 30 159 136
0.458971 0.120707 -0.056961 67 60 132
-0.489257 0.389742 0.257808 49 102 141
-0.583361 0.171874 0.431749 31 161 135
0.445255 -0.445801 -0.227366 45 110 142
0.656076 -0.238462 0.302374 79 195 105
-0.693554 -0.437777 0.464711 35 168 131
-0.659779 -0.353443 0.242444 38 128 142
-0.603614 -0.079482 0.106563 43 115 142
-0.420107 -0.396006 -0.227521 71 21 103
0.181904 -0.142911 -0.218034 68 1 84
0.203134 -0.328114 -0.201054 70 45 124
-0.380003 0.494315 0.214328 70 48 125
-0.604663 0.020183 0.137718 59 80 138
-0.638946 -0.152713 0.178355 39 125 142
-0.088579 -0.214107 -0.333739 68 1 84
0.653798 -0.376663 0.311851 121 209 81
-0.681889 -0.363685 0.443261 30 158 136
0.391590 -0.479808 -0.277508 62 72 136
0.080715 0.194089 -0.295109 68 1 84
0.583807 0.200199 0.179231 47 106 141
0.136253 0.055571 -0.263371 68 1 84
-0.453872 0.429017 0.242597 50 98 141
0.604172 0.090350 0.157691 37 130 142
0.135787 0.481554 -0.185024 68 1 84
-0.649998 -0.169842 0.213599 33 141 140
-0.468709 -0.092709 -0.092550 69 54 129
0.656739 -0.189442 0.354785 91 200 98
0.646693 -0.099048 0.346523 91 200 98
0.500020 0.391944 0.305394 36 134 141
-0.465819 0.140536 -0.037190 68 57 130
0.208019 -0.150937 -0.205028 68 1 84
0.591600 0.122583 0.139910 43 116 142
0.654730 -0.437410 0.325299 139 213 70
-0.252271 0.377497 -0.118219 68 1 84
0.580881 0.243119 0.230916 35 135 141
-0.233801 -0.420226 -0.312475 69 8 91
0.568142 0.275429 0.333909 30 152 138
-0.330606 0.520426 0.077299 68 55 129
0.169493 0.102466 -0.230128 68 1 84
0.624821 0.080898 0.260973 30 154 137
0.515275 -0.339116 -0.047712 35 135 141
-0.528786 -0.493145 -0.096407 66 64 133
-0.638782 -0.044613 0.384041 48 180 122
0.612028 -0.386869 0.132107 39 173 128
0.597096 -0.255589 0.079489 33 167 132
-0.683004 -0.399584 0.400207 30 156 137
-0.437426 0.341104 0.048343 67 60 132
0.652175 -0.567171 0.295191 157 217 58
0.579838 -0.294441 0.050010 35 135 141
-0.344485 -0.109625 -0.163954 71 44 123
-0.560900 -0.308700 0.007149 51 97 141
-0.330092 0.352442 -0.071953 71 39 119
-0.469630 0.096027 -0.049678 70 48 125
0.476602 0.418353 0.314548 33 140 141
0.549578 0.310855 0.352289 30 158 136
0.172099 -0.174582 -0.219427 71 17 99
0.100477 0.482276 -0.198828 68 1 84
0.389574 -0.148110 -0.143077 70 12 95
0.633601 -0.026955 0.393652 73 193 109
0.220156 0.489167 -0.138360 68 1 84
-0.637252 -0.461981 0.143792 39 125 142
0.582381 -0.131583 0.054694 38 129 142
0.504816 0.377378 0.212476 45 110 142
-0.647114 -0.278941 0.171452 41 121 142
-0.666168 -0.174785 0.472863 68 190 112
-0.237335 0.443092 -0.109231 71 21 103
-0.301775 -0.345409 -0.264201 71 40 120
-0.551834 -0.255140 -0.004414 49 102 141
0.659399 -0.566291 0.332115 121 209 81
0.517681 -0.160145 -0.039778 49 100 141
-0.146421 -0.439124 -0.360145 68 1 84
0.580982 -0.427971 0.045532 39 173 128
0.074769 -0.246784 -0.285514 68 1 84
0.064759 -0.357195 -0.315736 68 1 84
0.346142 0.537242 0.108247 59 80 138
0.111015 0.617973 -0.148813 68 1 84
0.048416 0.055701 -0.299293 68 1 84
-0.487354 -0.504389 -0.187417 71 39 119
-0.561286 0.120872 0.085356 54 91 140
0.160118 0.025868 -0.237584 68 1 84
-0.579881 -0.450640 0.025155 43 116 142
0.643135 -0.217879 0.187289 39 173 128
-0.646229 -0.074021 0.302142 31 148 139
-0.465303 -0.023299 -0.088001 64 67 135
0.182087 0.502289 -0.162910 68 1 84
-0.527427 0.335372 0.362644 38 128 142
-0.062570 -0.114594 -0.399651 68 1 84
-0.611184 -0.054560 0.131702 47 106 141
-0.518533 0.062679 -0.002985 56 86 139
-0.609339 -0.081624 0.120023 45 110 142
0.583203 0.030028 0.083063 43 116 142
-0.687016 -0.503954 0.336668 30 153 138
-0.139740 0.648529 -0.062370 68 1 84
-0.570780 -0.032190 0.050546 60 78 138
0.657610 -0.211485 0.323720 98 202 95
-0.369758 0.471651 0.076677 71 37 117
0.313044 0.075907 -0.174490 68 1 84
-0.160937 -0.055012 -0.292327 68 1 84
0.608547 0.144659 0.350687 33 166 133
-0.313538 0.475796 -0.018094 68 1 84
-0.144449 -0.349661 -0.250450 68 1 84
0.006223 0.395310 -0.185400 68 1 84
-0.122209 -0.184891 -0.291658 68 1 84
0.165015 0.618577 -0.118197 68 1 84
-0.551081 0.241337 0.491370 54 184 119
-0.219645 0.600717 0.001234 68 1 84
0.656108 -0.283656 0.378675 134 212 73
0.404757 -0.015493 -0.133231 68 1 84
0.383105 -0.075599 -0.146624 71 15 98
0.567169 0.225605 0.156434 47 106 141
-0.563085 0.270338 0.267349 38 128 142
-0.201654 -0.054296 -0.204711 68 1 84
0.627458 0.042791 0.234300 31 146 140
-0.117040 0.555916 -0.179992 68 1 84
0.476947 0.132163 -0.035453 57 84 139
-0.602755 0.151417 0.261183 34 137 141
0.444436 -0.282211 -0.094797 44 114 142
