ply
format ascii 1.0
element vertex 1270
property float x
property float y
property float z
property uchar red
property uchar green
property uchar blue
end_header
-0.669813 -0.409130 0.400351 68 1 84
0.100839 0.234844 -0.234736 58 82 139
0.399445 -0.428481 -0.137959 68 1 84
-0.298658 0.491173 -0.034185 68 1 84
0.009508 0.274139 -0.257338 37 130 142
0.561730 0.203493 0.121779 67 58 131
0.026474 -0.339174 -0.231792 33 141 140
-0.642536 -0.137851 0.304456 68 1 84
-0.225453 -0.267053 -0.185658 36 133 141
-0.590453 0.155522 0.505488 68 1 84
0.184223 0.488499 -0.185251 68 1 84
0.212042 -0.273738 -0.179151 68 190 112
0.342188 -0.338511 -0.108216 49 101 141
-0.505283 0.310721 0.126465 68 1 84
-0.346567 0.549492 0.121991 68 1 84
-0.452033 -0.103057 -0.118956 68 1 84
-0.404960 -0.181947 -0.130924 68 1 84
0.136725 0.455897 -0.211911 68 1 84
-0.553403 0.260985 0.269883 68 1 84
0.587265 -0.358310 0.225545 68 1 84
0.090366 0.394081 -0.213954 68 1 84
0.404489 0.548336 0.157027 68 1 84
0.467626 0.096711 -0.050767 50 98 141
0.572693 0.352413 0.444203 65 65 134
0.590773 0.165257 0.190400 60 78 138
0.389075 0.225970 -0.096134 54 91 140
-0.643862 -0.196586 0.446441 68 1 84
0.540729 0.343995 0.191695 72 29 111
0.028597 -0.244778 -0.303172 30 157 136
-0.372161 0.231807 -0.104514 68 1 84
-0.113897 -0.083656 -0.402577 77 194 107
-0.594955 -0.368390 0.062221 68 1 84
0.059426 0.457345 -0.242792 68 1 84
-0.123057 0.510643 -0.212908 68 1 84
0.109417 -0.073750 -0.311565 107 205 89
0.382183 -0.538448 -0.191202 68 1 84
-0.258537 0.239522 -0.140111 70 12 95
-0.620812 -0.050504 0.216021 68 1 84
-0.598110 -0.437728 0.082760 68 1 84
-0.176796 -0.438281 -0.312097 72 35 116
-0.582271 -0.126962 0.045900 68 1 84
0.369721 -0.456184 -0.196260 68 1 84
0.075030 -0.039596 -0.335893 50 181 122
0.119644 -0.362971 -0.178540 57 185 118
0.619687 -0.169730 0.504332 68 1 84
-0.159705 -0.445814 -0.319791 67 59 131
0.159686 -0.207598 -0.202764 87 198 101
-0.515046 -0.176101 -0.060717 68 1 84
-0.345999 -0.331979 -0.184986 68 1 84
-0.611934 -0.057393 0.528660 68 1 84
0.293420 0.061818 -0.199444 61 187 116
0.326382 -0.509166 -0.250384 54 90 140
-0.012686 0.291886 -0.243915 50 98 141
-0.223917 0.453626 -0.128587 68 1 84
-0.272674 -0.351374 -0.210705 71 22 105
-0.545670 0.264714 0.217745 68 1 84
-0.630357 -0.130681 0.537198 68 1 84
0.113552 0.002971 -0.247861 81 196 104
-0.153986 0.091696 -0.244989 41 175 127
0.044031 -0.046140 -0.335914 131 211 75
-0.662259 -0.466446 0.325804 68 1 84
-0.198407 0.468067 -0.153842 68 1 84
-0.622183 -0.069845 0.193892 68 1 84
0.587597 -0.042755 0.164143 65 66 134
0.589358 -0.427568 0.290253 68 1 84
-0.427126 0.390297 0.047538 68 1 84
0.435478 0.312073 -0.018495 52 94 141
0.485681 0.176298 -0.011848 57 85 139
0.565380 0.312714 0.239984 71 24 106
0.542890 -0.553625 0.162273 68 1 84
0.512811 0.294362 0.075530 72 35 116
-0.109710 -0.218070 -0.306336 105 204 91
0.212228 0.100000 -0.220464 46 178 124
0.346130 0.404272 -0.059969 68 1 84
0.611888 0.215238 0.452259 68 1 84
0.055301 -0.494112 -0.329953 40 122 142
0.619113 -0.191199 0.433281 68 1 84
-0.661924 -0.370014 0.380020 68 1 84
0.535058 -0.425124 0.076022 68 1 84
0.134782 -0.245703 -0.192203 33 167 132
0.620080 -0.025363 0.270505 71 39 119
0.620437 -0.143649 0.275680 68 1 84
0.417210 0.535317 0.150668 68 1 84
0.499985 0.068046 -0.008570 64 68 135
-0.124700 0.427123 -0.196287 68 1 84
0.392499 0.548803 0.120640 68 1 84
-0.014502 0.160318 -0.301342 37 131 141
0.315086 0.589643 0.077114 68 1 84
0.214037 0.492111 -0.159437 68 1 84
0.505753 -0.368890 0.009549 68 1 84
-0.627052 -0.081346 0.225293 68 1 84
0.005072 0.626730 -0.195176 68 1 84
0.135818 0.137895 -0.242466 66 190 113
0.118626 -0.365184 -0.178494 59 186 117
0.142487 -0.113691 -0.240563 146 215 65
0.561402 -0.401874 0.152402 68 1 84
-0.425852 -0.028586 -0.145642 69 54 129
0.611483 -0.267332 0.426724 68 1 84
0.289520 -0.471234 -0.265072 66 64 133
-0.474438 -0.163707 -0.099605 68 1 84
0.149403 0.593565 -0.163422 68 1 84
0.519971 -0.281443 0.027801 68 1 84
-0.097885 -0.157232 -0.382709 53 183 120
0.223952 0.451880 -0.150972 68 1 84
0.533773 0.002404 0.048539 62 72 136
0.590007 -0.273272 0.185272 68 1 84
-0.034097 0.461802 -0.241710 68 1 84
0.513620 0.249109 0.047301 70 12 95
0.555544 -0.354091 0.109390 68 1 84
0.601967 -0.300228 0.255514 68 1 84
0.466726 0.069824 -0.055707 55 88 140
-0.050070 -0.035839 -0.448687 31 150 139
0.583232 -0.122891 0.146496 68 1 84
-0.621345 0.044294 0.365528 68 1 84
-0.243283 0.350110 -0.120100 68 1 84
-0.371642 -0.462092 -0.285691 70 12 95
0.601882 -0.343435 0.410935 68 1 84
-0.286718 0.444223 -0.071150 68 1 84
-0.607678 0.045402 0.517226 68 1 84
0.077026 0.041798 -0.270370 77 194 107
-0.682050 -0.422349 0.481602 68 1 84
-0.093176 -0.399016 -0.286513 40 122 142
0.604837 -0.322830 0.342641 68 1 84
-0.023557 0.460154 -0.242609 68 1 84
0.023537 -0.162687 -0.409043 56 185 118
-0.350278 0.140173 -0.156788 68 1 84
-0.013351 0.150098 -0.301929 33 142 140
-0.027250 -0.408476 -0.290385 66 62 133
-0.472410 -0.437010 -0.217328 68 1 84
0.106155 0.439337 -0.221923 68 1 84
-0.335910 0.401690 -0.049037 68 1 84
-0.545673 0.067361 0.055510 68 1 84
0.273602 -0.075179 -0.219726 109 206 88
0.089532 -0.099155 -0.342816 34 167 132
0.127154 -0.336320 -0.186851 31 162 134
0.312060 0.010746 -0.204775 31 147 139
0.620294 0.129519 0.378330 58 82 139
0.299244 0.505207 -0.050962 68 1 84
0.490993 -0.516414 0.024561 68 1 84
0.163143 0.579281 -0.165719 68 1 84
-0.498949 0.379086 0.268360 68 1 84
-0.650983 -0.278979 0.426426 68 1 84
-0.375129 -0.163459 -0.149624 72 28 110
0.166933 -0.398044 -0.210707 46 109 142
-0.541965 0.309116 0.379899 68 1 84
-0.614967 0.077398 0.402874 68 1 84
0.580889 -0.190625 0.140801 68 1 84
0.002838 -0.289189 -0.322014 32 143 140
-0.177208 0.275137 -0.177462 71 39 119
0.560442 -0.367937 0.130176 68 1 84
-0.108930 0.638176 -0.119204 68 1 84
-0.400378 0.511298 0.184815 68 1 84
0.150540 -0.280403 -0.188053 31 162 134
0.527067 -0.351614 0.044619 68 1 84
-0.389902 0.036963 -0.173366 72 29 111
-0.455460 -0.237421 -0.084830 68 1 84
0.138525 -0.074615 -0.240855 105 204 91
-0.644401 -0.109144 0.434647 68 1 84
-0.402923 0.383856 0.007420 68 1 84
-0.566332 0.022190 0.084405 68 1 84
-0.095622 -0.215316 -0.334837 85 198 102
0.454429 0.204831 -0.038908 70 47 124
0.602177 -0.449843 0.372939 68 1 84
-0.096732 0.641472 -0.127653 68 1 84
0.036199 -0.244844 -0.286645 50 181 122
-0.283302 0.267736 -0.130880 68 1 84
-0.363132 -0.420044 -0.272167 70 9 92
0.430285 0.025491 -0.106626 56 86 139
-0.320921 0.282198 -0.116634 68 1 84
0.160813 -0.165767 -0.223443 107 205 89
-0.236658 0.102844 -0.208253 38 127 142
0.188947 0.541546 -0.168673 68 1 84
-0.548748 -0.000574 0.019844 68 1 84
-0.656868 -0.323470 0.477709 68 1 84
0.252890 0.458682 -0.123945 68 1 84
-0.079157 0.010606 -0.292769 33 167 132
-0.513167 -0.236591 -0.047177 68 1 84
-0.530656 -0.161291 -0.044354 68 1 84
-0.525039 0.335954 0.331406 68 1 84
-0.400355 0.507303 0.172194 68 1 84
0.049558 0.621591 -0.196322 68 1 84
-0.510442 -0.242262 -0.047471 68 1 84
0.528640 -0.067375 0.041932 70 48 125
-0.291836 0.306077 -0.115371 68 1 84
-0.124152 -0.182997 -0.298242 69 191 111
0.622033 -0.084382 0.281684 58 83 139
0.625585 -0.075329 0.376470 56 86 139
-0.192980 0.444550 -0.155702 68 1 84
0.245845 0.520861 -0.113987 68 1 84
-0.041395 0.270227 -0.259506 33 140 141
0.260053 0.148499 -0.191573 45 111 142
-0.626796 -0.095497 0.527289 68 1 84
0.042306 0.003301 -0.294790 126 210 78
0.598566 -0.430673 0.349960 68 1 84
-0.108890 0.409041 -0.199795 68 1 84
-0.653155 -0.254676 0.338145 68 1 84
0.624168 0.009363 0.294995 72 29 111
0.307428 0.304106 -0.122418 71 38 118
-0.442029 -0.504213 -0.240822 68 1 84
-0.143843 -0.475464 -0.330126 70 48 125
0.499916 0.451433 0.234322 72 29 111
-0.403715 -0.201736 -0.124310 68 1 84
-0.161844 -0.021401 -0.263915 44 177 125
-0.616930 -0.467420 0.144020 68 1 84
-0.612861 0.010432 0.258484 68 1 84
-0.515349 0.243537 0.084205 68 1 84
0.597991 -0.407771 0.340038 68 1 84
-0.343030 0.312452 -0.090049 68 1 84
-0.119639 -0.438277 -0.303716 59 80 138
-0.415843 -0.358078 -0.204162 68 1 84
0.590757 -0.384590 0.267829 68 1 84
0.173194 -0.045255 -0.229181 40 174 127
-0.402926 -0.206813 -0.123003 68 1 84
0.597439 0.268528 0.378708 68 1 84
-0.178978 -0.209014 -0.218912 64 189 114
0.182658 0.457232 -0.184379 68 1 84
-0.442660 -0.173970 -0.117242 68 1 84
-0.555071 0.226620 0.198498 68 1 84
0.287305 0.241104 -0.148972 50 99 141
0.464167 0.192019 -0.032445 69 53 128
-0.635784 -0.427301 0.200681 68 1 84
-0.664510 -0.373902 0.401702 68 1 84
0.604755 -0.422799 0.395183 68 1 84
-0.598382 0.149318 0.420695 68 1 84
-0.166404 -0.098936 -0.255521 253 231 36
0.493672 0.062219 -0.019143 61 76 137
0.154458 0.334967 -0.185355 68 1 84
0.617207 -0.198789 0.444575 68 1 84
0.618907 -0.029226 0.265160 66 62 133
0.586149 0.101757 0.158862 62 72 136
0.035641 0.047416 -0.291336 139 213 70
-0.114540 0.012590 -0.275278 38 127 142
0.252456 -0.473961 -0.285477 61 74 137
-0.139897 -0.364196 -0.222936 34 139 141
0.123906 -0.047674 -0.267081 75 194 108
0.605642 -0.454501 0.391219 68 1 84
-0.612602 -0.044974 0.513475 68 1 84
-0.162469 -0.477745 -0.332955 70 12 95
0.035828 -0.179237 -0.363003 30 156 137
0.443278 -0.260561 -0.074627 68 1 84
0.059157 -0.008975 -0.287621 170 219 50
-0.558575 -0.414995 -0.022312 68 1 84
0.620894 0.112740 0.350787 72 30 112
0.042193 -0.143199 -0.407707 38 172 129
0.622712 0.003829 0.286147 68 1 84
0.450684 0.513087 0.223763 68 1 84
-0.243567 -0.426472 -0.295429 61 74 137
-0.078323 0.485588 -0.235225 68 1 84
0.533859 0.425683 0.364165 64 68 135
0.596759 -0.544220 0.345104 68 1 84
0.338889 0.380459 -0.075316 68 1 84
0.618091 0.143283 0.350117 71 38 118
-0.107320 -0.077332 -0.414065 103 204 92
-0.226826 0.200910 -0.156808 68 1 84
-0.412212 0.252098 -0.063124 68 1 84
-0.646331 -0.276125 0.229222 68 1 84
-0.049318 0.651454 -0.135805 68 1 84
-0.429328 0.293156 -0.019507 68 1 84
0.646905 -0.097373 0.478819 68 1 84
0.130770 -0.487541 -0.324014 42 118 142
0.156889 -0.283657 -0.189070 41 175 127
-0.662355 -0.359139 0.393263 68 1 84
0.580922 0.155464 0.153710 65 66 134
-0.343471 -0.447659 -0.292547 68 55 129
-0.549845 0.063593 0.066372 68 1 84
-0.634037 -0.360429 0.181241 68 1 84
0.572020 -0.357436 0.163371 68 1 84
0.165332 -0.126638 -0.233263 124 210 79
0.335885 0.309600 -0.107321 70 11 94
-0.075005 0.429787 -0.219025 68 1 84
-0.664756 -0.501449 0.321719 68 1 84
-0.157399 -0.078719 -0.277020 83 197 103
0.173157 0.106412 -0.229640 56 185 118
0.041094 -0.111998 -0.436297 32 144 140
0.240096 0.169031 -0.180153 39 124 142
-0.315005 0.571142 0.103263 68 1 84
-0.630268 0.001227 0.404306 68 1 84
0.316201 0.434502 -0.072556 68 1 84
-0.446412 0.424072 0.129124 68 1 84
0.590431 -0.470300 0.311540 68 1 84
-0.313731 0.189933 -0.155599 68 1 84
0.567696 -0.435429 0.191669 68 1 84
0.199381 -0.178147 -0.205693 79 195 105
-0.199003 -0.386870 -0.223574 41 120 142
0.626316 0.064940 0.392440 72 28 110
0.242704 0.210416 -0.155169 34 138 141
0.470621 0.252778 -0.006590 65 65 134
0.351434 -0.284475 -0.120845 41 121 142
-0.574511 0.203058 0.527461 69 5 88
-0.531212 0.290045 0.193126 68 1 84
-0.327952 0.122188 -0.172445 68 1 84
0.313745 -0.519153 -0.259370 64 68 135
-0.303755 -0.032430 -0.213836 35 168 131
0.348577 0.126584 -0.155922 36 132 141
0.421905 -0.352898 -0.069200 71 38 118
0.410661 0.401365 0.000457 68 1 84
-0.612721 -0.036096 0.502214 68 1 84
-0.255036 0.221386 -0.151072 70 12 95
-0.578190 -0.455227 0.032710 68 1 84
-0.178712 0.502966 -0.171685 68 1 84
0.347706 0.566944 0.070439 68 1 84
-0.679039 -0.470087 0.406658 68 1 84
-0.538225 -0.145875 -0.034668 68 1 84
0.431090 -0.274275 -0.081827 68 1 84
0.544488 -0.110095 0.072929 69 53 128
0.131901 -0.083280 -0.246278 197 223 33
-0.622312 0.035215 0.356837 68 1 84
0.251033 0.598706 -0.015095 68 1 84
-0.515949 -0.474436 -0.145767 68 1 84
0.436354 0.090096 -0.093181 57 85 139
-0.515253 -0.012436 -0.040286 68 1 84
0.545492 -0.578159 0.173375 68 1 84
0.618218 -0.480947 0.484936 68 1 84
0.465422 -0.501014 -0.029039 68 1 84
0.480450 0.465430 0.196137 70 11 94
-0.648355 -0.124286 0.417042 68 1 84
0.241039 -0.430740 -0.258147 66 64 133
-0.492844 -0.135953 -0.085171 68 1 84
0.363794 0.205539 -0.123479 59 80 138
0.511575 0.427865 0.232253 72 34 115
-0.644984 -0.238895 0.238646 68 1 84
0.516358 -0.489517 0.063643 68 1 84
-0.415327 0.502227 0.228707 68 1 84
-0.422828 -0.397352 -0.237502 68 1 84
-0.260915 0.176745 -0.183341 71 42 121
0.524991 -0.577308 0.117022 68 1 84
0.519132 -0.173549 0.025499 68 1 84
-0.652578 -0.282798 0.316953 68 1 84
0.581638 0.296629 0.309407 72 29 111
0.228629 0.294711 -0.148363 70 12 95
-0.034694 -0.363959 -0.297463 33 141 140
-0.523761 0.351964 0.407700 68 1 84
-0.625293 -0.121009 0.170230 68 1 84
-0.298465 -0.123104 -0.191605 39 125 142
-0.658215 -0.311253 0.399147 68 1 84
0.037129 0.586809 -0.226890 68 1 84
-0.402046 0.484254 0.121771 68 1 84
-0.022256 -0.119428 -0.470526 89 199 100
-0.627302 -0.163427 0.156355 68 1 84
0.616986 0.151763 0.495291 71 44 123
-0.180059 0.193849 -0.188017 52 94 141
0.251095 -0.320342 -0.178642 53 93 140
0.436188 -0.221785 -0.087306 72 32 113
0.577141 -0.515175 0.268201 68 1 84
0.433138 0.180419 -0.069850 71 44 123
0.574380 -0.493462 0.250481 68 1 84
-0.299815 -0.483424 -0.320769 56 86 139
-0.019856 -0.261684 -0.358845 107 205 89
-0.279007 -0.205785 -0.172695 44 113 142
0.461129 0.200424 -0.033095 50 99 141
-0.396682 -0.162324 -0.141737 68 2 85
0.208507 0.455266 -0.164071 68 1 84
-0.480531 -0.028579 -0.087212 68 1 84
-0.381729 -0.199342 -0.134844 68 1 84
0.435328 0.380108 0.015870 72 25 107
-0.610775 -0.063268 0.148043 68 1 84
0.495267 0.455686 0.226594 71 24 106
0.210902 0.156413 -0.182430 30 154 137
-0.602224 0.134739 0.426309 68 1 84
-0.304242 -0.425312 -0.286457 49 100 141
0.485177 -0.119611 -0.027011 39 125 142
0.159837 0.341760 -0.182128 68 1 84
-0.445936 0.274990 -0.010290 68 1 84
-0.138921 -0.236207 -0.250295 124 210 79
-0.408397 0.499783 0.181657 68 1 84
-0.150987 0.110077 -0.245965 47 179 123
-0.466312 -0.016509 -0.103434 68 1 84
-0.014280 -0.234731 -0.372180 124 210 79
-0.687007 -0.528364 0.430058 68 1 84
0.007408 0.121840 -0.293712 73 193 109
-0.396136 -0.194245 -0.130121 68 1 84
0.246203 0.200580 -0.160749 35 137 141
-0.580042 0.211196 0.420413 68 1 84
-0.382656 0.112622 -0.154817 68 1 84
-0.580142 0.194606 0.516759 68 1 84
-0.224456 -0.319868 -0.177899 68 57 130
0.053425 0.622433 -0.194330 68 1 84
-0.514156 -0.047249 -0.048897 68 1 84
-0.021297 -0.357665 -0.295711 42 117 142
0.417339 0.464364 0.062690 67 59 131
0.103648 0.369167 -0.206583 68 1 84
0.614473 0.099635 0.503163 70 47 124
0.599841 0.149262 0.218237 71 43 122
-0.246440 0.570580 -0.020995 68 1 84
-0.056978 -0.314754 -0.330748 220 226 24
-0.063358 0.047388 -0.294133 139 213 70
0.604402 -0.037862 0.212146 66 64 133
0.189747 -0.400402 -0.255797 69 53 128
0.338343 -0.080221 -0.189207 53 93 140
-0.302037 -0.205543 -0.166681 70 49 126
-0.610385 0.036553 0.270621 68 1 84
0.231297 -0.157786 -0.208162 98 202 95
-0.627509 -0.054259 0.463828 68 1 84
0.005105 0.476418 -0.249155 68 1 84
0.344836 -0.396047 -0.152007 68 1 84
0.580464 -0.383979 0.211308 68 1 84
0.102493 -0.211214 -0.229822 32 145 140
-0.647775 -0.109095 0.380084 68 1 84
-0.305489 0.360485 -0.087027 68 1 84
0.599763 0.004816 0.195804 72 34 115
-0.560478 0.268189 0.435438 68 1 84
-0.621602 0.022678 0.443312 68 1 84
-0.359079 -0.149771 -0.159638 71 43 122
-0.614067 -0.428333 0.129968 68 1 84
0.136239 0.432515 -0.206032 68 1 84
-0.234746 0.088568 -0.208440 36 132 141
0.623597 -0.170460 0.299502 69 6 90
-0.442257 0.474108 0.280316 68 1 84
0.084997 0.003901 -0.266332 146 215 65
-0.554140 0.196644 0.157022 68 1 84
0.563280 -0.007251 0.108352 72 28 110
0.286482 0.157133 -0.179263 45 110 142
-0.197619 0.217699 -0.148043 68 1 84
-0.573384 0.225305 0.489716 68 1 84
0.627086 -0.097764 0.359824 71 44 123
-0.525674 0.308622 0.207867 68 1 84
-0.224238 -0.422664 -0.288068 72 25 107
0.160261 -0.394651 -0.203583 39 124 142
-0.570852 0.139080 0.174907 68 1 84
0.365278 0.541880 0.069920 68 1 84
-0.054592 0.110594 -0.288824 57 185 118
0.161098 0.374197 -0.181763 68 1 84
0.509196 -0.500295 0.053868 68 1 84
-0.645652 -0.176109 0.297844 68 1 84
-0.299746 -0.403571 -0.267825 71 42 121
-0.542860 0.285812 0.262158 68 1 84
-0.166349 0.625401 -0.046796 68 1 84
-0.318385 -0.119485 -0.184555 33 141 140
-0.082185 -0.131222 -0.442317 56 185 118
-0.286663 -0.143279 -0.187909 34 137 141
0.591264 -0.124492 0.168403 68 1 84
0.613929 -0.183186 0.258619 68 1 84
0.338451 -0.275243 -0.129540 51 97 141
-0.258889 0.541651 -0.037220 68 1 84
0.625372 -0.141198 0.503074 70 14 97
0.553264 0.211382 0.105227 71 42 121
-0.565768 0.053712 0.107974 68 1 84
0.409674 0.421102 0.013610 68 1 84
0.477047 0.180898 -0.021044 66 64 133
-0.262614 0.366112 -0.105212 68 1 84
-0.099488 0.531393 -0.225114 68 1 84
0.418091 -0.122067 -0.109755 69 54 129
0.554851 -0.148313 0.089552 69 6 90
0.587603 0.315689 0.389566 69 5 88
-0.486423 -0.386059 -0.176817 68 1 84
-0.078092 -0.352119 -0.299965 30 157 136
0.265272 0.311313 -0.131786 71 21 103
-0.170884 0.230746 -0.181572 51 96 141
0.445692 -0.132746 -0.076325 54 91 140
0.590218 0.253732 0.280058 70 14 97
-0.301160 0.580521 0.099739 68 1 84
0.426431 0.286341 -0.038884 44 114 142
0.319075 0.306973 -0.116791 68 1 84
0.099057 0.498331 -0.236640 68 1 84
-0.689444 -0.494795 0.444142 68 1 84
-0.297410 -0.142839 -0.183725 39 126 142
-0.527249 -0.480363 -0.121116 68 1 84
0.521083 0.093931 0.026985 59 80 138
0.581972 -0.246744 0.152756 68 1 84
-0.249353 -0.203846 -0.181635 31 147 139
0.149547 0.379592 -0.188251 68 1 84
-0.629477 -0.095990 0.500739 68 1 84
-0.454439 0.141779 -0.078466 68 1 84
0.550774 -0.493198 0.159287 68 1 84
-0.204033 -0.354880 -0.188855 60 77 138
0.331666 0.302233 -0.112778 70 9 92
0.613031 -0.251776 0.425575 68 1 84
-0.462766 0.325531 0.046620 68 1 84
0.603453 0.220554 0.502898 68 1 84
-0.172349 0.478232 -0.178159 68 1 84
-0.656199 -0.419627 0.302390 68 1 84
-0.369100 0.039406 -0.184792 71 42 121
-0.638125 -0.177791 0.484139 68 1 84
-0.442263 0.461223 0.214092 68 1 84
0.523860 0.197255 0.044165 72 33 114
-0.530651 0.320527 0.307998 68 1 84
-0.498064 -0.326102 -0.087537 68 1 84
0.615945 -0.251610 0.380792 68 1 84
0.392071 -0.355265 -0.084465 67 59 131
0.614053 -0.268625 0.337373 68 1 84
0.611817 0.150784 0.288281 68 57 130
-0.637628 -0.299902 0.180687 68 1 84
0.126705 -0.432620 -0.265818 67 59 131
-0.257663 -0.186675 -0.183183 50 99 141
-0.283163 -0.378084 -0.247912 69 8 91
-0.549346 0.255712 0.221100 68 1 84
0.381731 0.418260 -0.020122 68 1 84
0.242402 -0.435673 -0.261167 64 67 135
-0.502911 -0.302451 -0.060895 68 1 84
-0.065019 0.156784 -0.291889 77 194 107
0.480997 0.484399 0.262590 68 1 84
-0.581283 0.024558 0.134973 68 1 84
0.445242 0.386999 0.033458 72 28 110
-0.597221 -0.016431 0.148592 68 1 84
0.615067 0.188743 0.463507 68 1 84
0.577803 -0.445659 0.242663 68 1 84
-0.132913 -0.324418 -0.217675 43 115 142
0.021814 0.461850 -0.246016 68 1 84
0.133287 0.397632 -0.198071 68 1 84
0.176768 0.612911 -0.105463 68 1 84
0.587394 -0.141212 0.155083 72 33 114
-0.597117 0.132866 0.319967 68 1 84
0.371660 -0.087434 -0.162815 68 1 84
-0.120685 -0.111654 -0.379782 94 201 97
-0.177772 0.379487 -0.161435 68 1 84
0.282453 -0.175670 -0.185087 34 138 141
0.337848 0.361105 -0.083669 68 1 84
-0.142458 -0.403705 -0.261570 54 91 140
-0.180516 0.380813 -0.159489 68 1 84
-0.626528 -0.149320 0.159737 68 1 84
-0.301210 -0.349865 -0.232404 68 1 84
0.124758 -0.055467 -0.265169 73 193 109
0.548008 -0.064431 0.080039 68 1 84
-0.528960 -0.274545 -0.029995 68 1 84
0.210095 0.256637 -0.154442 69 53 128
-0.656419 -0.281628 0.367265 68 1 84
0.409796 0.528207 0.124159 68 1 84
-0.470052 -0.303640 -0.087157 68 1 84
0.599158 -0.218078 0.206658 68 1 84
0.395055 0.435914 0.007815 68 1 84
0.610823 -0.252569 0.278024 68 1 84
0.410662 -0.234485 -0.109676 71 42 121
-0.182060 -0.103639 -0.244069 218 226 24
0.370750 0.265555 -0.100565 60 77 138
0.605517 -0.022305 0.215291 72 26 108
0.434185 0.445333 0.068483 68 1 84
0.042247 0.268259 -0.256504 57 85 139
-0.180300 0.366964 -0.160362 68 1 84
0.589839 -0.366566 0.246492 68 1 84
-0.647361 -0.301242 0.240106 68 1 84
0.523677 0.021170 0.029010 70 48 125
-0.541641 -0.079735 -0.018943 68 1 84
0.579391 0.255877 0.220519 66 64 133
-0.018259 -0.261646 -0.358285 100 203 93
-0.200114 0.219604 -0.145927 68 1 84
-0.395510 0.523233 0.240856 68 1 84
-0.650528 -0.295107 0.287251 68 1 84
0.022282 -0.008726 -0.320358 170 219 50
0.355453 -0.204841 -0.151100 68 57 130
-0.198110 0.043139 -0.219805 50 181 122
0.564589 0.290853 0.205982 68 57 130
-0.170045 -0.080469 -0.252034 139 213 70
-0.508091 -0.146469 -0.069999 68 1 84
-0.439749 -0.077663 -0.129019 68 1 84
-0.285599 -0.368304 -0.243051 68 1 84
-0.513011 0.359058 0.327471 68 1 84
0.534623 0.415889 0.297523 60 77 138
0.466256 -0.073049 -0.052956 58 82 139
-0.494178 0.160287 -0.006196 68 1 84
0.496998 0.468810 0.258028 68 1 84
0.618681 -0.196484 0.287599 68 1 84
0.480474 0.395929 0.099065 68 55 129
-0.507726 0.336133 0.184750 68 1 84
-0.437876 0.164309 -0.085840 68 1 84
-0.642664 -0.234356 0.211623 68 1 84
0.316338 -0.368080 -0.123889 48 103 141
0.165454 0.387040 -0.181203 68 1 84
-0.548288 -0.149811 -0.020929 68 1 84
0.572106 0.283701 0.225863 72 25 107
-0.592439 -0.143164 0.065666 68 1 84
-0.232302 0.031102 -0.210016 30 152 138
0.537348 0.041708 0.054572 39 125 142
0.623350 0.042142 0.475200 61 75 137
0.316416 0.223630 -0.148895 45 110 142
-0.650173 -0.322523 0.266175 68 1 84
-0.458598 0.031591 -0.108705 68 1 84
0.557189 -0.241014 0.096331 68 1 84
-0.143983 -0.248373 -0.236301 186 222 39
0.553208 -0.431071 0.133169 68 1 84
0.203665 -0.499513 -0.322443 56 87 140
-0.073145 -0.302145 -0.332166 126 210 78
0.461089 0.410978 0.078371 72 32 113
0.038640 -0.048612 -0.424574 40 123 142
-0.512801 0.151339 0.024433 68 1 84
0.462448 -0.239454 -0.057933 69 5 88
-0.640940 -0.426006 0.229278 68 1 84
0.603795 -0.328390 0.390941 68 1 84
0.251795 -0.360593 -0.171165 60 77 138
0.535812 -0.419063 0.075597 68 1 84
0.604781 -0.304001 0.286112 68 1 84
0.122949 0.274341 -0.214598 64 68 135
0.092909 0.175185 -0.257473 77 194 107
-0.635191 -0.040692 0.336056 68 1 84
0.116020 -0.061232 -0.296950 114 207 85
0.222526 0.116982 -0.211971 35 169 130
0.613284 -0.111335 0.244704 70 45 124
0.210622 0.468549 -0.162938 68 1 84
0.168720 -0.160913 -0.222896 124 210 79
-0.540402 -0.213156 -0.027481 68 1 84
0.584475 -0.153837 0.146343 68 1 84
-0.578007 0.204908 0.332625 68 1 84
-0.504664 -0.195252 -0.066911 68 1 84
0.589954 -0.395329 0.271365 68 1 84
0.476859 0.132858 -0.030470 66 64 133
0.477057 -0.074489 -0.039002 39 125 142
-0.224031 0.476579 -0.126750 68 1 84
0.438648 -0.004246 -0.095062 49 102 141
-0.110294 0.199672 -0.235048 38 127 142
-0.515080 -0.316427 -0.059940 68 1 84
-0.461181 0.172283 -0.051900 68 1 84
-0.611050 -0.001650 0.232123 68 1 84
-0.243295 -0.470678 -0.330634 59 80 138
0.058576 0.543863 -0.243537 68 1 84
0.568681 0.364777 0.364551 66 62 133
0.040340 -0.280823 -0.248209 32 143 140
-0.606932 -0.210231 0.082432 68 1 84
-0.047729 -0.158479 -0.439327 129 211 76
-0.272695 0.167224 -0.182969 71 42 121
0.061952 0.028633 -0.276185 165 218 53
-0.294416 0.584545 0.110719 68 1 84
0.396445 -0.144424 -0.128751 69 53 128
0.485668 0.474265 0.229771 68 1 84
-0.435655 0.068172 -0.128728 68 1 84
0.626912 -0.142539 0.366357 69 8 91
0.252788 0.209527 -0.159192 43 115 142
-0.584363 0.197584 0.402120 68 1 84
0.514078 -0.124497 0.016118 68 1 84
0.316584 -0.473196 -0.247966 68 2 85
0.299797 0.379275 -0.099607 68 1 84
0.149586 0.221044 -0.191497 52 95 141
-0.610656 0.087106 0.344760 68 1 84
-0.107641 0.566747 -0.208414 68 1 84
-0.006486 -0.405159 -0.280144 59 80 138
0.540170 0.374371 0.239979 57 84 139
0.525955 0.081018 0.034302 64 68 135
-0.109476 -0.059620 -0.396529 51 182 121
-0.200958 0.586115 -0.089113 68 1 84
-0.136552 -0.386351 -0.248800 61 76 137
0.605164 -0.211044 0.230032 68 1 84
0.265047 0.134367 -0.194972 36 134 141
0.349391 0.538807 0.045674 68 1 84
-0.385809 0.428677 0.019404 68 1 84
0.415376 0.286248 -0.049991 50 99 141
-0.649422 -0.411336 0.265963 68 1 84
-0.506489 -0.026580 -0.054705 68 1 84
0.107793 -0.314508 -0.188847 36 134 141
0.605501 0.168490 0.258677 51 96 141
0.023381 0.645249 -0.168218 68 1 84
0.025533 0.225520 -0.262026 39 125 142
0.564039 -0.499398 0.213178 68 1 84
-0.279421 0.459311 -0.073163 68 1 84
0.612895 -0.277208 0.372237 68 1 84
0.404625 -0.238157 -0.113804 70 48 125
-0.567601 0.106713 0.144462 68 1 84
-0.585555 0.131004 0.244680 68 1 84
0.209757 0.261367 -0.155090 71 18 101
-0.351188 0.226035 -0.119974 68 1 84
-0.028332 0.335526 -0.225121 65 66 134
-0.636425 -0.048732 0.409763 68 1 84
-0.579930 0.156238 0.247567 68 1 84
0.617593 -0.246746 0.341956 68 1 84
-0.535260 0.223755 0.118929 68 1 84
0.345876 0.509854 0.013079 71 15 98
-0.303817 -0.401072 -0.266311 69 53 128
-0.542291 0.213524 0.130436 68 1 84
0.628263 -0.006479 0.363398 71 17 99
0.408897 0.214744 -0.081008 57 84 139
-0.504322 -0.118257 -0.072049 68 1 84
-0.679628 -0.490742 0.401774 68 1 84
0.524010 0.130642 0.033197 66 61 132
-0.407182 -0.188511 -0.127468 68 1 84
-0.142908 -0.354616 -0.212363 47 105 141
0.618620 -0.180653 0.513470 68 1 84
0.129049 -0.189631 -0.224859 205 224 29
0.261499 0.079991 -0.206585 35 168 131
-0.606516 0.100427 0.452033 68 1 84
0.289945 -0.469847 -0.264251 67 59 131
-0.308693 0.223197 -0.145914 71 18 101
0.433908 0.394168 0.023259 71 18 101
-0.665805 -0.492649 0.327977 68 1 84
0.601146 -0.378093 0.370641 68 1 84
0.477489 0.475823 0.205070 68 1 84
-0.292168 0.426861 -0.072263 68 1 84
0.504404 0.461324 0.314639 68 1 84
-0.555433 -0.147452 -0.009791 68 1 84
-0.520324 0.259216 0.109663 68 1 84
-0.369310 0.042620 -0.184141 70 12 95
-0.095874 0.377267 -0.204137 68 1 84
0.003087 0.274749 -0.257492 40 122 142
-0.573903 0.163592 0.215383 68 1 84
-0.106147 0.629475 -0.147319 68 1 84
-0.035368 -0.465592 -0.319942 46 109 142
0.556149 -0.465556 0.160862 68 1 84
-0.123684 -0.030049 -0.350489 34 137 141
0.459297 0.504752 0.226948 68 1 84
-0.270797 -0.458632 -0.323583 68 55 129
-0.180969 0.621591 -0.014024 68 1 84
-0.658747 -0.355680 0.359523 68 1 84
0.345575 0.463420 -0.028040 68 1 84
0.084451 -0.475490 -0.323760 71 39 119
0.612189 -0.283348 0.357876 68 1 84
0.612928 -0.243133 0.439612 68 1 84
-0.163468 -0.207344 -0.234380 215 226 25
-0.543349 0.193128 0.120587 68 1 84
0.056150 0.389892 -0.221172 68 1 84
0.433961 -0.523773 -0.082751 68 1 84
-0.160070 -0.441263 -0.314039 67 59 131
0.493531 -0.458918 0.007493 68 1 84
-0.540871 0.256948 0.177932 68 1 84
0.117055 -0.090427 -0.269382 202 224 30
-0.222577 0.003683 -0.216111 32 164 133
0.334318 0.090786 -0.174561 33 167 132
-0.105767 0.183253 -0.261541 41 121 142
-0.017631 -0.475811 -0.325257 60 78 138
-0.633730 -0.139967 0.507386 68 1 84
0.420009 0.015352 -0.120140 49 102 141
0.028772 0.567716 -0.237620 68 1 84
-0.635303 -0.097684 0.465286 68 1 84
0.463959 -0.285893 -0.048734 68 1 84
0.446419 -0.031635 -0.082461 38 128 142
0.556484 -0.409140 0.135357 68 1 84
0.273933 -0.505721 -0.285077 70 47 124
0.068452 -0.471649 -0.322951 69 54 129
-0.388790 0.010254 -0.176056 53 93 140
0.587198 0.266606 0.281792 71 17 99
-0.274555 -0.339125 -0.189486 47 106 141
-0.621072 -0.071889 0.183380 68 1 84
0.497138 -0.259152 -0.010706 68 1 84
-0.636190 -0.243304 0.168861 68 1 84
-0.389680 0.493576 0.108391 68 1 84
-0.113955 -0.378395 -0.267323 64 68 135
0.518690 -0.432523 0.044260 68 1 84
0.394243 -0.043722 -0.146890 68 57 130
0.625712 -0.163652 0.379880 68 1 84
-0.659681 -0.377319 0.357834 68 1 84
-0.565719 0.203541 0.550573 68 1 84
-0.131463 -0.403477 -0.268628 67 58 131
0.508271 -0.079035 0.005155 69 54 129
-0.619780 0.033017 0.443696 68 1 84
0.529698 0.138326 0.043268 63 71 136
-0.138428 0.274648 -0.214349 40 122 142
0.611946 -0.283365 0.394040 68 1 84
-0.608665 -0.317473 0.085649 68 1 84
-0.229639 -0.374719 -0.218599 63 71 136
0.200095 0.600628 -0.097916 68 1 84
0.598252 0.249259 0.337739 70 12 95
-0.177693 0.394452 -0.160929 68 1 84
0.168369 0.019061 -0.228382 59 186 117
-0.559231 -0.241979 0.000449 68 1 84
-0.559044 0.268989 0.484875 68 1 84
-0.558375 0.272358 0.472976 68 1 84
0.440608 0.168079 -0.065798 69 54 129
0.394302 0.169837 -0.109880 67 58 131
0.586035 -0.053988 0.159260 68 1 84
-0.206087 -0.224935 -0.192845 64 189 114
0.256570 -0.413413 -0.239589 72 30 112
0.416558 -0.205754 -0.107442 66 64 133
0.378647 -0.431539 -0.164433 68 1 84
-0.414012 -0.044513 -0.153896 68 55 129
0.598826 0.008020 0.192563 72 33 114
-0.072707 0.556614 -0.231108 68 1 84
-0.117781 0.488899 -0.214840 68 1 84
-0.164914 -0.385068 -0.226934 49 100 141
-0.215649 0.605456 -0.010713 68 1 84
-0.207287 -0.382738 -0.219204 52 95 141
-0.533776 0.332348 0.469161 68 1 84
0.138002 -0.072644 -0.240970 98 202 95
-0.207819 0.195628 -0.162140 68 1 84
-0.282879 0.510739 -0.037125 68 1 84
-0.419033 0.492259 0.207328 68 1 84
-0.637415 -0.160374 0.207836 68 1 84
-0.255148 -0.119083 -0.210127 32 145 140
-0.614076 -0.293564 0.094026 68 1 84
0.518452 -0.504294 0.076759 68 1 84
0.419607 0.405609 0.014141 69 8 91
0.004708 -0.246622 -0.345933 89 199 100
0.293589 0.477447 -0.075251 68 1 84
0.602264 -0.210196 0.217664 68 1 84
0.449661 -0.483928 -0.065592 68 1 84
0.619026 -0.104410 0.268190 62 72 136
-0.347196 0.470710 0.005560 68 1 84
0.577548 -0.529558 0.271607 68 1 84
-0.578542 0.216095 0.416889 68 1 84
-0.395048 0.126530 -0.139985 68 1 84
0.529096 0.433185 0.309087 68 1 84
0.499279 0.106754 -0.005203 43 116 142
0.237311 0.516839 -0.128025 68 1 84
-0.117836 -0.365010 -0.259306 67 60 132
0.623494 0.117944 0.433581 71 44 123
-0.192330 0.587791 -0.103920 68 1 84
-0.629940 -0.343510 0.159158 68 1 84
-0.331305 0.567635 0.135914 68 1 84
0.126461 -0.110233 -0.247501 149 215 63
0.400379 0.011664 -0.143075 46 109 142
0.438822 -0.075142 -0.088756 51 97 141
0.509942 0.000493 0.004709 58 82 139
0.511606 -0.259967 0.012299 68 1 84
-0.626310 -0.294910 0.131783 68 1 84
-0.033982 0.241731 -0.265903 37 131 141
-0.606587 -0.152312 0.099879 68 1 84
-0.086464 0.124109 -0.281897 38 172 129
0.507754 -0.272528 0.005931 68 1 84
-0.526750 0.335277 0.349549 68 1 84
-0.512430 -0.082380 -0.057729 68 1 84
-0.285288 -0.496590 -0.327379 58 83 139
-0.083436 -0.161656 -0.407844 114 207 85
0.190285 0.533720 -0.170965 68 1 84
0.568060 -0.323527 0.139260 68 1 84
0.514065 -0.342240 0.021976 68 1 84
0.517323 0.330789 0.113754 65 66 134
-0.314790 0.549683 0.061707 68 1 84
0.080642 -0.498823 -0.330454 43 115 142
-0.640469 -0.158049 0.253913 68 1 84
-0.128666 -0.129870 -0.317071 83 197 103
0.128794 0.263692 -0.212378 66 61 132
0.107857 -0.308704 -0.189227 32 143 140
-0.591459 -0.118846 0.071226 68 1 84
-0.653880 -0.485123 0.272326 68 1 84
0.002465 0.438631 -0.239891 68 1 84
0.608621 0.003357 0.227885 69 6 90
-0.209286 -0.049133 -0.228627 89 199 100
0.046719 0.233719 -0.261856 49 101 141
-0.183034 0.106638 -0.230917 30 158 136
0.543549 -0.294952 0.069941 68 1 84
0.599907 -0.407504 0.357744 68 1 84
0.617099 -0.554280 0.463176 68 1 84
-0.189774 0.560734 -0.137261 68 1 84
-0.016775 0.158524 -0.301763 36 133 141
0.007845 -0.264487 -0.330702 30 154 137
-0.070847 0.646723 -0.141942 68 1 84
0.511084 0.458902 0.294603 68 1 84
0.532405 -0.525030 0.125335 68 1 84
0.235641 0.369174 -0.139132 68 1 84
0.454876 -0.151589 -0.066023 68 57 130
-0.646594 -0.321662 0.237753 68 1 84
0.376447 0.348650 -0.059542 68 1 84
-0.623683 -0.061120 0.497229 68 1 84
0.549149 0.245777 0.117558 68 55 129
-0.270545 0.597147 0.107366 68 1 84
0.435375 -0.449544 -0.105355 68 1 84
-0.263017 0.581206 0.026965 68 1 84
0.157680 -0.463125 -0.302759 64 68 135
0.078436 -0.067744 -0.374172 33 166 133
-0.587745 0.171205 0.329130 68 1 84
-0.503881 0.351443 0.204163 68 1 84
-0.154285 -0.202057 -0.245946 194 223 34
0.194964 0.159489 -0.179680 30 157 136
-0.044549 0.198008 -0.257305 31 149 139
-0.235984 0.422768 -0.118615 68 1 84
-0.066751 -0.085308 -0.464076 126 210 78
0.494567 0.236445 0.015517 59 80 138
-0.155013 0.067262 -0.243200 30 159 136
-0.171143 0.418026 -0.167323 68 1 84
-0.559690 0.113810 0.124851 68 1 84
0.001595 -0.445967 -0.305359 43 115 142
0.611292 -0.249893 0.465283 68 1 84
-0.152522 0.607292 -0.135221 68 1 84
0.277898 0.591100 0.016853 68 1 84
-0.590349 -0.329768 0.045732 68 1 84
0.431730 0.044545 -0.104010 42 117 142
0.391025 0.180172 -0.109098 58 83 139
-0.648607 -0.282273 0.453530 68 1 84
0.171219 0.213760 -0.168594 46 109 142
0.113581 -0.034640 -0.290490 56 185 118
-0.360304 0.307556 -0.080001 68 1 84
-0.577594 -0.324634 0.016961 68 1 84
-0.083243 -0.031979 -0.322359 146 215 65
0.604070 -0.342831 0.484549 68 1 84
-0.007912 -0.002521 -0.418647 33 140 141
-0.516616 0.315160 0.177530 68 1 84
0.023837 -0.195359 -0.362512 36 133 141
0.349269 -0.107268 -0.175927 50 99 141
0.448162 -0.519856 -0.057192 68 1 84
-0.550848 0.291682 0.409949 68 1 84
-0.544290 0.310931 0.452913 68 1 84
-0.401535 -0.271475 -0.119295 68 1 84
-0.539748 0.306551 0.338786 68 1 84
0.400898 -0.096929 -0.132625 72 35 116
0.399628 -0.184342 -0.123207 63 71 136
0.496933 0.038510 -0.016034 52 94 141
0.333734 0.562350 0.045997 68 1 84
0.455110 -0.468467 -0.057063 68 1 84
0.546245 0.285188 0.142988 70 49 126
-0.018280 -0.375193 -0.286126 42 117 142
-0.387646 0.457678 0.051728 68 1 84
-0.188404 0.289233 -0.163156 72 26 108
0.461849 -0.079320 -0.058210 69 52 127
0.278671 0.590268 0.014063 68 1 84
-0.063993 -0.180608 -0.408822 107 205 89
-0.647208 -0.117016 0.365615 68 1 84
-0.199432 0.510491 -0.148893 68 1 84
0.606965 0.243119 0.432535 68 1 84
-0.061325 0.424274 -0.221792 68 1 84
0.374513 0.420472 -0.026183 68 1 84
0.197386 0.264472 -0.161420 61 76 137
0.329968 0.302726 -0.113490 68 3 87
0.371638 -0.373844 -0.105139 42 119 142
0.105682 0.367552 -0.205737 68 1 84
0.033101 0.536488 -0.247609 68 1 84
-0.147310 -0.115904 -0.281371 114 207 85
0.594680 -0.179207 0.180479 68 1 84
0.574756 0.263754 0.211397 61 74 137
0.169930 -0.509196 -0.327917 57 84 139
0.624080 0.080488 0.376414 71 39 119
0.242471 0.529768 -0.112974 68 1 84
0.138872 -0.038234 -0.236494 50 181 122
0.185811 -0.091586 -0.232840 66 190 113
-0.254735 0.582973 0.014310 68 1 84
-0.367123 0.289336 -0.083645 68 1 84
0.330512 -0.558667 -0.242522 35 137 141
-0.304798 0.069588 -0.196864 51 96 141
-0.365371 0.390425 -0.029824 68 1 84
-0.304000 0.583361 0.142570 68 1 84
-0.661351 -0.347855 0.389859 68 1 84
-0.299205 -0.084009 -0.205298 42 176 126
-0.131362 0.293680 -0.212230 44 114 142
-0.411697 -0.355974 -0.204017 68 1 84
0.118736 0.065119 -0.256180 243 229 30
0.501646 -0.059112 -0.006034 66 61 132
0.392820 -0.457209 -0.168038 68 1 84
0.174800 -0.250296 -0.183272 91 200 98
0.633919 -0.011181 0.502658 61 75 137
0.137040 0.329165 -0.195304 68 1 84
-0.435835 0.079912 -0.124217 68 1 84
-0.087624 -0.180090 -0.374228 31 163 134
-0.317967 -0.414990 -0.276723 64 67 135
0.332404 -0.213868 -0.157198 53 92 140
0.293576 0.453440 -0.085069 68 1 84
-0.116512 -0.237906 -0.287296 116 208 84
-0.139578 -0.341152 -0.209986 56 87 140
-0.088823 0.641984 -0.137777 68 1 84
-0.051323 0.444438 -0.232466 68 1 84
-0.224411 0.408572 -0.127536 68 1 84
0.561742 -0.035419 0.105756 65 66 134
0.388824 0.349475 -0.047707 68 1 84
0.000716 0.171739 -0.294726 34 137 141
-0.472169 0.428836 0.293992 68 1 84
-0.335813 -0.348402 -0.230200 68 1 84
0.188836 -0.454896 -0.290754 56 86 139
-0.552323 0.182884 0.140530 68 1 84
0.157427 -0.235587 -0.189207 30 159 136
0.212216 -0.004342 -0.222672 194 223 34
0.510155 -0.233997 0.010532 68 1 84
0.410278 0.072607 -0.126200 64 67 135
-0.540870 0.291173 0.266554 68 1 84
0.114258 0.441361 -0.218915 68 1 84
-0.489670 0.400049 0.304842 68 1 84
-0.646513 -0.204888 0.290849 68 1 84
0.076973 0.008413 -0.269633 85 198 102
-0.004878 -0.221144 -0.374962 83 197 103
-0.584472 0.002540 0.127509 68 1 84
0.191269 -0.169899 -0.212301 81 196 104
-0.515826 0.108426 0.006166 68 1 84
0.169272 0.503967 -0.195928 68 1 84
-0.142845 0.161571 -0.247212 31 148 139
-0.292131 -0.348372 -0.214459 68 1 84
0.255232 0.121532 -0.202490 38 129 142
0.147023 0.205122 -0.187137 54 91 140
-0.530496 0.268085 0.152307 68 1 84
0.215623 -0.199256 -0.190402 64 189 114
0.612164 -0.597086 0.459377 68 1 84
0.550087 -0.287098 0.083871 68 1 84
0.602915 -0.333620 0.452267 68 1 84
-0.160158 -0.187470 -0.244867 121 209 81
-0.590060 -0.437431 0.060696 68 1 84
0.178298 -0.194271 -0.203216 36 170 130
-0.419551 -0.335974 -0.167372 68 1 84
0.037544 -0.170098 -0.374507 75 194 108
0.563160 0.325938 0.254349 67 60 132
-0.479926 0.136329 -0.044651 68 1 84
-0.627559 -0.023553 0.559943 68 1 84
0.509279 0.135303 0.012510 57 85 139
0.143955 0.456918 -0.208382 68 1 84
-0.639012 -0.056691 0.342367 68 1 84
-0.125288 0.180136 -0.253085 35 137 141
0.614602 -0.066435 0.247683 59 81 138
0.499622 0.255248 0.029685 71 43 122
-0.100419 0.209324 -0.235145 55 89 140
0.357576 0.478262 -0.001654 68 1 84
0.343729 0.255591 -0.124703 64 67 135
0.453423 -0.237539 -0.067807 69 8 91
0.262757 0.389594 -0.119660 68 1 84
0.440780 -0.515540 -0.072836 68 1 84
-0.160108 -0.397063 -0.244575 49 102 141
-0.612013 0.024843 0.268315 68 1 84
-0.154898 0.012452 -0.238072 41 175 127
-0.399035 0.522500 0.230745 68 1 84
0.598201 0.226811 0.293535 72 35 116
0.617294 -0.232660 0.305717 68 1 84
-0.332171 0.172533 -0.151670 68 1 84
0.216009 0.167725 -0.170334 42 119 142
-0.242937 0.475523 -0.105663 68 1 84
-0.454829 -0.289749 -0.083133 68 1 84
0.623162 0.122934 0.447781 71 15 98
0.584858 0.287099 0.310204 72 25 107
0.545366 -0.362256 0.083285 68 1 84
0.124365 -0.001213 -0.242379 94 201 97
0.619489 -0.509569 0.469792 68 1 84
0.122343 0.129020 -0.254601 129 211 76
-0.296707 0.309667 -0.112696 68 1 84
-0.649247 -0.134504 0.396128 68 1 84
-0.499693 -0.416354 -0.180341 68 1 84
0.214751 -0.437476 -0.270906 67 59 131
0.491592 -0.562658 0.036857 68 1 84
0.491252 -0.437188 -0.002064 68 1 84
0.232305 -0.416425 -0.254688 71 38 118
-0.611391 -0.030133 0.498672 68 1 84
0.298526 0.223365 -0.154082 62 72 136
0.612092 -0.535128 0.409949 68 1 84
-0.215670 -0.402238 -0.245581 71 43 122
0.572771 -0.056207 0.127140 68 1 84
0.545985 0.174709 0.077183 63 71 136
0.320552 0.000684 -0.202024 30 151 138
-0.154655 0.129366 -0.242503 79 195 105
-0.068108 -0.180820 -0.404569 103 204 92
0.170635 -0.062246 -0.232160 42 176 126
0.011753 0.656518 -0.142094 68 1 84
-0.669069 -0.464494 0.369098 68 1 84
-0.103199 0.299334 -0.224723 50 99 141
0.353692 -0.240140 -0.140245 41 120 142
0.601678 -0.451072 0.369462 68 1 84
-0.162620 -0.428717 -0.293725 49 100 141
0.202248 -0.384083 -0.196438 31 161 135
-0.663304 -0.344428 0.452118 68 1 84
-0.400108 0.433215 0.044597 68 1 84
0.123183 0.186479 -0.215699 40 122 142
-0.635069 -0.025761 0.389716 68 1 84
-0.615177 -0.245230 0.096073 68 1 84
-0.145918 -0.077958 -0.313223 43 177 125
0.335465 -0.088944 -0.189647 46 107 142
-0.229114 0.201825 -0.156439 68 1 84
-0.568502 0.134270 0.161553 68 1 84
-0.291757 -0.117488 -0.196796 34 138 141
-0.096036 -0.033972 -0.347795 34 138 141
-0.398145 -0.230363 -0.119652 68 1 84
0.524051 -0.017361 0.030401 52 94 141
0.611505 -0.508567 0.404442 68 1 84
0.496209 -0.377562 -0.004561 68 1 84
0.456761 0.499431 0.184870 68 1 84
0.346169 0.576303 0.084390 68 1 84
-0.338955 0.215205 -0.132114 68 1 84
0.494161 0.412345 0.147522 67 59 131
-0.640397 -0.131566 0.457487 68 1 84
-0.525875 0.330679 0.506870 68 1 84
0.227987 -0.155221 -0.209932 83 197 103
-0.011810 0.304114 -0.237264 47 105 141
-0.679961 -0.456103 0.417102 68 1 84
-0.445096 -0.431474 -0.237709 68 1 84
0.556143 -0.429853 0.145110 68 1 84
-0.464421 -0.506867 -0.220011 68 1 84
-0.656850 -0.353170 0.345641 68 1 84
-0.231723 -0.045916 -0.226336 105 204 91
-0.623400 -0.091905 0.180946 68 1 84
-0.690137 -0.479125 0.465898 68 1 84
0.173427 0.538658 -0.183135 68 1 84
-0.436703 0.343555 0.021495 68 1 84
0.233505 0.316702 -0.144515 70 11 94
-0.381264 0.531063 0.176764 68 1 84
0.363045 -0.180998 -0.150887 70 49 126
0.460945 0.332989 0.019715 67 59 131
-0.259692 0.174121 -0.184783 68 55 129
-0.002202 -0.175845 -0.416716 47 179 123
-0.136924 -0.200603 -0.269164 233 228 25
0.627978 -0.036838 0.362520 64 68 135
-0.404391 0.512736 0.253191 68 1 84
-0.558337 0.200406 0.178116 68 1 84
0.602114 -0.351469 0.364437 68 1 84
-0.092649 -0.156998 -0.397178 54 184 119
0.267942 0.511684 -0.088590 68 1 84
-0.576809 -0.490239 0.026678 68 1 84
-0.645887 -0.348412 0.239330 68 1 84
-0.159995 0.172020 -0.229261 31 161 135
0.086346 -0.205495 -0.247117 47 179 123
0.490921 -0.317147 -0.014252 68 1 84
-0.624781 -0.394402 0.156085 68 1 84
-0.514726 -0.419687 -0.156214 68 1 84
0.357270 0.542785 0.059836 68 1 84
0.349219 0.141324 -0.151187 38 128 142
0.285524 -0.538628 -0.277672 47 105 141
-0.620546 0.049553 0.406302 68 1 84
0.550967 0.393437 0.329822 55 88 140
0.035605 -0.272549 -0.264097 44 112 142
-0.596378 0.116802 0.285612 68 1 84
0.423434 0.528153 0.152809 68 1 84
-0.065688 0.291995 -0.240708 52 95 141
0.622109 -0.184770 0.408634 68 1 84
-0.492876 0.148558 -0.015419 68 1 84
-0.151875 -0.106384 -0.274900 146 215 65
-0.113350 -0.132682 -0.375529 44 177 125
0.533864 0.287583 0.114278 72 32 113
-0.457465 0.375583 0.088436 68 1 84
-0.355611 -0.290613 -0.158994 68 1 84
0.310995 -0.261020 -0.145139 50 99 141
0.608936 0.035548 0.229760 71 21 103
0.611805 0.119830 0.261914 69 53 128
-0.638008 -0.458729 0.202180 68 1 84
-0.066760 -0.024175 -0.412852 40 174 127
-0.088362 0.409685 -0.208308 68 1 84
-0.274989 0.531564 -0.025042 68 1 84
-0.531210 -0.113396 -0.040135 68 1 84
0.206508 -0.503502 -0.322221 55 88 140
0.583210 -0.559347 0.302721 68 1 84
-0.573135 -0.085821 0.037077 68 1 84
0.362989 -0.118359 -0.162945 48 103 141
-0.108847 -0.091990 -0.416767 71 192 110
-0.073584 -0.107767 -0.459244 194 223 34
0.078109 -0.404465 -0.228054 71 39 119
-0.444737 0.000508 -0.127778 68 1 84
0.015676 -0.071268 -0.463876 39 173 128
-0.429214 0.225976 -0.059510 68 1 84
-0.549435 0.031769 0.037514 68 1 84
-0.125184 0.597832 -0.171468 68 1 84
0.137191 -0.396677 -0.217463 37 171 129
0.165231 0.135917 -0.221042 36 170 130
0.611763 0.165810 0.505384 69 52 127
0.066691 0.373488 -0.217539 68 1 84
0.388541 0.541222 0.104117 68 1 84
0.612308 0.106243 0.256500 72 35 116
-0.610746 0.044614 0.557666 69 50 127
0.591074 0.281183 0.345742 67 59 131
0.586815 -0.263149 0.171719 68 1 84
-0.488750 -0.483198 -0.194494 68 1 84
-0.550315 -0.428684 -0.052011 68 1 84
-0.140006 0.281838 -0.210487 39 125 142
-0.438826 0.438752 0.135371 68 1 84
-0.123789 -0.489495 -0.328743 37 131 141
-0.137595 0.308472 -0.200869 61 74 137
-0.622454 -0.130956 0.155005 68 1 84
-0.548557 -0.214822 -0.017350 68 1 84
0.536276 0.301742 0.132906 71 20 102
0.185969 0.408733 -0.173200 68 1 84
0.495074 0.069681 -0.015863 65 66 134
0.624401 -0.176474 0.383948 68 1 84
-0.638560 -0.095213 0.440670 68 1 84
0.279074 0.406249 -0.107827 68 1 84
0.443821 -0.114823 -0.079375 59 81 138
0.034170 -0.038730 -0.420679 36 133 141
-0.046366 0.125604 -0.292083 46 178 124
0.612792 0.039345 0.246151 72 35 116
-0.569964 0.203197 0.258671 68 1 84
-0.582259 -0.225942 0.031773 68 1 84
0.595474 -0.562956 0.344407 68 1 84
-0.566615 -0.372239 -0.006207 68 1 84
0.262912 0.215535 -0.158162 46 108 142
0.308955 -0.105761 -0.199822 30 160 135
-0.131808 -0.455780 -0.320602 60 77 138
-0.198400 0.321194 -0.153733 68 1 84
0.557776 0.337069 0.249178 59 81 138
-0.640583 -0.260755 0.188956 68 1 84
0.042657 -0.217550 -0.297717 36 170 130
-0.372254 0.087512 -0.171039 68 1 84
-0.648205 -0.275418 0.263611 68 1 84
-0.486919 0.123148 -0.039578 68 1 84
-0.499266 0.015811 -0.056743 68 1 84
0.220780 -0.424565 -0.263228 61 76 137
-0.640115 -0.449293 0.214169 68 1 84
-0.648281 -0.110890 0.386135 68 1 84
-0.046838 0.272961 -0.257459 32 145 140
0.592985 0.275867 0.351517 71 17 99
0.648481 -0.070692 0.494259 68 1 84
0.190758 0.140572 -0.202453 34 139 141
0.619188 0.145326 0.391356 72 35 116
0.532004 0.323160 0.141514 68 1 84
0.209053 0.584579 -0.108835 68 1 84
-0.505065 -0.279865 -0.048597 68 1 84
0.491602 -0.035166 -0.023311 66 62 133
-0.148336 -0.286258 -0.207643 51 182 121
-0.590694 0.160347 0.493777 68 1 84
-0.439051 -0.292283 -0.093854 68 1 84
0.522258 -0.421877 0.047752 68 1 84
0.605012 0.216914 0.499455 68 1 84
-0.641308 -0.306972 0.201886 68 1 84
-0.410251 0.143414 -0.121406 68 1 84
0.609914 -0.265128 0.493258 68 1 84
-0.522258 -0.117106 -0.051915 68 1 84
-0.571539 -0.377594 0.007343 68 1 84
-0.530293 -0.275887 -0.028926 68 1 84
0.645941 -0.090223 0.474181 68 2 85
-0.191309 0.589668 -0.103206 68 1 84
0.178945 0.616365 -0.088465 68 1 84
-0.279026 -0.417739 -0.281070 66 61 132
0.617734 -0.174995 0.486299 68 1 84
0.476728 0.434373 0.135615 67 58 131
-0.044379 0.179528 -0.282469 32 164 133
0.351101 0.092425 -0.165116 36 132 141
0.516800 -0.244247 0.021265 68 1 84
0.270541 -0.076575 -0.220650 119 208 82
0.517326 0.195171 0.033823 71 44 123
0.176849 0.615238 -0.096614 68 1 84
0.557243 -0.123917 0.095188 68 1 84
-0.179974 -0.231759 -0.205892 112 206 86
-0.561919 0.261572 0.389710 68 1 84
0.555491 -0.303019 0.099350 68 1 84
-0.520744 0.228816 0.086817 68 1 84
0.359338 0.239022 -0.119165 68 57 130
-0.622337 -0.473938 0.157615 68 1 84
0.130873 0.567856 -0.201080 68 1 84
-0.345137 0.486473 0.017294 68 1 84
0.099104 -0.325377 -0.185106 30 157 136
-0.396969 0.322346 -0.038800 68 1 84
0.083339 0.615999 -0.187721 68 1 84
-0.565764 0.180321 0.189098 68 1 84
0.013400 -0.077116 -0.467452 39 173 128
-0.240470 0.392607 -0.115254 68 1 84
0.319143 0.563691 0.028640 68 1 84
-0.309121 0.448489 -0.049336 68 1 84
-0.162999 -0.365571 -0.206177 36 134 141
-0.301794 0.584969 0.145685 68 1 84
0.120315 -0.066119 -0.281607 85 198 102
0.324019 -0.406345 -0.186652 68 1 84
0.263847 -0.214105 -0.174309 38 172 129
0.294128 -0.323010 -0.144800 43 115 142
-0.622544 0.029275 0.349299 68 1 84
-0.300823 0.584910 0.140019 68 1 84
-0.690071 -0.506754 0.467860 68 1 84
-0.601539 0.121048 0.465218 68 1 84
-0.627079 -0.166687 0.154373 68 1 84
-0.466818 0.377180 0.112055 68 1 84
-0.296733 -0.139125 -0.185545 40 122 142
0.620486 0.120205 0.358100 72 34 115
-0.093796 -0.180982 -0.358511 42 176 126
-0.529857 0.325813 0.330397 68 1 84
0.181346 0.080427 -0.231764 75 194 108
0.560263 0.170973 0.107501 48 103 141
-0.685343 -0.439113 0.499467 68 1 84
-0.145361 -0.410248 -0.268413 66 61 132
-0.678479 -0.410938 0.457177 68 1 84
-0.339070 -0.328342 -0.178007 68 1 84
0.325918 -0.371044 -0.121769 40 122 142
0.362785 -0.507625 -0.225260 68 3 87
-0.474943 0.198649 -0.015810 68 1 84
-0.427367 -0.237532 -0.100932 68 1 84
0.363677 0.573925 0.143380 68 1 84
-0.364420 0.092935 -0.172499 68 1 84
0.339814 0.284238 -0.115646 66 62 133
-0.419524 -0.252145 -0.103526 68 1 84
0.012318 0.197787 -0.259869 59 186 117
0.302028 -0.474264 -0.258467 70 11 94
0.377570 0.373566 -0.046304 68 1 84
0.560686 -0.572851 0.224641 68 1 84
-0.208625 -0.405364 -0.249554 68 55 129
0.280036 -0.044299 -0.219423 181 221 43
0.010052 -0.015413 -0.368135 91 200 98
-0.588064 -0.456760 0.059659 68 1 84
-0.404170 0.228312 -0.083491 68 1 84
0.575346 0.098073 0.130900 47 106 141
0.243322 -0.408453 -0.244601 68 1 84
0.376889 -0.044598 -0.164125 47 106 141
-0.338817 0.055690 -0.194840 72 33 114
0.369960 -0.408345 -0.149273 68 1 84
0.485356 0.220181 -0.001183 68 1 84
0.229461 0.526986 -0.133849 68 1 84
-0.423385 -0.006371 -0.149524 71 21 103
0.353518 0.041660 -0.178515 38 127 142
-0.313080 0.515692 0.007709 68 1 84
0.628818 -0.025260 0.334438 72 28 110
-0.519448 0.186193 0.059262 68 1 84
0.113030 -0.281336 -0.189717 32 164 133
0.398639 0.015100 -0.145018 40 122 142
0.146441 0.226740 -0.196125 61 76 137
-0.490966 -0.414548 -0.191435 68 1 84
-0.581842 0.025127 0.137628 68 1 84
0.162575 0.549699 -0.186808 68 1 84
0.000039 0.036427 -0.310882 215 226 25
-0.647313 -0.209712 0.424579 68 1 84
-0.042597 0.548067 -0.241207 68 1 84
0.011642 0.072237 -0.292589 114 207 85
0.602361 -0.285181 0.246907 68 1 84
-0.476196 -0.022624 -0.092101 68 1 84
-0.500798 0.223261 0.039613 68 1 84
-0.620710 -0.403355 0.144653 68 1 84
-0.515599 -0.499422 -0.144697 68 1 84
0.373636 0.557565 0.100941 68 1 84
0.226119 -0.365597 -0.185810 32 144 140
0.601275 -0.201993 0.211538 68 1 84
0.512441 -0.282517 0.013664 68 1 84
0.052519 -0.067290 -0.414935 34 138 141
0.424047 0.370529 -0.001946 68 1 84
0.615529 -0.200097 0.483457 68 1 84
-0.398108 0.470649 0.087853 68 1 84
