ply
format ascii 1.0
element vertex 1246
property float x
property float y
property float z
property uchar red
property uchar green
property uchar blue
end_header
0.699850 -0.507955 0.450280 165 218 53
0.109446 0.228055 -0.257595 68 1 84
-0.624894 -0.452387 0.272639 61 187 116
0.648202 -0.504277 0.222393 105 204 91
-0.642128 -0.306411 0.385575 32 143 140
0.652481 -0.097153 0.331935 75 194 108
0.695160 -0.259185 0.485198 212 225 26
0.217203 -0.102272 -0.199035 68 1 84
-0.533738 -0.142206 -0.004385 49 102 141
-0.373593 0.363578 -0.063039 68 1 84
0.616217 0.064896 0.325882 30 153 138
-0.591040 -0.169089 0.098590 31 147 139
-0.488535 0.386562 0.254629 55 89 140
-0.128395 0.347620 -0.254856 68 1 84
-0.589137 -0.424614 0.111207 35 136 141
-0.524230 0.306533 0.331304 49 101 141
0.466814 0.206583 -0.043194 51 96 141
-0.157686 -0.021642 -0.274787 68 1 84
-0.451921 -0.214929 -0.058594 58 82 139
-0.613896 -0.106998 0.535189 49 100 141
-0.136747 0.557699 -0.200812 68 1 84
-0.582253 -0.001230 0.166139 57 85 139
0.473375 -0.170287 -0.087445 51 96 141
-0.235922 -0.028119 -0.202540 68 1 84
-0.500173 -0.485093 -0.100295 68 190 112
-0.011138 0.547869 -0.242819 68 1 84
-0.637339 -0.229315 0.301535 33 141 140
-0.344689 0.535173 0.117393 70 14 97
-0.637766 -0.231988 0.459149 30 158 136
0.029635 -0.453798 -0.267978 59 80 138
-0.323494 0.543733 0.086337 70 9 92
0.571047 -0.263120 0.028010 32 144 140
-0.648637 -0.302344 0.541730 33 142 140
-0.349276 -0.471316 -0.191984 32 165 133
-0.097049 -0.401837 -0.213303 49 101 141
0.501873 0.340145 0.097432 40 122 142
0.557083 0.288029 0.228139 31 150 139
-0.388745 -0.292460 -0.100068 66 61 132
-0.160758 -0.296011 -0.150410 70 49 126
-0.477697 0.241049 0.021823 71 43 122
-0.253340 -0.536451 -0.244348 34 167 132
0.119428 0.308346 -0.276644 68 1 84
-0.469359 0.280221 0.031097 69 50 127
-0.432574 -0.557387 -0.158216 136 213 71
0.540826 0.347467 0.404896 47 179 123
-0.345731 0.505658 0.038852 69 6 90
-0.135371 0.131614 -0.270352 68 1 84
0.648350 -0.017895 0.463213 66 190 113
-0.117212 0.557581 -0.214629 68 1 84
-0.424975 0.061981 -0.101151 72 29 111
-0.544457 0.149179 0.147282 57 85 139
0.687336 -0.223522 0.351336 98 202 95
-0.614777 -0.093117 0.465758 41 121 142
-0.285727 0.496796 -0.067978 68 1 84
-0.354472 -0.198055 -0.121886 71 24 106
-0.511474 -0.079400 -0.033903 53 93 140
0.637295 -0.157241 0.165075 30 157 136
-0.423371 -0.261611 -0.075598 64 67 135
0.535977 0.023241 -0.013015 63 69 135
0.574626 0.092369 0.144836 32 165 133
0.697371 -0.229788 0.419831 134 212 73
-0.637590 -0.284625 0.433982 31 146 140
0.475347 -0.136295 -0.095916 63 69 135
0.674254 -0.187672 0.466678 157 217 58
-0.041075 -0.172315 -0.388616 68 1 84
0.308143 -0.238354 -0.144601 59 81 138
0.589978 -0.241009 0.045447 33 167 132
-0.247115 0.571960 -0.002283 68 1 84
0.686007 -0.228502 0.344489 100 203 93
-0.422644 -0.057814 -0.110173 66 62 133
0.556954 -0.017736 0.006985 54 90 140
0.483799 0.430489 0.360471 34 139 141
-0.234687 -0.503115 -0.241123 53 183 120
0.146472 -0.028566 -0.275545 68 1 84
-0.395814 -0.456685 -0.169612 64 189 114
0.228571 -0.305480 -0.140103 58 83 139
0.569693 -0.128600 0.000678 41 120 142
-0.534317 0.215518 0.503575 46 108 142
-0.039374 -0.133421 -0.417308 68 1 84
-0.500818 -0.529661 -0.094477 96 201 96
-0.551120 -0.030047 0.033492 54 90 140
-0.542070 -0.138644 0.005716 44 112 142
-0.108700 0.252872 -0.280295 68 1 84
-0.526329 0.230486 0.144153 61 76 137
-0.245527 0.112547 -0.207611 68 1 84
0.293050 -0.074192 -0.183187 68 1 84
0.634642 -0.249417 0.132976 30 156 137
0.013148 -0.096644 -0.443331 68 1 84
-0.634469 -0.251221 0.478567 30 159 136
0.332983 0.526481 0.028169 51 96 141
0.473629 0.415477 0.125262 32 144 140
-0.582327 -0.048095 0.104611 44 114 142
-0.041664 0.009641 -0.379007 68 1 84
0.278850 0.418503 -0.137933 68 1 84
-0.516129 0.323867 0.350242 49 100 141
0.391271 -0.048181 -0.148762 69 53 128
0.475151 0.441791 0.260205 32 144 140
-0.238617 -0.257999 -0.146189 70 49 126
-0.154854 -0.482034 -0.250876 31 149 139
0.620987 -0.430700 0.124286 165 218 53
0.536474 0.085027 0.017746 66 61 132
-0.029967 -0.266547 -0.341612 68 1 84
0.494056 -0.313758 -0.033501 37 130 142
0.084591 -0.141825 -0.348486 68 1 84
0.355028 0.406290 -0.073926 70 49 126
0.616973 -0.123241 0.105859 37 130 142
-0.415727 0.368180 0.002413 71 15 98
-0.637730 -0.209446 0.347035 36 132 141
0.461376 0.194328 -0.054920 58 83 139
-0.072792 -0.235994 -0.302318 68 1 84
0.404762 0.124795 -0.128488 70 47 124
0.064160 -0.337049 -0.229870 68 1 84
-0.633093 -0.498878 0.343763 89 199 100
0.651729 -0.291819 0.185608 100 203 93
-0.283788 0.233092 -0.190307 68 1 84
0.197811 0.226026 -0.226817 68 1 84
-0.390125 -0.286743 -0.099491 60 78 138
0.670824 -0.186028 0.490635 197 223 33
0.551567 0.327096 0.330824 40 174 127
-0.473736 0.354839 0.104092 71 37 117
0.174888 0.465142 -0.218026 68 1 84
0.233993 -0.058951 -0.202712 68 1 84
0.611490 0.117822 0.350521 32 145 140
0.174511 0.497682 -0.214335 68 1 84
0.331512 0.518510 0.009774 46 107 142
-0.118297 0.131359 -0.281047 68 1 84
0.631797 -0.159090 0.141071 35 169 130
-0.460111 0.428868 0.225209 56 87 140
0.381898 0.202349 -0.132595 70 11 94
0.392785 0.488731 0.064288 44 113 142
-0.639693 -0.209530 0.411041 30 153 138
-0.499874 0.128333 0.011681 66 61 132
0.013661 0.344844 -0.265497 68 1 84
-0.637297 -0.279090 0.310072 30 151 138
0.047873 0.332703 -0.278912 68 1 84
-0.619806 -0.114587 0.437486 41 121 142
0.503571 0.406308 0.351029 37 171 129
-0.634345 -0.170191 0.489227 36 133 141
-0.517210 0.325992 0.318974 48 104 141
0.214263 -0.498815 -0.248633 31 147 139
0.125607 -0.051928 -0.336551 68 1 84
-0.433086 0.453101 0.157170 64 67 135
-0.412519 0.068644 -0.111128 72 30 112
0.253093 0.182809 -0.220731 68 1 84
0.107713 0.154033 -0.289354 68 1 84
-0.448002 0.133036 -0.062605 72 28 110
0.090380 -0.519635 -0.273183 35 137 141
0.684480 -0.294240 0.332510 79 195 105
0.083796 -0.162511 -0.322609 68 1 84
0.325197 0.335383 -0.142082 69 5 88
0.114573 -0.101033 -0.306251 68 1 84
-0.215937 0.350576 -0.201195 68 1 84
-0.003522 -0.167004 -0.408128 68 1 84
0.527140 0.294207 0.116481 34 138 141
0.332179 -0.374491 -0.159655 30 156 137
-0.522163 0.124523 0.052995 66 64 133
-0.482319 -0.180048 -0.045265 46 107 142
0.721749 -0.404105 0.484988 167 219 51
-0.547379 0.169357 0.196084 49 101 141
0.176071 0.088756 -0.234901 68 1 84
-0.047831 0.479756 -0.267334 68 1 84
0.228486 -0.049331 -0.205154 68 1 84
0.288429 0.092099 -0.195586 68 1 84
-0.126439 0.473333 -0.238316 68 1 84
-0.186240 -0.304958 -0.136488 66 61 132
0.010731 0.073510 -0.319493 68 1 84
0.552069 0.201920 0.126633 38 128 142
-0.641097 -0.310158 0.363858 31 149 139
0.548205 0.334523 0.403254 53 183 120
0.049116 -0.253872 -0.323983 68 1 84
-0.211529 -0.234161 -0.154940 71 40 120
-0.599055 -0.408884 0.145472 31 150 139
-0.595798 -0.015270 0.384946 46 109 142
-0.005429 0.550857 -0.241693 68 1 84
-0.566422 0.111471 0.331911 44 112 142
-0.641225 -0.422504 0.503186 30 155 137
0.167016 0.564213 -0.181258 68 1 84
-0.046529 0.125255 -0.316376 68 1 84
0.216737 0.494009 -0.177169 68 1 84
-0.268087 -0.095791 -0.178132 68 1 84
-0.549346 0.215029 0.371338 44 113 142
0.571334 0.101089 0.135748 37 130 142
0.645777 -0.135137 0.230468 40 174 127
-0.460873 -0.392997 -0.095954 33 140 141
-0.573937 0.064165 0.322567 44 112 142
-0.525955 -0.175429 -0.005640 46 108 142
0.573304 0.149373 0.179220 39 124 142
-0.273199 -0.480175 -0.215322 31 163 134
-0.200492 0.356565 -0.210171 68 1 84
-0.541891 0.242225 0.271275 40 123 142
-0.411629 0.486778 0.212472 71 43 122
0.187441 -0.172881 -0.187019 68 1 84
0.447208 0.466229 0.177671 32 164 133
-0.058334 0.607566 -0.166523 68 1 84
-0.636766 -0.271325 0.491603 30 156 137
-0.523926 -0.358091 -0.001690 45 111 142
-0.077323 -0.231978 -0.296891 68 1 84
0.583547 -0.464853 0.039483 109 206 88
0.671050 -0.145433 0.455873 141 214 68
0.643231 -0.432778 0.192770 197 223 33
0.651577 -0.038188 0.531243 66 190 113
0.452641 0.466459 0.250549 30 159 136
0.013832 -0.413473 -0.270399 65 65 134
-0.173020 -0.468487 -0.234436 32 165 133
-0.455276 0.144785 -0.050080 72 29 111
-0.109913 0.179504 -0.286938 68 1 84
0.696045 -0.279362 0.431318 215 226 25
-0.623978 -0.375642 0.250126 53 183 120
0.185870 0.275549 -0.230812 68 1 84
0.056008 0.196148 -0.284964 68 1 84
0.166381 0.540916 -0.201569 68 1 84
-0.396027 0.459323 0.063056 72 25 107
-0.429902 -0.303534 -0.064891 61 76 137
-0.634946 -0.238289 0.271715 30 152 138
0.684730 -0.348955 0.337624 89 199 100
0.588919 -0.005070 0.105954 43 116 142
0.490803 -0.291001 -0.031999 37 131 141
-0.555410 -0.481401 0.000783 34 167 132
-0.547811 0.105444 0.115136 64 68 135
-0.247785 0.179894 -0.215033 68 1 84
0.412723 -0.311109 -0.091095 47 105 141
0.370741 -0.325658 -0.114787 36 132 141
-0.266254 -0.023885 -0.193885 68 1 84
0.043622 0.326610 -0.285200 68 1 84
-0.620999 -0.160231 0.203020 37 131 141
0.196738 0.567124 -0.142746 68 1 84
-0.579131 -0.276916 0.096149 42 119 142
-0.571103 -0.427094 0.057367 30 160 135
0.068106 -0.361700 -0.222605 70 14 97
-0.583728 -0.202359 0.087713 33 141 140
-0.610968 -0.094466 0.200328 38 127 142
-0.528253 -0.275553 0.031564 47 105 141
-0.567095 -0.354380 0.075460 44 114 142
0.540958 -0.239102 -0.008569 33 142 140
0.439520 0.281114 -0.045373 56 86 139
0.152148 -0.528552 -0.268584 30 159 136
-0.164292 -0.379605 -0.164652 53 93 140
0.361965 -0.104334 -0.153871 70 14 97
-0.512661 0.259435 0.121078 59 81 138
-0.441878 0.445777 0.173449 60 78 138
-0.382325 0.026229 -0.137902 69 6 90
0.049414 -0.351394 -0.261791 68 1 84
0.374758 0.260674 -0.125104 69 5 88
0.271325 -0.216940 -0.153046 61 74 137
0.601785 -0.052483 0.106438 34 138 141
-0.425530 0.472048 0.268532 62 72 136
0.422214 0.119319 -0.115297 72 35 116
0.414908 0.232465 -0.095771 71 40 120
-0.500432 0.342084 0.178632 53 93 140
-0.241295 -0.518000 -0.243690 41 175 127
-0.269282 0.525431 -0.062437 68 1 84
0.190113 -0.251630 -0.157100 70 49 126
-0.073221 -0.417055 -0.242662 51 96 141
0.640522 -0.267773 0.149571 141 214 68
-0.613060 -0.218251 0.160586 31 147 139
0.583234 0.045196 0.141735 30 158 136
-0.209941 -0.168340 -0.179885 68 1 84
-0.438020 -0.319064 -0.058218 65 66 134
-0.455050 0.127353 -0.055222 72 32 113
-0.081178 0.123474 -0.302672 68 1 84
0.581831 -0.053037 0.042554 34 138 141
-0.560377 0.121562 0.509673 46 109 142
0.471653 0.083839 -0.074383 67 60 132
-0.472470 -0.418480 -0.103012 32 145 140
-0.562846 0.111551 0.290943 47 105 141
0.585349 -0.316225 0.054152 69 191 111
-0.404089 -0.281856 -0.091140 55 88 140
0.429857 0.485478 0.183777 37 130 142
0.161191 -0.287151 -0.151335 70 49 126
0.410117 -0.240280 -0.100869 46 108 142
-0.570700 0.041498 0.179737 53 92 140
-0.499076 0.310159 0.488563 45 111 142
0.721208 -0.335608 0.456807 207 225 28
-0.079898 -0.345338 -0.213466 69 53 128
-0.512963 0.226361 0.094725 64 68 135
-0.068084 0.036843 -0.301526 68 1 84
-0.001833 -0.522221 -0.277013 37 130 142
0.299182 0.296263 -0.173581 68 1 84
0.041707 0.170960 -0.310314 68 1 84
0.337583 0.381758 -0.107908 72 28 110
-0.394610 0.448359 0.045884 68 2 85
0.511383 -0.190911 -0.054170 44 114 142
-0.481579 0.124598 -0.019005 68 55 129
0.568613 -0.110389 -0.000037 43 116 142
-0.536035 0.211113 0.502820 45 111 142
0.162208 -0.526065 -0.267290 30 157 136
-0.260132 -0.183160 -0.151535 68 1 84
-0.594722 -0.246089 0.118436 35 136 141
-0.514775 -0.535823 -0.073616 107 205 89
-0.148832 -0.062195 -0.283946 68 1 84
-0.473657 -0.035122 -0.068543 66 61 132
0.314595 0.502067 -0.042750 59 81 138
-0.590235 0.010940 0.388545 45 111 142
0.681502 -0.302504 0.315853 62 188 115
-0.186565 -0.310175 -0.132914 63 71 136
0.174115 -0.070795 -0.215195 68 1 84
-0.585182 0.038678 0.503221 37 131 141
0.112351 0.428947 -0.249760 68 1 84
0.587499 0.088347 0.211326 36 134 141
-0.624170 -0.335793 0.233770 37 171 129
0.538447 -0.443615 -0.051608 146 215 65
-0.406433 -0.525692 -0.181877 107 205 89
-0.148896 0.331292 -0.253932 68 1 84
0.013936 0.309013 -0.306809 68 1 84
0.617617 -0.026234 0.245992 40 122 142
-0.556948 -0.044048 0.040112 57 85 139
-0.379716 0.420237 -0.008378 68 1 84
0.586329 0.015128 0.117484 30 153 138
0.170880 -0.114799 -0.215296 68 1 84
0.465974 0.452182 0.257531 31 148 139
0.643251 -0.424087 0.190944 215 226 25
0.105221 0.427495 -0.252175 68 1 84
-0.445370 -0.437200 -0.134664 30 160 135
0.482914 0.280939 0.018071 44 112 142
-0.066805 0.347512 -0.263969 68 1 84
0.027748 -0.086909 -0.443473 68 1 84
-0.585296 0.022634 0.351211 39 124 142
0.459002 0.231433 -0.043071 55 89 140
0.123645 -0.065623 -0.335373 68 1 84
0.643991 -0.324626 0.168341 126 210 78
0.437816 0.346106 -0.011050 57 85 139
-0.594068 -0.029134 0.229963 52 95 141
0.594469 0.177107 0.301085 30 155 137
-0.159156 0.526338 -0.203070 68 1 84
-0.466284 0.324632 0.056643 71 22 105
-0.457728 0.421868 0.170069 64 68 135
-0.636633 -0.219733 0.296207 33 142 140
-0.605623 -0.109761 0.154295 42 119 142
0.643674 -0.023210 0.394217 56 185 118
0.070767 0.149988 -0.308316 68 1 84
0.558444 0.284875 0.492150 50 181 122
-0.580905 0.054478 0.388047 43 115 142
-0.184366 0.474975 -0.194226 68 1 84
-0.555817 -0.221315 0.047901 36 134 141
0.406028 -0.367863 -0.133779 33 167 132
0.016875 -0.427262 -0.268147 66 64 133
-0.309523 -0.174466 -0.139476 68 1 84
0.416497 -0.004110 -0.134997 69 52 127
-0.393457 0.082265 -0.125373 68 1 84
-0.637490 -0.298789 0.323903 31 147 139
-0.631446 -0.373751 0.306729 35 168 131
-0.578934 -0.498004 0.074947 31 163 134
0.389781 -0.033187 -0.150167 67 59 131
0.366763 0.422537 -0.048402 71 38 118
-0.586086 -0.260673 0.104937 43 115 142
0.669776 -0.267792 0.253987 98 202 95
0.010280 0.282630 -0.318526 68 1 84
0.669562 -0.376576 0.276241 119 208 82
0.495206 -0.100821 -0.084610 65 66 134
-0.264744 -0.127202 -0.167876 68 1 84
0.459843 0.023896 -0.100724 71 24 106
-0.022303 0.569818 -0.225618 68 1 84
0.479500 0.435817 0.348064 38 127 142
-0.523371 0.310316 0.283672 48 104 141
0.436190 -0.065431 -0.124746 59 80 138
-0.510207 0.270046 0.122332 61 75 137
-0.339466 -0.246787 -0.125160 71 39 119
0.045505 -0.021384 -0.426391 68 1 84
0.389663 -0.039324 -0.150041 69 54 129
-0.378221 0.189023 -0.121511 68 1 84
0.576417 -0.140591 0.011393 39 124 142
0.680499 -0.226808 0.324190 107 205 89
-0.421943 0.176073 -0.083635 68 3 87
0.063019 -0.174359 -0.352868 68 1 84
-0.609467 -0.093079 0.190021 41 120 142
0.666339 -0.340772 0.247974 146 215 65
-0.168287 -0.356415 -0.147694 61 76 137
-0.136807 -0.123926 -0.252667 68 1 84
0.126236 -0.031558 -0.332627 68 1 84
0.599439 -0.092400 0.067323 38 128 142
0.394534 -0.558153 -0.191062 54 184 119
0.016396 -0.507789 -0.276978 38 127 142
0.610580 -0.047683 0.160326 33 166 133
0.579069 -0.452100 0.030305 165 218 53
0.157868 -0.156080 -0.211520 68 1 84
-0.126272 0.606005 -0.130740 68 1 84
-0.192256 0.538651 -0.164203 68 1 84
-0.636769 -0.189679 0.401152 33 142 140
0.671934 -0.411900 0.303566 119 208 82
-0.150083 0.382325 -0.228712 68 1 84
-0.557665 -0.396776 0.035968 38 129 142
0.533764 0.028224 -0.014430 65 65 134
-0.348652 0.436684 -0.036136 68 1 84
-0.315312 -0.055517 -0.168289 72 29 111
0.094456 -0.015639 -0.331870 68 1 84
0.031943 -0.431354 -0.264079 66 64 133
-0.123818 0.524418 -0.230525 68 1 84
-0.054743 -0.168110 -0.380105 68 1 84
-0.049269 -0.355149 -0.271648 69 54 129
0.465301 -0.451635 -0.139449 134 212 73
0.265777 -0.446442 -0.208324 30 159 136
-0.340218 0.363415 -0.100355 68 1 84
0.361903 0.437452 -0.041397 70 49 126
-0.590135 -0.078432 0.112474 48 104 141
-0.282569 0.292941 -0.173311 68 1 84
0.314339 0.544545 0.038331 61 74 137
-0.567552 0.058267 0.229555 54 91 140
-0.429322 0.030371 -0.101300 71 20 102
-0.515105 0.001986 -0.014161 61 74 137
0.243559 0.549260 -0.092062 70 14 97
0.224243 0.358789 -0.196080 68 1 84
0.217658 -0.528570 -0.259314 31 162 134
-0.517282 0.042303 0.003794 61 74 137
-0.625326 -0.212216 0.211128 42 119 142
0.662701 -0.093532 0.432813 75 194 108
-0.635701 -0.195352 0.313816 33 140 141
0.584579 0.238113 0.349105 79 195 105
0.638997 -0.260071 0.145117 54 184 119
-0.648485 -0.463355 0.458400 59 186 117
0.445857 -0.531011 -0.159070 48 180 122
-0.110350 0.025429 -0.266356 68 1 84
-0.572241 -0.045332 0.075753 54 90 140
0.581478 0.247197 0.429657 81 196 104
0.573314 0.165936 0.187399 32 144 140
0.530137 0.253857 0.094751 36 132 141
0.584348 0.238982 0.423448 96 201 96
0.480924 0.320417 0.040472 35 135 141
0.154599 0.342204 -0.241879 68 1 84
0.051803 -0.006845 -0.358389 68 1 84
-0.350121 -0.345344 -0.114597 61 75 137
0.551243 0.239890 0.148704 31 163 134
0.347510 0.541935 0.114515 57 85 139
-0.180633 0.388672 -0.209684 68 1 84
-0.203511 -0.081113 -0.207195 68 1 84
-0.313916 -0.471421 -0.201548 44 177 125
-0.289817 0.529487 -0.020647 68 1 84
0.458532 -0.063362 -0.110781 71 40 120
-0.419799 0.161563 -0.088659 68 1 84
0.528647 0.355671 0.228307 33 166 133
0.680095 -0.187884 0.357880 136 213 71
0.147575 -0.281766 -0.158291 68 3 87
-0.639385 -0.250670 0.323715 32 144 140
-0.558226 0.125560 0.513008 45 110 142
0.201586 0.161418 -0.243469 68 1 84
0.132820 -0.083345 -0.245969 68 1 84
-0.224304 0.574230 -0.048903 68 1 84
0.266994 0.246922 -0.204727 68 1 84
-0.580774 0.044907 0.355005 35 136 141
-0.001788 0.043850 -0.342806 68 1 84
-0.624464 -0.272868 0.213818 32 143 140
-0.478353 0.375420 0.148875 63 69 135
0.679586 -0.364346 0.318769 119 208 82
-0.235475 -0.187100 -0.159501 68 1 84
-0.201249 0.522245 -0.165417 68 1 84
-0.022228 -0.268630 -0.344034 68 1 84
-0.420623 0.068153 -0.104253 72 30 112
0.118089 0.156319 -0.283779 68 1 84
-0.623532 -0.131545 0.265946 47 105 141
0.464512 -0.023934 -0.104076 70 45 124
0.494947 -0.527831 -0.110755 81 196 104
-0.391068 0.013792 -0.132099 69 6 90
-0.057360 -0.343472 -0.265062 65 65 134
0.085681 0.449784 -0.262014 68 1 84
0.496432 -0.528402 -0.108961 75 194 108
0.482213 0.196379 -0.026090 55 88 140
0.305493 -0.408642 -0.188644 33 166 133
-0.593949 0.005767 0.456975 38 127 142
-0.637823 -0.188994 0.432781 34 139 141
0.102773 -0.088507 -0.370616 68 1 84
-0.047327 -0.118197 -0.422605 68 1 84
0.502832 0.405158 0.260330 53 183 120
0.494420 0.161085 -0.021299 60 77 138
0.094570 -0.142977 -0.317600 68 1 84
-0.603841 -0.052533 0.532177 40 123 142
-0.207817 0.119794 -0.226351 68 1 84
-0.333653 -0.076234 -0.155232 72 35 116
-0.118188 0.005642 -0.283870 68 1 84
0.061060 0.324038 -0.287139 68 1 84
-0.132100 0.118796 -0.268575 68 1 84
-0.050328 -0.334933 -0.281558 72 35 116
-0.121093 0.040768 -0.249878 68 1 84
-0.314865 0.024529 -0.176741 68 1 84
0.491753 -0.536144 -0.111034 77 194 107
-0.313570 0.244002 -0.166582 68 1 84
0.444505 0.470304 0.185668 30 158 136
-0.379291 0.440960 0.011868 70 14 97
0.685845 -0.389525 0.360513 151 216 62
-0.509542 -0.392031 -0.046240 38 128 142
-0.589882 0.012712 0.389047 43 115 142
0.043625 -0.018034 -0.425448 68 1 84
0.387970 0.517044 0.137081 55 89 140
0.095044 -0.463407 -0.254245 46 109 142
-0.463199 -0.136128 -0.073252 51 97 141
-0.045781 -0.041925 -0.441869 68 1 84
0.586592 0.156146 0.240117 39 126 142
-0.073623 -0.222634 -0.309038 68 1 84
0.518317 -0.307785 -0.012990 31 163 134
0.675278 -0.251020 0.286932 114 207 85
0.672431 -0.167088 0.540673 94 201 97
0.303842 -0.444112 -0.202780 85 198 102
0.463011 -0.198208 -0.082650 39 124 142
-0.553519 0.175521 0.281680 46 108 142
-0.551834 0.194789 0.299983 42 117 142
0.688762 -0.321263 0.360417 116 208 84
-0.032233 -0.290166 -0.327346 68 1 84
-0.407566 -0.317447 -0.080686 61 75 137
-0.215056 0.558494 -0.109448 68 1 84
0.565510 -0.397630 0.013963 105 204 91
0.109241 -0.386762 -0.188715 59 81 138
0.543497 -0.480669 -0.046580 154 216 60
-0.553269 0.184485 0.431249 42 117 142
-0.455133 0.391851 0.101825 71 39 119
0.482808 0.417299 0.165631 30 155 137
-0.241541 -0.352294 -0.127417 58 83 139
0.056367 -0.204049 -0.340831 68 1 84
0.033445 0.031812 -0.331122 68 1 84
-0.409385 0.479516 0.146087 65 65 134
-0.565899 0.103476 0.510917 49 101 141
-0.574644 0.081590 0.376951 42 118 142
0.159808 0.444090 -0.227687 68 1 84
0.465756 -0.016152 -0.102196 72 33 114
-0.430451 -0.020395 -0.104390 70 48 125
0.285834 0.273186 -0.187569 68 1 84
-0.020332 -0.189219 -0.388903 68 1 84
-0.187856 -0.209022 -0.175697 68 3 87
0.295942 0.491889 -0.080675 71 20 102
-0.449763 -0.273045 -0.049450 56 87 140
-0.644181 -0.376611 0.485275 51 182 121
0.558550 -0.461943 -0.017618 116 208 84
-0.630754 -0.159354 0.422003 33 141 140
0.526059 -0.169303 -0.047800 41 120 142
-0.155083 -0.050597 -0.267948 68 1 84
-0.637313 -0.398508 0.440991 59 186 117
-0.229203 -0.026701 -0.204115 68 1 84
-0.593276 -0.381603 0.131611 35 137 141
-0.131211 0.040389 -0.241962 68 1 84
-0.055272 -0.297013 -0.297657 70 9 92
0.189023 0.504051 -0.200798 68 1 84
-0.503824 0.339294 0.397077 43 116 142
-0.631481 -0.179395 0.273571 35 137 141
-0.585765 -0.121815 0.087340 39 124 142
-0.043640 -0.428811 -0.261967 45 110 142
-0.584439 -0.453534 0.091212 32 164 133
0.699660 -0.271959 0.523176 194 223 34
-0.158037 0.170943 -0.260987 68 1 84
0.106386 0.243751 -0.269652 68 1 84
0.589233 0.223154 0.390176 51 182 121
-0.559494 0.108849 0.248991 62 73 137
-0.633834 -0.166886 0.466632 36 133 141
-0.638660 -0.397517 0.384148 54 184 119
0.669847 -0.233283 0.261714 81 196 104
-0.637337 -0.357057 0.358074 31 161 135
0.157695 0.197910 -0.254162 68 1 84
0.242781 0.467663 -0.156944 68 1 84
0.152330 -0.318348 -0.138595 68 57 130
0.569166 0.226211 0.209786 34 139 141
0.196014 -0.518562 -0.260134 62 188 115
-0.390086 0.447631 0.037347 70 12 95
-0.499755 0.259483 0.082839 68 57 130
-0.349546 -0.454563 -0.186575 30 152 138
0.454144 -0.125538 -0.111407 71 17 99
0.690190 -0.416071 0.404891 220 226 24
0.051226 -0.279278 -0.307569 68 1 84
-0.462425 0.403687 0.144442 68 57 130
0.219165 -0.119940 -0.193967 68 1 84
0.000943 0.003224 -0.427451 68 1 84
-0.317263 0.535908 0.044826 71 24 106
0.648363 -0.023100 0.493433 98 202 95
-0.642566 -0.290254 0.385927 33 142 140
-0.589389 -0.011673 0.286506 45 111 142
0.700487 -0.339162 0.392278 175 220 46
-0.521180 -0.013757 -0.010174 62 72 136
-0.099254 -0.288074 -0.205686 71 15 98
-0.575029 0.078142 0.497158 45 111 142
-0.476993 0.127531 -0.024867 71 43 122
0.252142 0.568202 -0.018682 71 40 120
0.641659 -0.124447 0.221524 43 177 125
-0.147104 0.210254 -0.251202 68 1 84
-0.453662 0.408838 0.124507 70 49 126
-0.015534 -0.091442 -0.447190 68 1 84
0.483251 0.008372 -0.082530 65 65 134
0.591202 -0.335112 0.064142 61 187 116
0.145331 -0.250391 -0.173260 68 1 84
-0.236474 0.477671 -0.141296 68 1 84
-0.510493 0.341458 0.323380 49 102 141
-0.527115 0.270824 0.193976 49 102 141
0.489194 0.409397 0.172733 31 148 139
-0.612126 -0.508736 0.194912 53 183 120
0.540893 -0.106509 -0.038355 53 92 140
0.584256 0.042085 0.144224 30 159 136
-0.141602 -0.277245 -0.169445 72 33 114
-0.106800 -0.341088 -0.177989 64 67 135
-0.132748 -0.499573 -0.264302 32 143 140
-0.478520 0.174454 -0.006920 69 53 128
-0.464424 -0.052725 -0.078466 63 71 136
0.547046 -0.290146 0.010395 32 165 133
-0.293403 -0.083203 -0.170406 68 1 84
-0.084029 -0.034768 -0.396206 68 1 84
0.550095 -0.026238 -0.008138 44 114 142
0.247403 -0.147932 -0.173464 68 1 84
-0.648288 -0.313706 0.471092 62 188 115
-0.003358 -0.335911 -0.306699 68 1 84
0.372335 0.472607 0.006496 57 85 139
0.519819 0.382858 0.319173 43 177 125
0.097105 0.058223 -0.265224 68 1 84
-0.263407 -0.199578 -0.148576 70 9 92
0.673838 -0.376752 0.297596 134 212 73
-0.291440 0.281117 -0.172770 68 1 84
0.704411 -0.508177 0.495539 30 160 135
0.550133 -0.472869 -0.034382 119 208 82
-0.583527 0.044307 0.397862 48 103 141
-0.553902 0.150899 0.247450 49 100 141
0.627011 0.067609 0.405244 34 167 132
0.551945 -0.041484 -0.011483 42 119 142
-0.292868 -0.206605 -0.141605 71 17 99
0.697814 -0.290499 0.459829 178 221 44
0.292544 0.419025 -0.125775 71 21 103
-0.613689 -0.106003 0.543183 52 95 141
-0.395447 0.399134 -0.004197 68 1 84
-0.476199 0.207280 0.002488 71 39 119
0.261856 -0.287690 -0.144116 48 104 141
-0.432545 -0.558893 -0.158054 134 212 73
0.602157 -0.028308 0.142706 33 141 140
-0.083136 -0.133939 -0.378014 68 1 84
0.689136 -0.504575 0.397121 231 228 25
-0.583360 -0.472834 0.087357 35 168 131
-0.061092 0.263521 -0.308780 68 1 84
0.166949 -0.175130 -0.197653 68 1 84
-0.392604 0.503385 0.273567 69 54 129
0.535898 -0.495600 -0.058822 167 219 51
0.242484 0.204337 -0.225022 68 1 84
0.310632 0.309735 -0.162543 68 1 84
0.476825 0.112191 -0.059792 62 72 136
-0.337011 -0.005225 -0.164438 68 1 84
0.493202 0.141963 -0.029305 59 80 138
0.033028 -0.513355 -0.276853 35 136 141
-0.251322 -0.165153 -0.159334 68 1 84
-0.284049 0.539228 -0.012960 68 1 84
0.107424 0.479416 -0.255069 68 1 84
-0.203343 0.590993 -0.033145 68 1 84
0.603839 -0.118602 0.069392 35 137 141
0.555267 0.213869 0.144739 33 166 133
0.522980 0.108746 0.004961 61 76 137
-0.485246 -0.367208 -0.054859 46 108 142
-0.640025 -0.209092 0.446400 30 153 138
-0.606111 -0.061863 0.303145 43 116 142
-0.232850 0.114429 -0.213032 68 1 84
0.204629 -0.215598 -0.164232 70 49 126
0.107563 -0.321324 -0.170423 71 42 121
-0.266138 -0.233274 -0.145479 68 1 84
-0.371770 0.058266 -0.143351 68 1 84
0.166357 0.351300 -0.232317 68 1 84
-0.352853 0.479551 0.013544 68 1 84
0.549244 0.280874 0.181173 30 153 138
-0.336399 -0.500076 -0.206557 61 187 116
0.613957 -0.254768 0.087593 31 146 140
-0.601841 -0.175058 0.125427 33 141 140
0.212083 0.044326 -0.212112 68 1 84
-0.145781 -0.491255 -0.258773 34 138 141
0.109798 0.117176 -0.280402 68 1 84
-0.538418 0.019488 0.028888 62 72 136
-0.465854 0.342379 0.071849 72 26 108
0.450663 -0.305454 -0.064348 45 111 142
-0.087012 -0.036734 -0.393013 68 1 84
-0.515005 -0.049380 -0.026115 58 83 139
-0.210670 -0.006076 -0.206513 68 1 84
-0.246680 -0.430622 -0.187561 30 160 135
-0.511633 -0.246805 0.007002 49 101 141
0.550175 0.317415 0.256683 30 157 136
-0.644180 -0.385408 0.501315 46 178 124
0.381331 -0.423490 -0.172782 126 210 78
-0.000441 0.118193 -0.317392 68 1 84
-0.466211 0.417049 0.328790 46 108 142
0.520446 -0.100409 -0.060934 55 89 140
0.628752 0.070094 0.464772 79 195 105
0.700209 -0.305256 0.448919 238 229 27
-0.544851 0.231223 0.291269 48 104 141
-0.297626 -0.183780 -0.141708 68 3 87
-0.486511 -0.223780 -0.025960 49 102 141
0.149359 0.083067 -0.246201 68 1 84
0.291037 0.539639 -0.019182 69 50 127
0.358607 0.231406 -0.144954 71 15 98
-0.640007 -0.231208 0.351002 35 136 141
0.121329 0.174409 -0.280841 68 1 84
-0.218767 -0.277562 -0.143219 72 32 113
0.397346 0.455062 0.024835 53 92 140
-0.393977 0.328834 -0.057267 68 1 84
0.576110 -0.158336 0.011789 38 129 142
0.625803 0.075262 0.407905 30 159 136
-0.012327 0.222428 -0.284350 68 1 84
-0.560985 0.155440 0.395689 40 122 142
0.194219 -0.395386 -0.179453 37 131 141
-0.442432 0.144002 -0.066722 72 28 110
0.489928 -0.233632 -0.051131 43 116 142
0.364857 0.463589 -0.014134 67 60 132
0.565217 -0.015040 0.023949 33 140 141
-0.180521 0.434010 -0.199617 68 1 84
-0.633704 -0.349666 0.319499 30 158 136
-0.502559 0.240998 0.076121 70 45 124
0.164393 -0.477592 -0.247609 30 153 138
-0.579369 0.057432 0.510551 41 121 142
-0.023639 0.025600 -0.373760 68 1 84
-0.311733 -0.336067 -0.119726 46 107 142
0.573415 0.174515 0.192835 33 140 141
-0.245321 0.546359 -0.072510 68 1 84
0.056981 -0.463407 -0.264303 53 93 140
0.586948 0.117838 0.223295 39 125 142
0.228849 0.556648 -0.105158 68 1 84
0.465106 0.451856 0.233421 35 169 130
0.029325 -0.365363 -0.276829 71 42 121
0.680512 -0.488238 0.360204 218 226 24
-0.029126 -0.268624 -0.341081 68 1 84
0.064138 -0.282673 -0.266865 68 1 84
0.581563 -0.306492 0.048251 33 167 132
0.557433 0.161935 0.121362 38 127 142
0.131845 0.166680 -0.276735 68 1 84
0.067983 -0.277336 -0.257533 68 1 84
0.624888 -0.054719 0.242310 34 167 132
-0.455646 0.420159 0.379761 41 121 142
-0.319396 0.347636 -0.127126 68 1 84
-0.215590 -0.202906 -0.162356 68 3 87
-0.230148 -0.495544 -0.237740 53 183 120
-0.232889 0.468325 -0.148224 68 1 84
-0.043859 0.596112 -0.191968 68 1 84
-0.576225 0.080056 0.419213 40 123 142
0.616361 0.113835 0.471130 46 178 124
-0.622432 -0.121484 0.369040 41 121 142
0.050163 -0.260781 -0.318697 68 1 84
0.657410 -0.329653 0.211140 136 213 71
-0.475979 0.348069 0.101936 72 28 110
-0.157272 0.550446 -0.189642 68 1 84
-0.572744 0.094779 0.470232 36 132 141
0.376674 0.519220 0.103159 52 95 141
-0.303313 -0.043204 -0.176176 68 1 84
0.462524 0.197976 -0.052214 59 81 138
0.336392 -0.114881 -0.158693 68 1 84
0.022137 0.524250 -0.256810 68 1 84
-0.503420 0.355180 0.232171 49 102 141
-0.330762 0.412348 -0.076989 68 1 84
-0.540425 0.161828 0.140454 59 81 138
-0.554559 0.185440 0.340133 51 96 141
-0.139776 -0.002880 -0.296472 68 1 84
0.653275 -0.051847 0.422143 89 199 100
0.613301 0.122433 0.475933 43 177 125
0.390818 0.016805 -0.149225 71 42 121
-0.002049 -0.251627 -0.356851 68 1 84
-0.026969 0.554375 -0.237443 68 1 84
0.677160 -0.177350 0.442608 129 211 76
0.052056 -0.388684 -0.250247 72 32 113
0.373113 0.439141 -0.026039 59 80 138
0.491107 0.308684 0.050472 40 122 142
-0.338353 -0.531364 -0.215567 83 197 103
-0.568017 -0.169432 0.052894 36 132 141
-0.330251 -0.101757 -0.148880 71 15 98
-0.498280 0.239311 0.064140 69 53 128
0.092447 -0.217652 -0.255591 68 1 84
-0.298837 0.239286 -0.178887 68 1 84
0.605291 -0.534400 0.096964 175 220 46
0.001795 0.245930 -0.302236 68 1 84
-0.046139 0.332313 -0.278219 68 1 84
-0.140459 -0.272590 -0.173905 69 8 91
0.391807 0.397594 -0.037887 70 49 126
0.121833 -0.258879 -0.185793 68 1 84
-0.615788 -0.346703 0.199768 31 149 139
-0.289194 0.533691 -0.013958 68 1 84
0.225050 0.541420 -0.137122 68 1 84
-0.161769 0.048004 -0.225913 68 1 84
0.387264 0.388446 -0.050564 56 86 139
-0.404495 -0.060225 -0.121465 65 65 134
-0.497270 -0.048071 -0.046226 60 77 138
-0.650297 -0.362382 0.532524 30 155 137
0.441832 -0.211057 -0.089873 54 91 140
0.559205 -0.275494 0.018306 32 165 133
-0.593604 -0.030530 0.204183 55 89 140
0.094465 0.599998 -0.172544 68 1 84
-0.649136 -0.374732 0.520230 31 161 135
-0.357041 0.517099 0.088995 70 11 94
-0.554962 -0.382652 0.037836 46 108 142
-0.577577 0.052395 0.336997 43 115 142
0.580498 0.058012 0.140748 33 166 133
-0.257403 0.353744 -0.167541 68 1 84
0.081002 -0.172143 -0.319138 68 1 84
-0.133126 0.409956 -0.230098 68 1 84
0.518987 0.382882 0.392251 31 163 134
-0.321818 -0.534932 -0.221563 38 172 129
0.366386 0.388701 -0.074130 69 53 128
-0.503511 -0.359713 -0.028977 47 106 141
-0.537513 0.255036 0.407511 44 112 142
0.385338 0.442977 -0.006436 57 85 139
0.183123 0.064763 -0.223538 68 1 84
0.094665 -0.201223 -0.265341 68 1 84
-0.505887 -0.208304 -0.013960 43 115 142
0.562071 0.137833 0.124274 36 134 141
0.151031 -0.432968 -0.212313 42 118 142
0.133307 0.314732 -0.264856 68 1 84
-0.367422 -0.525083 -0.202606 109 206 88
0.455094 0.338901 0.010327 44 113 142
0.569371 -0.177097 0.004206 42 117 142
0.676744 -0.458915 0.343579 197 223 33
-0.376125 0.487524 0.067487 70 14 97
-0.077868 -0.287917 -0.243848 68 1 84
0.083547 -0.251078 -0.242423 68 1 84
0.635645 -0.142576 0.168515 33 167 132
0.017871 0.001484 -0.422817 68 1 84
-0.646970 -0.390382 0.516803 33 166 133
-0.513476 0.302685 0.172997 53 93 140
0.568174 -0.376589 0.024895 105 204 91
-0.538447 0.067190 0.055379 61 76 137
-0.440054 -0.110195 -0.094892 58 82 139
0.051792 -0.383995 -0.250886 71 37 117
0.416862 -0.284988 -0.091643 37 131 141
0.533019 0.298480 0.138893 31 150 139
-0.342084 -0.243065 -0.124240 72 34 115
-0.636533 -0.269586 0.495040 30 154 137
0.676717 -0.380403 0.311745 98 202 95
-0.291345 0.049078 -0.188167 68 1 84
-0.029192 0.610000 -0.160328 68 1 84
-0.499472 -0.440864 -0.089436 30 157 136
0.671453 -0.260574 0.263711 81 196 104
0.138063 0.554176 -0.211537 68 1 84
0.391885 -0.291360 -0.108406 37 130 142
0.027006 0.547825 -0.244199 68 1 84
-0.331282 0.032827 -0.168557 68 1 84
-0.626715 -0.138745 0.344823 44 113 142
-0.011329 0.011966 -0.419080 68 1 84
-0.076186 0.193779 -0.284773 68 1 84
-0.527156 0.261689 0.181017 50 99 141
-0.394837 -0.416404 -0.150996 33 142 140
-0.635150 -0.349934 0.334013 30 151 138
0.475733 0.021172 -0.086987 59 80 138
0.393592 0.213979 -0.120489 68 1 84
-0.538083 -0.346902 0.027244 42 118 142
-0.302965 0.556640 0.079576 68 1 84
0.057497 -0.200601 -0.341456 68 1 84
0.082657 0.208859 -0.269977 68 1 84
0.181558 -0.309785 -0.135635 61 76 137
-0.464537 0.322955 0.051930 71 24 106
0.085521 0.245277 -0.284105 68 1 84
-0.348656 -0.176066 -0.126478 72 26 108
-0.451964 0.307959 0.018190 72 26 108
-0.112604 0.023543 -0.267527 68 1 84
-0.079183 -0.178183 -0.335706 68 1 84
-0.485640 0.377794 0.373799 43 115 142
-0.515312 -0.319361 0.012544 52 94 141
0.588826 -0.419938 0.054093 154 216 60
-0.359694 -0.420992 -0.171500 38 129 142
-0.334542 -0.289715 -0.124221 56 87 140
-0.540310 0.247533 0.263873 43 115 142
-0.582916 0.047232 0.502742 35 135 141
-0.506884 0.211237 0.067321 67 60 132
-0.399267 0.405311 0.007112 68 1 84
-0.384106 -0.206093 -0.106868 70 45 124
0.056595 -0.135242 -0.397247 68 1 84
0.651456 -0.084765 0.350349 37 171 129
-0.571920 0.071151 0.540170 48 104 141
0.263104 0.404726 -0.155347 68 1 84
0.088213 -0.446156 -0.245869 45 111 142
0.324388 0.550407 0.085430 61 75 137
0.551213 0.310029 0.475263 30 159 136
0.615620 0.005121 0.273392 31 148 139
0.118866 -0.083865 -0.329602 68 1 84
0.540598 -0.474988 -0.052238 178 221 44
-0.546554 -0.437896 -0.012623 31 162 134
-0.591469 0.016549 0.493196 40 123 142
-0.444215 -0.290586 -0.053045 61 76 137
-0.527161 -0.087317 -0.016152 53 93 140
-0.275590 0.566748 0.046888 68 1 84
-0.102700 -0.022488 -0.354730 68 1 84
0.151470 0.266314 -0.253060 68 1 84
0.579207 0.253978 0.433062 69 191 111
0.033918 -0.357495 -0.278497 71 24 106
-0.525408 0.089122 0.040092 57 84 139
-0.591965 -0.007217 0.346587 38 127 142
0.281838 -0.336457 -0.133605 54 91 140
0.345928 -0.547114 -0.217819 62 188 115
0.109589 0.596691 -0.171213 68 1 84
0.096370 -0.461631 -0.252793 47 105 141
0.308376 0.238851 -0.181932 68 1 84
-0.025966 0.028020 -0.358938 68 1 84
-0.452902 0.353660 0.055141 72 26 108
-0.119406 -0.186725 -0.256528 68 1 84
0.489415 0.424954 0.289579 31 162 134
0.613636 -0.534220 0.117686 167 219 51
-0.200003 -0.418380 -0.184844 31 146 140
0.332930 0.337302 -0.135896 69 6 90
-0.014114 0.270273 -0.316003 68 1 84
-0.017589 0.068926 -0.321628 68 1 84
-0.047085 0.006374 -0.382566 68 1 84
-0.123837 -0.028854 -0.343425 68 1 84
0.132278 -0.072354 -0.288240 68 1 84
-0.331618 0.314365 -0.130310 68 1 84
0.271910 -0.423066 -0.197448 33 166 133
0.247130 0.010434 -0.205489 68 1 84
-0.582051 -0.227039 0.090022 38 127 142
-0.265358 0.029601 -0.196758 68 1 84
0.137842 0.081580 -0.251566 68 1 84
-0.642655 -0.311588 0.449346 36 170 130
0.552825 0.258060 0.169330 31 148 139
-0.451639 0.006053 -0.084450 67 59 131
0.169267 -0.117494 -0.215370 68 1 84
0.323846 -0.400390 -0.183283 40 174 127
-0.474730 -0.285214 -0.019262 61 74 137
-0.046142 -0.163340 -0.391268 68 1 84
0.132318 -0.112299 -0.239717 68 1 84
-0.563954 -0.449605 0.028902 31 162 134
-0.492120 0.357087 0.410254 39 125 142
-0.007056 0.020827 -0.408275 68 1 84
-0.432214 -0.316522 -0.062521 65 66 134
0.042923 -0.155861 -0.392618 68 1 84
0.467563 -0.398824 -0.108464 139 213 70
-0.302446 0.238777 -0.176350 68 1 84
0.455545 0.292814 -0.016665 52 94 141
-0.350322 -0.065203 -0.149708 71 39 119
-0.476514 0.371827 0.443927 41 121 142
0.653803 -0.335288 0.200902 124 210 79
0.569655 0.247001 0.502952 44 177 125
-0.638240 -0.290635 0.439503 31 148 139
-0.087910 -0.023646 -0.374572 68 1 84
0.125635 0.513817 -0.240187 68 1 84
0.249336 -0.374161 -0.149803 43 116 142
-0.470738 0.397862 0.385400 44 113 142
-0.440765 0.291876 -0.011472 71 15 98
0.458085 -0.322745 -0.063718 42 118 142
-0.154519 -0.495104 -0.260003 36 133 141
-0.154388 0.009632 -0.227079 68 1 84
-0.630845 -0.160362 0.404232 34 139 141
-0.080263 0.408594 -0.250479 68 1 84
-0.389911 0.506568 0.261525 71 39 119
0.202255 -0.496164 -0.250434 30 153 138
0.180831 0.081383 -0.230118 68 1 84
0.623601 -0.293907 0.112803 47 179 123
0.056100 -0.410584 -0.247600 70 47 124
-0.483722 0.351207 0.465345 46 109 142
-0.533543 0.191598 0.138565 65 66 134
0.254005 0.061754 -0.204921 68 1 84
-0.597458 -0.492517 0.139003 37 171 129
0.460080 -0.237667 -0.069199 48 104 141
0.191242 0.450705 -0.206045 68 1 84
-0.627601 -0.142671 0.315721 42 119 142
-0.356188 -0.212519 -0.120063 71 40 120
-0.191349 0.071319 -0.220103 68 1 84
-0.080734 0.560131 -0.229589 68 1 84
-0.146013 -0.112060 -0.241450 68 1 84
-0.313996 0.369129 -0.120632 68 1 84
0.615053 -0.034076 0.218053 30 153 138
0.517591 0.361089 0.178148 30 153 138
0.442206 -0.450575 -0.155264 175 220 46
-0.432604 -0.338993 -0.071825 61 76 137
-0.380963 0.238924 -0.106750 68 1 84
-0.554955 0.113091 0.187856 53 93 140
-0.231254 0.334722 -0.193218 68 1 84
0.672854 -0.474089 0.323925 212 225 26
-0.605875 -0.059982 0.331467 48 104 141
-0.347244 0.376856 -0.084721 68 1 84
0.018496 -0.381902 -0.275207 72 30 112
-0.312141 0.463400 -0.059318 68 1 84
-0.470287 0.350148 0.089145 72 35 116
-0.103156 0.062962 -0.268017 68 1 84
0.510514 -0.044360 -0.065406 55 88 140
0.396147 0.219627 -0.116858 64 68 135
-0.447163 -0.177634 -0.073026 61 75 137
0.148737 0.270789 -0.258071 68 1 84
0.069546 -0.373263 -0.222799 71 18 101
0.277834 -0.513299 -0.236974 56 185 118
-0.378108 -0.149417 -0.119100 72 32 113
-0.637403 -0.206505 0.346518 34 138 141
0.040824 -0.480904 -0.272543 40 123 142
-0.032144 -0.279613 -0.333590 68 1 84
0.019413 0.106253 -0.315373 68 1 84
0.329830 0.180717 -0.173350 68 1 84
-0.461722 0.025525 -0.071696 69 50 127
0.603686 0.112805 0.299107 32 145 140
0.634898 0.034485 0.420120 59 186 117
0.303222 0.520590 -0.033780 69 50 127
-0.583673 -0.494335 0.090137 32 164 133
0.289890 0.342745 -0.161923 68 1 84
0.495920 0.415373 0.263656 40 174 127
0.597272 0.116674 0.268937 36 170 130
0.077509 0.256251 -0.296849 68 1 84
0.229790 -0.115529 -0.190915 68 1 84
-0.016068 -0.228567 -0.366518 68 1 84
-0.352022 0.138200 -0.150671 68 1 84
-0.117281 -0.117809 -0.303240 68 1 84
0.116738 0.499576 -0.248441 68 1 84
0.585875 -0.240603 0.039925 30 155 137
0.051118 -0.005850 -0.327278 68 1 84
-0.304527 0.214798 -0.177358 68 1 84
0.545037 0.232473 0.122295 31 147 139
0.686946 -0.196825 0.375324 181 221 43
-0.487777 -0.326024 -0.018723 61 74 137
0.579937 -0.011480 0.063265 42 117 142
0.056928 -0.281693 -0.293165 68 1 84
0.618383 0.072029 0.343770 30 158 136
-0.203689 0.005964 -0.206874 68 1 84
0.024470 -0.229108 -0.360300 68 1 84
0.643381 -0.373603 0.179169 167 219 51
0.005132 0.529022 -0.253740 68 1 84
0.193929 0.516611 -0.191217 68 1 84
0.317540 0.536183 0.022350 66 62 133
-0.165258 0.204591 -0.248948 68 1 84
0.662884 -0.344757 0.234627 79 195 105
-0.235125 0.577462 -0.011438 68 1 84
0.374474 0.504497 0.059063 49 100 141
-0.542893 0.074685 0.071764 62 72 136
-0.126589 -0.029531 -0.339353 68 1 84
0.207209 0.202745 -0.237570 68 1 84
-0.285713 -0.270337 -0.136738 67 60 132
0.621107 0.058227 0.346759 30 160 135
-0.621352 -0.125629 0.248366 39 124 142
0.621415 -0.103061 0.138754 30 153 138
0.390162 0.323119 -0.087536 68 57 130
-0.546160 -0.500531 -0.023035 32 164 133
0.107055 -0.076151 -0.367995 68 1 84
-0.592009 0.008867 0.424482 47 106 141
0.137025 0.495453 -0.238965 68 1 84
0.584187 -0.152612 0.024434 31 149 139
0.197961 -0.383990 -0.168478 43 115 142
-0.408432 -0.013189 -0.120528 71 15 98
-0.136417 -0.080253 -0.299194 68 1 84
0.474787 0.295826 0.014093 50 98 141
0.595497 0.197473 0.442035 71 192 110
-0.404384 0.492347 0.276013 67 60 132
-0.511725 0.199537 0.072546 64 67 135
-0.259071 -0.466866 -0.209826 32 144 140
0.061620 -0.457357 -0.260648 51 97 141
-0.430099 0.141263 -0.081955 71 21 103
-0.353814 0.404231 -0.056416 68 1 84
0.379558 0.439732 -0.017196 64 68 135
-0.129943 0.415512 -0.231023 68 1 84
0.158437 -0.116970 -0.220892 68 1 84
-0.091982 -0.065889 -0.399510 68 1 84
0.672651 -0.331330 0.277703 83 197 103
0.066921 -0.080356 -0.420858 68 1 84
0.199826 0.205556 -0.238506 68 1 84
-0.575828 -0.286414 0.092522 45 111 142
0.294862 0.345829 -0.157801 72 30 112
0.304933 -0.271333 -0.144007 43 116 142
-0.465401 0.304837 0.040319 71 43 122
-0.382104 -0.184207 -0.111021 71 42 121
-0.537606 0.248686 0.232829 43 116 142
0.469929 0.445220 0.223852 30 156 137
0.227477 -0.524136 -0.256270 32 164 133
0.249326 0.081355 -0.208402 68 1 84
0.144223 -0.114576 -0.229948 68 1 84
0.548940 -0.487342 -0.035683 121 209 81
-0.317358 0.550166 0.095952 68 3 87
-0.545743 -0.452609 -0.020246 33 167 132
0.304678 0.536974 0.000581 68 55 129
-0.490387 -0.224477 -0.022146 48 103 141
0.515511 0.241571 0.054858 46 107 142
0.610178 -0.032176 0.190534 31 162 134
-0.511674 0.274644 0.131648 67 60 132
0.535809 -0.038477 -0.033633 57 84 139
-0.131717 0.278558 -0.279957 68 1 84
0.686032 -0.518335 0.387965 233 228 25
0.220686 0.471430 -0.178856 68 1 84
0.391673 0.196137 -0.125953 71 20 102
-0.595698 -0.139660 0.111402 36 134 141
-0.120415 0.046397 -0.250176 68 1 84
-0.197198 0.126456 -0.233402 68 1 84
-0.434483 -0.119704 -0.096769 56 86 139
-0.224431 0.565445 -0.073729 68 1 84
-0.545014 0.229134 0.279679 49 101 141
0.634617 0.033091 0.529745 41 175 127
-0.524724 -0.047710 -0.013368 55 88 140
-0.631880 -0.320972 0.279619 30 155 137
0.065792 0.175967 -0.300922 68 1 84
0.499841 0.411350 0.334624 31 162 134
0.249504 -0.178196 -0.162129 70 12 95
0.095396 0.596696 -0.178960 68 1 84
0.577711 0.065892 0.133536 41 175 127
0.675052 -0.443139 0.332235 170 219 50
0.632904 -0.496504 0.170798 170 219 50
0.342843 -0.064484 -0.167167 68 1 84
-0.620096 -0.118461 0.484536 39 124 142
-0.077759 -0.355801 -0.219393 61 74 137
-0.204912 -0.234925 -0.156743 72 35 116
-0.042841 0.053921 -0.320856 68 1 84
0.025962 0.613015 -0.153300 68 1 84
-0.335005 -0.215728 -0.128538 69 50 127
-0.481392 0.371482 0.153739 61 76 137
-0.547779 -0.358337 0.037001 40 122 142
0.054310 -0.358922 -0.251674 68 1 84
-0.115881 -0.301795 -0.178447 69 50 127
0.355230 0.485331 -0.003469 52 95 141
0.172913 -0.457099 -0.227267 38 128 142
-0.547172 0.222077 0.395380 45 111 142
0.594007 -0.486824 0.064863 178 221 44
-0.490297 -0.491382 -0.112295 98 202 95
-0.564794 0.130278 0.360955 44 112 142
0.099028 0.008072 -0.284174 68 1 84
0.086469 0.228234 -0.269595 68 1 84
-0.529048 0.241580 0.489600 42 119 142
0.598902 0.083004 0.258137 30 152 138
-0.241797 0.491399 -0.129639 68 1 84
0.587629 0.022257 0.137324 37 131 141
0.614761 -0.114656 0.102564 33 141 140
0.699807 -0.300729 0.465488 215 226 25
0.007987 -0.105094 -0.440239 68 1 84
-0.407265 0.067708 -0.115634 68 1 84
0.605972 0.148397 0.355192 48 180 122
0.426743 -0.041505 -0.130108 70 45 124
0.044554 0.329524 -0.282117 68 1 84
-0.519322 -0.044395 -0.019834 55 89 140
-0.507705 0.348902 0.263995 46 107 142
-0.300121 0.363564 -0.134251 68 1 84
-0.572431 0.095832 0.394033 44 112 142
-0.537193 0.187618 0.150429 60 78 138
-0.596143 -0.466924 0.131916 30 158 136
0.548109 0.271246 0.165042 30 155 137
-0.290757 -0.108199 -0.163915 68 3 87
0.553583 0.318875 0.297707 31 162 134
0.655501 -0.350786 0.210793 73 193 109
0.395849 -0.304003 -0.102416 46 109 142
-0.503118 -0.320404 -0.000532 56 86 139
0.154710 0.591523 -0.147890 68 1 84
0.371556 0.215942 -0.137755 68 2 85
0.224001 -0.542061 -0.257760 31 150 139
-0.366291 0.039497 -0.148008 68 1 84
0.568255 -0.164613 0.000678 38 129 142
0.042726 -0.001981 -0.344118 68 1 84
0.186877 -0.093601 -0.210807 68 1 84
-0.517568 0.232556 0.114391 61 74 137
0.429551 0.198944 -0.090302 66 62 133
-0.295935 0.557472 0.061900 68 1 84
0.196886 0.415098 -0.201950 68 1 84
-0.536737 0.229235 0.192082 56 87 140
-0.458436 -0.088361 -0.083558 57 84 139
0.451778 0.139352 -0.081491 70 49 126
-0.448897 0.322973 0.023364 71 17 99
-0.413162 -0.278645 -0.084765 56 86 139
-0.616482 -0.522668 0.212876 59 186 117
-0.345522 -0.335530 -0.114583 55 88 140
-0.147285 0.600298 -0.125826 68 1 84
-0.654134 -0.303912 0.513855 33 166 133
0.090045 -0.182591 -0.289019 68 1 84
0.126041 -0.082700 -0.297100 68 1 84
-0.459927 0.249526 -0.004964 72 30 112
0.005274 0.371225 -0.257035 68 1 84
-0.303147 0.043784 -0.182642 68 1 84
0.414270 0.445943 0.041463 53 92 140
-0.195005 0.579756 -0.100982 68 1 84
0.675895 -0.168178 0.373218 154 216 60
-0.632263 -0.274407 0.256926 30 152 138
0.231154 0.270023 -0.207818 68 1 84
-0.132934 -0.060661 -0.332789 68 1 84
0.308871 -0.163286 -0.152206 71 15 98
-0.583839 0.044932 0.411163 42 117 142
0.421635 0.237365 -0.086982 69 53 128
0.285552 0.547518 -0.009717 72 34 115
0.133186 -0.137179 -0.236549 68 1 84
0.592573 0.202148 0.332117 30 158 136
0.322535 0.552314 0.088668 61 75 137
-0.439863 -0.220136 -0.067133 60 77 138
-0.086635 -0.242358 -0.269527 68 1 84
-0.120986 -0.140861 -0.274106 68 1 84
-0.114177 -0.175201 -0.269638 68 1 84
0.493541 0.342172 0.080897 40 122 142
0.289073 0.539675 -0.022525 72 29 111
0.668308 -0.312132 0.250450 77 194 107
0.154746 0.119975 -0.257721 68 1 84
0.566361 -0.107306 -0.003144 49 102 141
0.606430 0.026829 0.250338 33 140 141
0.535069 0.156940 0.052205 52 94 141
-0.576821 -0.246495 0.084943 41 120 142
0.431906 0.129832 -0.104302 52 94 141
0.310579 0.527575 -0.008358 62 72 136
-0.307165 -0.374853 -0.134042 52 95 141
-0.611938 -0.493232 0.195118 56 185 118
0.690771 -0.244383 0.493470 162 218 55
0.192663 -0.282769 -0.146605 67 58 131
0.672222 -0.270725 0.267348 54 184 119
0.314651 -0.354407 -0.136196 35 136 141
-0.430662 0.397169 0.053715 71 18 101
-0.128412 -0.278210 -0.180136 72 35 116
0.558394 0.315356 0.392406 79 195 105
0.640672 -0.133438 0.203496 33 166 133
0.355472 -0.200061 -0.133648 68 55 129
0.626326 0.079674 0.429160 53 183 120
-0.126299 -0.080744 -0.332660 68 1 84
0.656032 -0.170789 0.242663 73 193 109
-0.420676 0.236459 -0.066016 71 24 106
-0.034974 -0.347863 -0.289270 70 49 126
-0.631198 -0.344663 0.288447 30 152 138
-0.150709 0.005537 -0.245013 68 1 84
0.482349 0.420602 0.175695 33 167 132
-0.332641 0.133562 -0.163858 68 1 84
-0.613812 -0.089919 0.481179 39 125 142
0.530091 -0.403612 -0.046451 146 215 65
0.467850 0.104480 -0.072561 70 49 126
-0.145783 0.518570 -0.216997 68 1 84
-0.528928 0.270012 0.205243 51 97 141
-0.032130 0.032555 -0.344187 68 1 84
0.120144 0.018740 -0.262166 68 1 84
-0.136391 -0.194504 -0.230396 68 1 84
-0.589492 -0.095926 0.103749 34 139 141
-0.521676 -0.259397 0.021515 48 104 141
0.053501 -0.003068 -0.379244 68 1 84
-0.275337 0.225854 -0.197105 68 1 84
0.208975 -0.441298 -0.209996 38 127 142
-0.092977 -0.251185 -0.249724 68 1 84
0.666298 -0.408169 0.272424 73 193 109
-0.353980 0.457779 -0.008702 68 1 84
-0.637003 -0.484556 0.394628 85 198 102
-0.169473 -0.469010 -0.236056 30 153 138
0.455839 -0.454193 -0.147515 141 214 68
0.604492 0.153050 0.350223 30 156 137
-0.188967 0.483627 -0.189337 68 1 84
-0.596421 -0.197545 0.113552 34 139 141
0.082187 0.130963 -0.300200 68 1 84
0.644673 -0.033519 0.387696 32 164 133
-0.581773 0.005969 0.210397 63 69 135
-0.599701 -0.337765 0.147657 35 136 141
0.104481 0.423224 -0.251788 68 1 84
0.416864 0.470869 0.082406 52 94 141
0.569366 0.285260 0.415985 121 209 81
0.026857 0.047585 -0.326351 68 1 84
-0.326056 0.547888 0.114149 68 1 84
-0.518510 0.281696 0.464065 38 128 142
-0.607869 -0.101206 0.170521 42 119 142
-0.107363 0.502979 -0.246631 68 1 84
-0.335413 0.424657 -0.062699 68 1 84
-0.550853 -0.327618 0.054569 42 119 142
-0.245952 -0.466600 -0.212151 30 153 138
0.282003 0.302512 -0.180495 68 1 84
-0.582219 -0.113199 0.079704 42 119 142
-0.564991 0.066042 0.197693 52 95 141
0.651561 -0.269437 0.182837 107 205 89
0.074836 -0.008130 -0.305865 68 1 84
0.566568 -0.472542 -0.000085 103 204 92
0.215047 0.474944 -0.183657 68 1 84
0.009383 0.556515 -0.238943 68 1 84
-0.471136 0.174470 -0.018393 70 48 125
-0.331938 -0.383705 -0.160909 37 131 141
0.554438 -0.021166 0.001523 43 115 142
-0.579969 0.012228 0.224806 54 90 140
-0.592814 -0.266542 0.119281 30 153 138
-0.388275 -0.129447 -0.118964 72 30 112
-0.395587 0.309555 -0.064836 68 1 84
-0.530950 0.280539 0.247253 48 103 141
-0.090694 0.018874 -0.280555 68 1 84
0.339297 -0.451227 -0.199833 112 206 86
0.636204 -0.088422 0.247436 68 190 112
-0.090193 -0.020710 -0.363018 68 1 84
0.557014 0.140326 0.105558 39 124 142
-0.177860 -0.494576 -0.254983 35 168 131
0.523908 0.285792 0.101551 35 135 141
0.277584 0.203529 -0.206163 68 1 84
-0.435829 0.291787 -0.019193 69 8 91
0.106443 -0.174510 -0.261347 68 1 84
0.316082 0.465958 -0.074806 72 28 110
0.696730 -0.257477 0.409844 134 212 73
0.017778 -0.182679 -0.390490 68 1 84
0.418213 0.320901 -0.053573 59 80 138
-0.636234 -0.284276 0.301250 30 152 138
0.661684 -0.136284 0.331119 73 193 109
