ply
format ascii 1.0
element vertex 1288
property float x
property float y
property float z
property uchar red
property uchar green
property uchar blue
end_header
0.455012 0.115612 -0.118426 68 1 84
-0.457453 -0.451583 -0.219707 60 77 138
0.549292 0.279579 0.377205 68 1 84
0.071064 0.112488 -0.244156 71 22 105
-0.476185 0.078830 -0.110814 68 1 84
-0.096686 0.099726 -0.241366 60 78 138
-0.338397 0.475281 -0.021722 68 1 84
0.606676 -0.377955 0.043345 68 1 84
0.523537 0.120541 -0.012509 68 1 84
0.314595 0.113683 -0.171951 68 1 84
0.129207 -0.069768 -0.231497 70 48 125
-0.559807 0.259537 0.232758 68 1 84
0.168719 -0.115922 -0.226773 67 58 131
-0.590333 -0.327140 0.055750 68 1 84
-0.164786 0.542439 -0.178861 68 1 84
0.167651 0.399388 -0.164392 68 1 84
0.233441 -0.236109 -0.211303 69 53 128
-0.543773 0.099645 0.012861 68 1 84
0.617442 -0.176804 0.036716 68 1 84
0.462985 0.100835 -0.120950 68 1 84
0.599740 -0.020396 0.060360 68 1 84
0.031633 0.595072 -0.200840 68 1 84
-0.647254 0.024158 0.515823 68 1 84
-0.127133 -0.456577 -0.361465 159 217 56
-0.068649 -0.240419 -0.266706 34 167 132
0.167854 0.236193 -0.171412 68 1 84
0.075562 -0.030738 -0.401800 35 135 141
-0.483685 0.127416 -0.072454 68 1 84
-0.289192 -0.138020 -0.209580 59 80 138
-0.643904 -0.400455 0.277937 68 1 84
0.500127 -0.335435 -0.073622 68 1 84
0.418849 -0.412311 -0.280768 68 55 129
-0.593437 -0.246856 0.041291 68 1 84
-0.574954 -0.288379 0.013671 68 1 84
0.624449 -0.433841 0.093029 68 1 84
-0.360367 0.063904 -0.193320 68 1 84
0.083818 0.591021 -0.187614 68 1 84
-0.194187 0.384643 -0.165059 71 22 105
-0.487082 -0.019424 -0.125475 68 1 84
0.627196 -0.150350 0.081057 68 1 84
-0.682038 -0.127291 0.418288 68 1 84
-0.090779 -0.164036 -0.283391 30 152 138
-0.009966 0.088722 -0.253672 71 24 106
-0.676852 -0.198387 0.505450 68 1 84
-0.437596 -0.306064 -0.090450 68 1 84
-0.503477 -0.507056 -0.189269 46 109 142
-0.026869 0.064265 -0.256097 68 2 85
-0.232202 -0.166677 -0.202529 67 60 132
0.640934 0.066779 0.408129 68 1 84
0.250375 0.028742 -0.201928 68 1 84
-0.631581 -0.390064 0.220214 68 1 84
-0.371038 0.247182 -0.095946 68 1 84
0.537928 0.313916 0.277366 68 1 84
0.061492 0.029311 -0.373642 51 97 141
0.078059 0.466927 -0.209812 68 1 84
-0.586420 0.032841 0.155773 68 1 84
-0.010105 0.527637 -0.227014 68 3 87
-0.258736 -0.062804 -0.230901 49 102 141
-0.594244 -0.093517 0.140818 68 1 84
0.423341 0.387530 0.051152 68 1 84
-0.264279 0.398789 -0.117853 68 1 84
-0.515896 0.173591 0.004915 68 1 84
-0.104167 -0.412365 -0.341203 42 117 142
0.562756 -0.190801 -0.052033 68 1 84
-0.624759 -0.607864 0.245964 68 1 84
0.650392 -0.157230 0.246665 68 1 84
-0.467904 0.314405 0.014981 68 1 84
0.545155 0.256296 0.500115 68 1 84
-0.611875 -0.467368 0.153221 68 1 84
0.204347 0.402938 -0.138526 68 1 84
0.007472 0.629437 -0.175031 68 1 84
0.592341 0.079976 0.145744 68 1 84
0.251602 -0.280246 -0.212807 66 61 132
0.240523 0.422680 -0.106023 68 1 84
0.681548 -0.588646 0.367094 68 1 84
0.086873 -0.131622 -0.308908 41 120 142
-0.636170 0.021442 0.340950 68 1 84
0.530569 0.274051 0.111367 68 1 84
0.213297 -0.095858 -0.227056 67 59 131
0.109380 -0.346410 -0.240789 42 119 142
-0.059062 0.031795 -0.263798 52 94 141
-0.123027 0.283946 -0.240226 71 18 101
0.277639 0.072889 -0.189338 68 1 84
-0.236505 -0.138377 -0.217226 56 86 139
-0.175298 0.103559 -0.204444 64 68 135
-0.607341 -0.178197 0.113812 68 1 84
-0.584124 0.188538 0.263012 68 1 84
-0.294621 0.337980 -0.097191 68 1 84
-0.589119 -0.049099 0.066394 68 1 84
-0.320400 0.214517 -0.126430 68 1 84
-0.543070 0.274773 0.125296 68 1 84
-0.573094 0.073982 0.076523 68 1 84
0.024057 -0.214717 -0.337038 73 193 109
-0.666435 -0.360407 0.388080 68 1 84
0.561728 0.269267 0.269692 68 1 84
0.278055 0.216702 -0.110705 68 1 84
-0.508098 0.338477 0.436056 68 1 84
-0.121054 0.633808 -0.137223 68 1 84
0.679573 -0.176784 0.387168 68 1 84
0.336886 -0.474590 -0.330140 77 194 107
0.447224 0.402721 0.107105 68 1 84
0.126411 -0.069875 -0.235120 68 57 130
0.678586 -0.512710 0.356387 68 1 84
0.622106 -0.465442 0.092021 68 1 84
-0.317494 -0.319261 -0.213176 71 44 123
0.489944 -0.280753 -0.072127 68 1 84
-0.657326 -0.315062 0.280134 68 1 84
0.651803 -0.069411 0.318599 68 1 84
0.422106 0.113214 -0.142734 68 1 84
-0.611206 -0.129505 0.222469 68 1 84
0.682429 -0.195709 0.480755 68 1 84
-0.036869 -0.164484 -0.350527 107 205 89
0.137575 -0.049258 -0.233535 70 12 95
-0.523308 0.318522 0.116425 68 1 84
0.525713 0.276735 0.103068 68 1 84
-0.628361 -0.010421 0.298857 68 1 84
0.581267 0.215763 0.373548 68 1 84
0.388996 -0.355086 -0.237131 69 6 90
0.598052 0.027486 0.118143 68 1 84
0.338483 -0.290627 -0.201467 71 44 123
0.436162 -0.381602 -0.232435 71 22 105
0.199827 -0.250387 -0.207613 68 55 129
-0.421292 0.030525 -0.176200 71 22 105
0.595117 0.092168 0.187621 68 1 84
-0.629712 -0.119314 0.270988 68 1 84
0.050025 0.036039 -0.376697 47 106 141
-0.453903 -0.042757 -0.158711 68 1 84
0.657319 -0.307088 0.215407 68 1 84
0.651944 -0.047409 0.332087 68 1 84
-0.579109 0.076994 0.117300 68 1 84
0.446875 0.437770 0.191082 68 1 84
0.487602 -0.362889 -0.121163 68 1 84
0.612841 -0.056538 0.212311 68 1 84
-0.586736 0.189686 0.294038 68 1 84
0.641906 -0.431895 0.157558 68 1 84
0.360182 0.285002 -0.067440 68 1 84
-0.662249 -0.036562 0.479916 68 1 84
-0.626936 -0.290897 0.179752 68 1 84
-0.682000 -0.261331 0.443638 68 1 84
0.164367 0.623565 -0.047992 68 1 84
-0.662794 -0.240149 0.332211 68 1 84
0.057489 0.202082 -0.261407 68 3 87
0.454868 0.008462 -0.166831 69 5 88
-0.389197 -0.346591 -0.176773 68 1 84
0.270715 0.229145 -0.100811 68 1 84
0.170862 0.535157 -0.154261 68 1 84
-0.328556 -0.275746 -0.198795 69 8 91
-0.493865 0.304819 0.042342 68 1 84
-0.601833 -0.439754 0.107122 68 1 84
-0.587873 0.206115 0.538250 68 1 84
-0.592823 -0.083898 0.143720 68 1 84
0.361577 0.296781 -0.059686 68 1 84
-0.454180 0.294830 -0.012503 68 1 84
-0.535518 0.319420 0.197103 68 1 84
0.456974 -0.065538 -0.168209 68 1 84
0.589344 0.175898 0.241787 68 1 84
0.304568 0.498713 0.015524 68 1 84
0.570502 -0.454397 -0.090802 68 1 84
-0.303284 0.547835 0.091477 68 1 84
-0.683889 -0.230520 0.432535 68 1 84
0.684092 -0.601819 0.407377 68 1 84
0.459873 0.426444 0.219001 68 1 84
0.362590 0.498417 0.127198 68 1 84
-0.595381 -0.128647 0.037627 68 1 84
0.681604 -0.144503 0.432892 68 1 84
0.574852 -0.075316 -0.035557 68 1 84
-0.085315 0.145170 -0.258392 67 59 131
0.628627 -0.176370 0.077172 68 1 84
0.481381 0.397988 0.209782 68 1 84
-0.554136 -0.449887 -0.019378 68 1 84
-0.377351 0.070289 -0.185574 71 22 105
0.141162 -0.271435 -0.197975 68 1 84
-0.250159 -0.292534 -0.212727 72 28 110
-0.489284 0.393879 0.281528 68 1 84
-0.604896 0.183082 0.469396 68 1 84
-0.542467 0.287848 0.360510 68 1 84
0.666023 -0.279759 0.260387 68 1 84
0.475596 -0.386874 -0.174930 68 1 84
-0.523335 0.004826 -0.074445 68 1 84
0.376266 0.510249 0.250621 68 1 84
0.569554 0.242160 0.368489 68 1 84
-0.304931 0.392944 -0.087616 68 1 84
0.683404 -0.183133 0.454961 68 1 84
-0.636833 -0.600914 0.286243 68 1 84
0.243549 0.573322 0.073972 68 1 84
0.418371 -0.302372 -0.128871 68 1 84
0.614745 -0.143816 0.031658 68 1 84
-0.527970 0.043512 -0.051473 68 1 84
0.662795 -0.484560 0.279563 68 1 84
-0.500626 0.372630 0.294116 68 1 84
-0.326813 0.498649 -0.014724 68 1 84
-0.127756 0.226917 -0.223697 71 21 103
0.299527 -0.193987 -0.185927 72 33 114
-0.255006 0.505927 -0.107253 68 1 84
0.575153 0.224363 0.402826 68 1 84
0.462294 0.022713 -0.157421 68 1 84
-0.321253 0.120897 -0.170672 68 1 84
-0.612973 -0.194907 0.154432 68 1 84
-0.159327 0.433265 -0.183972 68 1 84
0.547071 -0.219328 -0.058091 68 1 84
0.312296 -0.311856 -0.240374 61 76 137
-0.041147 -0.049978 -0.429393 71 192 110
0.211009 -0.379162 -0.277108 52 94 141
-0.531370 0.231370 0.060427 68 1 84
0.402363 -0.364392 -0.238208 70 14 97
0.620418 -0.353437 0.073007 68 1 84
0.313930 0.410523 -0.037644 68 1 84
0.071480 0.601767 -0.185734 68 1 84
0.031933 -0.294016 -0.306860 35 169 130
-0.664522 -0.188370 0.332770 68 1 84
-0.334865 0.438743 -0.050226 68 1 84
-0.630288 -0.499637 0.248983 68 1 84
0.541152 0.308771 0.272018 68 1 84
0.673006 -0.160467 0.350486 69 5 88
0.641147 -0.239636 0.139514 68 1 84
0.079931 0.467389 -0.209366 68 1 84
-0.545029 0.090618 0.010278 68 1 84
0.520043 -0.300916 -0.051236 68 1 84
-0.381063 -0.038055 -0.206423 71 24 106
-0.304947 0.542075 0.064757 68 1 84
0.496994 -0.204268 -0.102695 68 1 84
0.422106 0.453873 0.336635 68 1 84
0.602801 0.011810 0.198453 68 1 84
-0.658561 -0.139740 0.322258 68 1 84
0.569658 0.195967 0.539785 68 1 84
-0.572315 0.074506 0.072871 68 1 84
0.617389 -0.090680 0.077219 68 1 84
0.573000 -0.248923 -0.023797 68 1 84
-0.425579 0.005197 -0.178742 71 24 106
-0.067407 0.392081 -0.212341 68 1 84
-0.587127 -0.264151 0.030239 68 1 84
0.100475 0.533217 -0.201672 68 1 84
-0.488129 0.395648 0.281898 68 1 84
0.080249 -0.098952 -0.349638 33 140 141
0.656440 -0.457017 0.249222 68 1 84
0.526555 -0.487670 -0.146424 68 1 84
-0.158640 0.296944 -0.210948 68 1 84
0.203536 -0.239633 -0.205049 72 30 112
-0.201220 -0.259036 -0.212472 59 80 138
0.530559 0.165189 0.036453 68 1 84
0.399591 0.258440 -0.067808 68 1 84
0.098406 -0.041476 -0.340514 47 106 141
0.608251 0.125510 0.309626 68 1 84
-0.615008 -0.320151 0.128860 68 1 84
0.553688 -0.393468 -0.076225 68 1 84
-0.586920 -0.020133 0.141046 68 1 84
-0.217198 0.600327 -0.023307 68 1 84
-0.633334 -0.039771 0.301860 68 1 84
-0.042348 0.436154 -0.214241 68 1 84
-0.596243 0.129977 0.252557 68 1 84
-0.408587 -0.434589 -0.248804 52 94 141
-0.404301 0.456599 0.071881 68 1 84
0.679423 -0.137263 0.472561 68 1 84
0.599430 0.171769 0.414314 68 1 84
-0.107797 0.577164 -0.196875 68 1 84
-0.221915 0.333840 -0.148289 68 1 84
-0.237651 0.194110 -0.167844 71 18 101
0.656364 -0.349947 0.210099 68 1 84
-0.158056 -0.293578 -0.195891 67 59 131
-0.162834 0.073801 -0.200703 65 65 134
-0.592563 -0.059906 0.177480 68 1 84
-0.011592 0.127937 -0.258038 68 1 84
-0.060675 0.013187 -0.404635 30 153 138
0.652568 -0.050222 0.332484 68 1 84
0.651522 -0.285818 0.192215 68 1 84
0.513050 0.311628 0.466367 68 1 84
0.229743 0.453852 -0.110875 68 1 84
0.064546 0.463138 -0.212826 68 1 84
-0.677160 -0.267972 0.506241 68 1 84
0.633642 -0.271458 0.105262 68 1 84
0.643696 -0.325756 0.155571 68 1 84
-0.009050 -0.107389 -0.405996 170 219 50
0.144685 0.566879 -0.163561 68 1 84
-0.679037 -0.191369 0.373599 68 1 84
0.510645 -0.271115 -0.064633 68 1 84
0.113923 0.007743 -0.270736 69 54 129
0.682291 -0.263671 0.475423 68 1 84
0.602656 -0.261744 0.019932 68 1 84
0.578449 -0.331316 -0.003207 68 1 84
0.120589 0.564989 -0.181462 68 1 84
0.042314 0.554446 -0.215815 68 1 84
-0.600111 -0.444109 0.102288 68 1 84
0.097480 -0.381667 -0.317530 46 108 142
-0.606904 0.160886 0.536258 68 1 84
-0.679287 -0.294131 0.439321 68 1 84
-0.510050 0.063754 -0.071003 68 1 84
0.007696 0.639748 -0.162958 68 1 84
-0.489641 -0.221840 -0.099616 68 1 84
-0.667866 -0.146042 0.504540 68 1 84
-0.595633 -0.197287 0.037655 68 1 84
-0.399626 0.015115 -0.191964 68 1 84
-0.391171 0.484219 0.102826 68 1 84
0.150754 0.354456 -0.180200 68 1 84
-0.412774 0.327678 -0.035981 68 1 84
0.237570 -0.337766 -0.257681 64 67 135
0.166247 -0.387703 -0.295788 44 114 142
-0.535814 0.012858 -0.051253 68 1 84
-0.011002 0.087580 -0.253769 71 17 99
0.624344 -0.473215 0.101427 68 1 84
-0.405927 0.162481 -0.119530 68 1 84
-0.040351 -0.382725 -0.330403 44 114 142
0.088055 -0.355388 -0.289325 36 133 141
0.683851 -0.459775 0.415419 68 1 84
0.310175 0.410323 -0.041411 68 1 84
-0.308594 -0.353953 -0.260381 65 65 134
0.099643 0.016810 -0.223247 68 1 84
0.204401 0.167451 -0.172781 68 1 84
-0.256685 0.190358 -0.159524 68 1 84
0.582574 0.199505 0.470212 68 1 84
-0.599542 0.003489 0.211054 68 1 84
-0.561270 -0.306267 -0.003862 68 1 84
0.492840 -0.250966 -0.084626 68 1 84
-0.538704 -0.180727 -0.063982 68 1 84
-0.596683 0.098520 0.231096 68 1 84
0.174502 -0.345946 -0.233899 47 106 141
0.684033 -0.337510 0.478089 68 1 84
0.605815 0.156672 0.424159 68 1 84
0.115513 -0.313002 -0.209634 70 45 124
0.654428 -0.349108 0.200734 68 1 84
-0.611459 -0.271886 0.115018 68 1 84
-0.592543 -0.045215 0.181530 68 1 84
-0.677982 -0.165257 0.468095 68 1 84
-0.292322 0.537363 -0.014933 68 1 84
0.683012 -0.324035 0.449017 68 3 87
-0.644536 0.029166 0.393351 68 1 84
-0.207907 0.097622 -0.187297 71 42 121
-0.507156 -0.091129 -0.103901 68 1 84
-0.214951 0.027178 -0.186242 68 1 84
0.625991 0.095132 0.378862 68 1 84
-0.613983 -0.524352 0.193144 68 1 84
-0.573444 0.112350 0.101133 68 1 84
-0.340969 0.422612 -0.049357 68 1 84
-0.660542 -0.610989 0.384924 68 1 84
0.527600 -0.184313 -0.085657 68 1 84
-0.183920 0.231751 -0.182662 69 6 90
-0.644109 0.052763 0.461008 68 1 84
-0.675513 -0.170316 0.363497 68 1 84
0.203362 0.410845 -0.138945 68 1 84
0.624173 0.019402 0.289632 68 1 84
0.654781 -0.169731 0.255646 68 1 84
0.683197 -0.171231 0.439685 68 1 84
0.147031 0.527155 -0.176720 68 1 84
-0.206364 -0.458749 -0.351296 207 225 28
-0.276525 0.267105 -0.104631 68 1 84
0.467909 -0.352579 -0.132807 68 1 84
-0.087449 0.256997 -0.241678 68 1 84
0.324277 -0.423886 -0.321179 31 148 139
-0.252254 0.575399 0.034806 68 1 84
0.576550 -0.431325 -0.043409 68 1 84
0.575607 0.238742 0.306503 68 1 84
0.245312 0.550953 -0.015818 68 1 84
0.154851 0.529390 -0.170455 68 1 84
0.536246 -0.066172 -0.087100 68 1 84
0.667839 -0.181216 0.313862 68 1 84
-0.179106 -0.378023 -0.269172 50 99 141
-0.648993 -0.000353 0.522116 68 1 84
0.526325 -0.066192 -0.099006 68 1 84
-0.276507 0.544196 -0.041500 68 1 84
-0.047877 0.543933 -0.222770 72 28 110
0.582456 0.211670 0.260181 68 1 84
0.674353 -0.520360 0.330101 68 1 84
-0.452769 -0.060460 -0.158925 71 22 105
-0.541158 0.307352 0.199133 68 1 84
-0.563331 0.259103 0.504430 68 1 84
-0.501622 0.331246 0.077611 68 1 84
0.267763 0.506608 -0.038634 68 1 84
-0.592635 -0.053449 0.179635 68 1 84
-0.134796 -0.212949 -0.213130 58 83 139
0.648715 -0.393378 0.177817 68 1 84
-0.611135 -0.189870 0.144384 68 1 84
-0.597518 0.125762 0.255504 68 1 84
0.635619 -0.569418 0.150308 68 1 84
0.348727 0.173952 -0.129279 68 1 84
0.191574 0.601074 0.018887 68 1 84
0.122437 0.005544 -0.275167 69 50 127
-0.042478 0.329157 -0.259965 68 1 84
0.678966 -0.117683 0.455839 68 1 84
0.355657 0.298636 -0.060116 68 1 84
0.682202 -0.457566 0.399508 68 1 84
0.364987 0.066563 -0.190333 68 1 84
0.403690 -0.334053 -0.200697 68 1 84
0.071791 0.572427 -0.202478 68 1 84
-0.667299 -0.421185 0.400252 68 1 84
0.101441 -0.035413 -0.336019 42 117 142
-0.584051 -0.430544 0.053239 68 1 84
0.655771 -0.038386 0.353754 68 1 84
0.682010 -0.196692 0.400382 68 1 84
0.191117 0.603672 -0.044972 68 1 84
0.249149 0.562879 0.033425 68 1 84
-0.368632 -0.360345 -0.222687 70 49 126
0.307051 0.523221 0.066072 68 1 84
0.589917 -0.410703 0.009283 68 1 84
-0.168488 0.196329 -0.217494 64 67 135
-0.396871 0.473236 0.090023 68 1 84
-0.659061 -0.327699 0.292637 68 1 84
0.450735 0.348378 0.049313 68 1 84
-0.654916 -0.042242 0.550771 68 1 84
0.682990 -0.292536 0.475530 68 1 84
-0.583713 -0.076354 0.015051 68 1 84
0.530974 -0.079285 -0.094613 68 1 84
-0.657792 -0.313602 0.344802 68 1 84
0.683041 -0.202674 0.406738 68 1 84
-0.272341 0.345628 -0.114343 68 1 84
0.508738 -0.480337 -0.186313 72 26 108
0.243004 -0.286942 -0.212083 65 66 134
0.611384 -0.100856 0.036015 68 1 84
0.411112 0.163278 -0.117153 68 1 84
-0.426882 0.233457 -0.068649 68 1 84
-0.026034 -0.430018 -0.356375 87 198 101
-0.395196 -0.255875 -0.136171 68 1 84
-0.619804 0.136526 0.461620 68 1 84
0.498322 0.371468 0.189747 68 1 84
0.146858 -0.011434 -0.243354 71 37 117
0.248928 0.413183 -0.099414 68 1 84
0.026909 0.590435 -0.203977 68 1 84
0.601445 -0.468831 0.035554 68 1 84
0.463564 -0.401778 -0.250792 72 29 111
-0.552250 -0.476581 -0.026570 68 1 84
-0.471436 -0.321726 -0.071084 68 1 84
0.098668 0.131531 -0.235961 71 20 102
0.609361 -0.044656 0.206038 68 1 84
-0.546948 0.283725 0.490538 68 1 84
0.014339 -0.375706 -0.332519 73 193 109
0.512330 -0.124982 -0.112146 68 1 84
-0.041080 0.039171 -0.322848 59 80 138
-0.552340 0.212030 0.098742 68 1 84
0.052445 0.237420 -0.242397 68 1 84
0.038654 -0.149960 -0.364389 87 198 101
-0.330253 0.286060 -0.090646 68 1 84
0.169076 0.206975 -0.192692 68 1 84
-0.462186 0.359537 0.041114 68 1 84
0.662580 -0.416588 0.285354 68 1 84
-0.063167 0.556998 -0.216996 69 6 90
0.525687 0.128991 -0.000844 68 1 84
-0.123958 -0.066528 -0.267654 34 137 141
-0.496480 -0.440547 -0.129564 68 1 84
0.362077 0.243979 -0.089578 68 1 84
-0.107404 0.009190 -0.235836 59 80 138
-0.278414 0.341660 -0.109698 68 1 84
-0.032011 0.628434 -0.177201 68 1 84
-0.010077 0.624053 -0.183970 68 1 84
0.393731 0.047949 -0.189580 68 1 84
0.637318 0.038222 0.518941 68 1 84
-0.192406 0.263702 -0.169138 70 11 94
-0.669602 -0.159971 0.348163 68 1 84
-0.587159 -0.151189 0.009408 68 1 84
0.572191 -0.462944 -0.069522 68 1 84
0.358604 0.518387 0.167702 68 1 84
0.679948 -0.235031 0.366467 68 1 84
0.051875 -0.153243 -0.349926 39 173 128
-0.174238 0.586404 -0.146318 68 1 84
0.047049 0.337289 -0.249181 68 1 84
-0.082876 0.656319 -0.107870 68 1 84
-0.011426 0.229389 -0.255701 68 1 84
-0.068474 0.018649 -0.262366 61 75 137
-0.567473 -0.506932 0.006971 68 1 84
-0.594225 -0.421744 0.080748 68 1 84
-0.551845 -0.525045 -0.040482 68 1 84
-0.625130 -0.041599 0.280866 68 1 84
-0.004999 0.231735 -0.252759 68 1 84
-0.234125 0.420683 -0.138270 68 1 84
-0.069008 -0.229763 -0.274598 33 167 132
0.575743 -0.450048 -0.052749 68 1 84
0.393588 -0.244250 -0.156936 68 1 84
0.618922 -0.236524 0.047137 68 1 84
-0.154516 0.165269 -0.226515 57 84 139
0.131349 0.008897 -0.241895 70 9 92
-0.082105 0.374019 -0.217987 68 1 84
-0.684923 -0.162560 0.422672 68 1 84
0.403989 0.387199 0.029166 68 1 84
0.621490 0.111818 0.389399 68 1 84
0.305706 -0.109464 -0.215953 64 67 135
0.636592 -0.526737 0.162553 68 1 84
0.045068 0.084193 -0.244733 71 17 99
-0.190919 -0.221378 -0.201557 71 21 103
-0.038205 0.041200 -0.376999 44 114 142
-0.060128 -0.320051 -0.264295 42 118 142
-0.619094 -0.447079 0.173991 68 1 84
0.463385 0.227169 -0.033510 68 1 84
-0.254111 0.200663 -0.156697 68 1 84
0.591856 -0.167739 -0.017326 68 1 84
0.194087 0.142289 -0.180624 68 1 84
0.246012 0.191701 -0.142087 68 1 84
-0.578512 -0.009585 0.035328 68 1 84
-0.580560 -0.514398 0.045193 68 1 84
0.679137 -0.163026 0.484453 68 1 84
0.145802 0.176988 -0.215747 68 1 84
0.609824 -0.054184 0.177396 68 1 84
0.655794 -0.119992 0.301605 68 1 84
0.656923 0.008518 0.468052 68 1 84
-0.422799 -0.064919 -0.181615 72 25 107
0.629209 -0.534743 0.134167 68 1 84
-0.584621 0.225600 0.458072 68 1 84
0.217766 0.060424 -0.176990 68 1 84
0.592530 -0.143871 -0.017296 68 1 84
0.217020 -0.066916 -0.227563 68 55 129
-0.612229 0.124789 0.349865 68 1 84
-0.595929 0.188705 0.429292 68 1 84
0.116072 -0.401605 -0.333867 30 152 138
-0.048320 0.600072 -0.199020 68 1 84
-0.652808 -0.176906 0.302669 68 1 84
-0.380503 -0.244104 -0.149816 68 1 84
-0.504787 0.116046 -0.049233 68 1 84
-0.430344 -0.046180 -0.177646 69 6 90
0.414819 -0.266311 -0.129666 68 1 84
-0.559848 0.240826 0.155607 68 1 84
-0.573710 0.141294 0.125324 68 1 84
-0.023741 0.070053 -0.254686 71 44 123
-0.684203 -0.153420 0.427509 68 1 84
-0.400631 -0.278692 -0.124945 68 1 84
0.684942 -0.246915 0.412452 68 1 84
-0.046585 0.615972 -0.187260 68 1 84
-0.161472 -0.193317 -0.210829 56 86 139
-0.120889 0.158013 -0.243680 70 11 94
-0.497654 0.375773 0.135089 68 1 84
-0.318218 0.533154 0.069351 68 1 84
-0.674055 -0.164185 0.496495 68 1 84
0.284715 0.248837 -0.087580 68 1 84
-0.073074 -0.373282 -0.305912 54 91 140
0.470338 -0.181652 -0.129805 68 1 84
-0.018946 0.414474 -0.213424 68 1 84
-0.670276 -0.357998 0.432442 68 1 84
-0.102259 0.647124 -0.125611 68 1 84
0.072409 0.290134 -0.258800 68 1 84
0.181015 -0.356729 -0.245445 40 123 142
-0.105657 -0.128793 -0.279335 31 149 139
-0.061649 -0.320015 -0.261385 41 120 142
-0.094333 -0.044182 -0.364420 73 193 109
-0.667100 -0.504321 0.393666 68 1 84
0.408956 0.396733 0.043791 68 1 84
-0.512887 -0.331438 -0.046453 68 1 84
-0.123072 -0.313668 -0.195599 67 59 131
0.408575 -0.099255 -0.191241 68 1 84
-0.636528 -0.295375 0.219103 68 1 84
-0.487664 0.402311 0.187488 68 1 84
0.657144 0.014864 0.457372 68 1 84
-0.527384 -0.083483 -0.081076 68 1 84
-0.617919 -0.413325 0.153922 68 1 84
-0.668958 -0.282299 0.375981 68 1 84
0.146009 0.250404 -0.193954 68 1 84
-0.568708 0.240921 0.412148 68 1 84
-0.587611 -0.083407 0.025760 68 1 84
-0.467159 0.115386 -0.100799 68 1 84
-0.525038 0.002852 -0.072391 68 1 84
0.577374 0.221387 0.393149 68 1 84
-0.264780 -0.105367 -0.225775 32 144 140
0.404665 0.147779 -0.130020 68 1 84
0.088277 0.007399 -0.240152 70 49 126
0.211696 -0.380243 -0.278816 58 82 139
-0.289482 0.539756 -0.016317 68 1 84
0.578337 0.215686 0.230629 68 1 84
0.527226 0.017808 -0.080435 68 1 84
-0.615400 -0.529703 0.203212 68 1 84
0.127480 -0.143380 -0.249184 53 92 140
0.213903 0.564006 -0.076820 68 1 84
-0.072511 -0.067040 -0.395662 34 167 132
0.604934 -0.023817 0.189292 68 1 84
-0.075103 -0.339271 -0.240557 55 89 140
0.297831 0.532896 0.068864 68 1 84
0.480341 0.366391 0.415890 68 1 84
-0.131837 -0.404076 -0.319585 44 112 142
0.180455 -0.253234 -0.203947 72 33 114
-0.085307 -0.228199 -0.249931 32 144 140
0.612687 -0.051509 0.218255 68 1 84
0.038784 -0.447403 -0.355723 241 229 28
-0.389416 -0.150660 -0.184004 71 15 98
-0.387189 0.201337 -0.106570 68 1 84
-0.464542 0.228343 -0.036286 68 1 84
-0.541606 0.137175 0.030819 68 1 84
-0.584524 -0.030618 0.047210 68 1 84
-0.166961 0.191315 -0.218543 66 62 133
-0.459167 0.335195 0.018108 68 1 84
-0.482066 0.179060 -0.042680 68 1 84
0.551753 0.285818 0.319164 68 1 84
0.609631 -0.331190 0.046254 68 1 84
0.558452 0.268509 0.223345 68 1 84
-0.174635 -0.308453 -0.207899 66 62 133
0.082681 -0.275412 -0.256528 49 102 141
0.628018 0.012871 0.296744 68 1 84
-0.334347 0.285970 -0.089896 68 1 84
-0.495130 -0.017742 -0.116236 68 1 84
0.360107 0.011306 -0.211161 63 71 136
-0.016413 0.031764 -0.407975 46 109 142
0.469391 0.349584 0.076442 68 1 84
0.414937 0.477511 0.217208 68 1 84
-0.585807 -0.113854 0.009228 68 1 84
-0.393393 -0.458532 -0.266431 39 124 142
0.611219 -0.445928 0.057917 68 1 84
0.011523 0.316356 -0.266534 68 1 84
-0.050582 -0.007755 -0.423944 30 154 137
0.387673 0.205619 -0.101556 68 1 84
0.136602 0.460050 -0.184560 68 1 84
0.316135 0.124279 -0.165395 68 1 84
0.074622 0.131930 -0.248087 70 45 124
-0.290363 0.462551 -0.088853 68 1 84
-0.654986 -0.039902 0.544146 68 1 84
0.626467 -0.543981 0.121918 68 1 84
-0.378584 -0.375603 -0.228481 72 35 116
0.574421 -0.138717 -0.044058 68 1 84
0.182879 -0.346163 -0.238554 54 90 140
-0.129747 -0.429296 -0.349976 30 157 136
0.609078 -0.200455 0.017137 68 1 84
-0.153681 -0.066492 -0.222896 59 81 138
0.668288 -0.195290 0.307330 68 1 84
-0.268541 -0.121661 -0.220112 36 134 141
0.667883 -0.067698 0.491115 68 1 84
0.433897 0.111595 -0.136735 68 1 84
-0.151547 0.539811 -0.188296 68 1 84
0.473055 -0.059863 -0.155436 68 1 84
0.131689 -0.054985 -0.240138 71 39 119
0.396612 0.146803 -0.134138 68 1 84
0.663531 -0.228426 0.258945 68 1 84
0.683415 -0.224133 0.471466 68 1 84
-0.248462 0.151529 -0.173041 68 1 84
0.386769 -0.061007 -0.206766 71 24 106
-0.660963 -0.129384 0.332692 68 1 84
0.324335 -0.288923 -0.206766 52 94 141
0.638248 0.078851 0.449692 68 1 84
-0.670554 -0.165949 0.349773 68 1 84
-0.620011 0.147841 0.510671 68 1 84
0.009218 0.378524 -0.220090 68 1 84
-0.666266 -0.311650 0.383693 68 1 84
0.645719 -0.146979 0.235545 68 1 84
-0.620656 -0.496227 0.214842 68 1 84
0.139166 0.134202 -0.214361 68 1 84
-0.510072 0.149117 -0.019614 68 1 84
-0.199006 -0.012450 -0.200599 68 1 84
0.145193 0.210528 -0.208380 68 1 84
0.531865 0.270678 0.515795 68 1 84
-0.252982 -0.019882 -0.225900 71 38 118
-0.602810 0.196947 0.485948 68 1 84
0.313300 0.453456 -0.018589 68 1 84
0.308459 0.211807 -0.110366 68 1 84
-0.667800 -0.062458 0.465468 68 1 84
0.675743 -0.111865 0.396448 68 1 84
0.021566 0.044578 -0.377313 49 102 141
0.336170 -0.084367 -0.217811 60 78 138
0.321285 -0.259604 -0.209719 69 50 127
0.173212 0.269024 -0.176568 68 1 84
-0.058046 0.019641 -0.293319 38 128 142
0.202321 0.178929 -0.172310 68 1 84
0.053905 0.025741 -0.249482 56 87 140
0.244873 0.566840 0.035616 68 1 84
-0.508703 0.356522 0.305479 68 1 84
-0.644020 -0.078551 0.313077 68 1 84
0.208517 0.585813 -0.044376 68 1 84
-0.576190 0.215295 0.267572 68 1 84
0.423466 0.451674 0.339759 68 1 84
-0.650875 -0.211402 0.294864 68 1 84
0.164644 -0.041896 -0.194321 68 1 84
0.300737 0.103087 -0.177509 68 1 84
-0.170040 0.501120 -0.182091 68 1 84
-0.611058 0.139624 0.379799 68 1 84
0.262267 0.426109 -0.085437 68 1 84
0.555450 0.149560 0.079490 68 1 84
-0.175778 0.523550 -0.175740 68 1 84
0.528056 0.194655 0.050569 68 1 84
0.616913 -0.495210 0.081780 68 1 84
-0.339878 0.322761 -0.075849 68 1 84
-0.411253 -0.072494 -0.188094 69 8 91
-0.064156 0.295502 -0.265728 69 50 127
-0.117731 0.152705 -0.244107 71 17 99
-0.593368 -0.145100 0.027588 68 1 84
-0.082343 0.317000 -0.258574 72 29 111
0.654715 0.012251 0.475416 68 1 84
-0.344554 -0.481635 -0.304827 77 194 107
0.494183 0.278010 0.051562 68 1 84
-0.673648 -0.161528 0.360384 68 1 84
-0.483496 -0.286349 -0.076379 68 1 84
0.600467 0.084352 0.224894 68 1 84
0.642930 -0.153452 0.208908 68 1 84
-0.141257 0.179182 -0.235441 71 37 117
-0.128145 0.621600 -0.150033 68 1 84
-0.340505 0.495874 0.012862 68 1 84
0.077124 -0.116580 -0.341575 30 154 137
-0.649751 -0.272666 0.263891 68 1 84
-0.275379 -0.051898 -0.229884 67 60 132
-0.489899 0.364320 0.093683 68 1 84
-0.443650 0.455512 0.259361 68 1 84
0.455774 0.202279 -0.061193 68 1 84
0.628986 0.067954 0.348995 68 1 84
-0.668372 -0.499039 0.404178 68 1 84
-0.527776 -0.356030 -0.034509 68 1 84
-0.614461 0.096636 0.317494 68 1 84
-0.370758 -0.371412 -0.231759 65 66 134
0.375468 -0.244874 -0.176804 69 5 88
0.288015 0.346103 -0.071461 68 1 84
0.534014 0.251065 0.100682 68 1 84
0.248758 0.560644 0.025025 68 1 84
0.009856 -0.312431 -0.308727 30 158 136
0.485798 -0.293997 -0.070597 68 1 84
-0.110414 -0.061393 -0.296454 40 122 142
-0.590182 0.208103 0.447386 68 1 84
-0.446469 -0.468434 -0.233150 47 105 141
0.616729 -0.092094 0.069847 68 1 84
-0.487045 0.178122 -0.036968 68 1 84
0.612311 -0.020075 0.242843 68 1 84
0.545426 0.249549 0.517375 68 1 84
0.568550 0.101263 0.071848 68 1 84
-0.120371 0.207505 -0.243562 71 37 117
-0.584805 0.196965 0.304279 68 1 84
-0.081343 0.177494 -0.266562 56 87 140
0.072123 -0.141434 -0.330424 32 164 133
0.462196 0.098115 -0.123453 68 1 84
0.485423 -0.285060 -0.072509 68 1 84
-0.568902 0.097467 0.073412 68 1 84
-0.044260 0.641171 -0.161368 68 1 84
-0.598577 0.047674 0.216004 68 1 84
0.202246 -0.112173 -0.225854 71 42 121
0.663731 -0.073157 0.360760 68 1 84
-0.023624 0.298743 -0.268946 68 1 84
0.410850 0.451418 0.120990 68 1 84
-0.354818 0.099221 -0.178662 68 1 84
0.276502 0.552177 0.071892 68 1 84
-0.575173 0.034285 0.056212 68 1 84
-0.358827 -0.292875 -0.171552 68 3 87
0.202271 0.266704 -0.142769 68 1 84
-0.043679 0.319919 -0.265095 68 1 84
-0.504239 0.353810 0.356044 68 1 84
-0.186256 0.610460 -0.100972 68 1 84
-0.528008 0.169491 0.023899 68 1 84
0.444991 -0.167016 -0.151579 68 1 84
0.106361 -0.318366 -0.220993 58 83 139
0.076986 0.583564 -0.195133 68 1 84
-0.340248 -0.471820 -0.305372 42 176 126
0.660373 -0.300335 0.230468 68 1 84
-0.146254 -0.107425 -0.236778 46 108 142
-0.661151 -0.294202 0.353663 68 1 84
-0.600788 -0.230822 0.062479 68 1 84
0.644322 -0.344448 0.156849 68 1 84
0.396996 0.267471 -0.063759 68 1 84
0.451599 0.343055 0.045832 68 1 84
0.589648 -0.485350 -0.016400 68 1 84
-0.606253 0.155345 0.545484 68 1 84
0.609886 -0.230815 0.025570 68 1 84
0.234161 0.364378 -0.116648 68 1 84
-0.606532 -0.243411 0.088660 68 1 84
-0.568686 0.196610 0.150674 68 1 84
-0.160275 0.226644 -0.204939 68 3 87
0.226987 -0.418493 -0.329545 38 172 129
-0.076423 0.658624 -0.095911 68 1 84
0.656204 -0.408443 0.222357 68 1 84
-0.534815 -0.132231 -0.071606 68 1 84
-0.004615 0.069915 -0.254944 72 30 112
-0.579632 -0.369654 0.039935 68 1 84
-0.225399 0.165365 -0.182776 71 44 123
-0.472914 0.117120 -0.092924 68 1 84
-0.533548 -0.034012 -0.067507 68 1 84
0.169764 0.472419 -0.163719 68 1 84
-0.150278 -0.302605 -0.195243 69 6 90
0.664475 -0.067595 0.518772 68 1 84
-0.379206 0.215947 -0.103782 68 1 84
-0.624037 0.030512 0.303771 68 1 84
0.624391 0.089549 0.357921 68 1 84
-0.172792 0.010719 -0.182253 68 1 84
0.682516 -0.246959 0.484733 68 1 84
0.257952 0.276129 -0.095630 68 1 84
0.059373 0.034676 -0.351168 59 80 138
-0.317251 -0.195417 -0.182410 68 1 84
-0.144166 0.082169 -0.212613 60 77 138
0.627495 0.102408 0.453516 68 1 84
-0.035465 0.346163 -0.245177 68 1 84
-0.489829 -0.171340 -0.112308 68 1 84
-0.630432 0.109652 0.511738 68 1 84
0.221721 -0.217183 -0.199427 69 52 127
0.614823 -0.068058 0.135812 68 1 84
0.521745 0.177837 0.028258 68 1 84
0.683508 -0.211932 0.406939 68 1 84
-0.367100 -0.067868 -0.209613 71 37 117
0.600704 -0.403198 0.032607 68 1 84
-0.242524 -0.435709 -0.325068 62 188 115
0.400314 0.079006 -0.173329 68 1 84
-0.259847 0.568100 -0.014896 68 1 84
0.650757 -0.336650 0.185453 68 1 84
-0.445672 -0.406660 -0.184741 69 8 91
-0.618944 -0.171807 0.219294 68 1 84
-0.086957 -0.379199 -0.304438 65 66 134
-0.635317 -0.282944 0.217537 68 1 84
-0.480697 0.374731 0.088284 68 1 84
0.570298 0.194238 0.154962 68 1 84
-0.123764 0.326983 -0.228595 72 30 112
0.593853 0.093591 0.179097 68 1 84
-0.608832 0.144906 0.375122 68 1 84
0.058112 0.002460 -0.415836 30 152 138
-0.565623 0.244040 0.372833 68 1 84
0.075041 0.066707 -0.225597 68 1 84
0.050625 -0.261725 -0.303900 33 166 133
-0.537216 -0.521777 -0.113107 68 1 84
0.145410 0.627346 -0.096619 68 1 84
-0.067154 -0.302017 -0.244917 56 86 139
-0.488259 -0.147211 -0.117050 68 1 84
0.679301 -0.304077 0.358355 68 1 84
0.515093 0.342550 0.329664 68 1 84
-0.599902 -0.044138 0.208930 68 1 84
-0.411465 -0.351825 -0.138445 68 1 84
0.128877 0.272792 -0.221479 68 1 84
0.068425 -0.190340 -0.308964 40 122 142
0.451280 0.428735 0.322249 68 1 84
0.522864 -0.058694 -0.102511 68 1 84
0.060389 0.078183 -0.236694 68 1 84
-0.293088 0.246211 -0.113142 68 1 84
0.121357 -0.068211 -0.245015 65 65 134
-0.587737 -0.011512 0.156355 68 1 84
0.538700 0.310607 0.307138 68 1 84
-0.681161 -0.171544 0.383645 68 1 84
0.433819 -0.283544 -0.104245 68 1 84
0.113009 -0.001767 -0.315179 44 114 142
0.684590 -0.280779 0.402679 69 52 127
0.627981 0.090944 0.382885 68 1 84
-0.575572 0.105299 0.109345 68 1 84
0.077672 0.099173 -0.236380 68 1 84
-0.171865 0.459415 -0.179987 68 1 84
-0.659525 -0.318112 0.361442 68 1 84
-0.070697 -0.266170 -0.249060 34 167 132
-0.162255 0.564280 -0.171438 68 1 84
-0.066690 0.394556 -0.211896 68 1 84
0.300241 0.278719 -0.077682 68 1 84
0.649910 -0.385174 0.181498 68 1 84
0.647651 -0.502200 0.202942 68 1 84
-0.143872 -0.228241 -0.203399 63 69 135
-0.200021 -0.341309 -0.254839 63 69 135
-0.660710 -0.259291 0.324416 68 1 84
0.110521 0.384233 -0.196013 68 1 84
0.051797 -0.358398 -0.314958 36 133 141
-0.063750 0.336173 -0.251274 69 5 88
0.683707 -0.315345 0.429984 72 28 110
-0.593920 -0.087793 0.059941 68 1 84
-0.448493 -0.405380 -0.176168 68 1 84
-0.256497 0.319331 -0.122727 69 5 88
-0.080724 -0.096039 -0.354745 41 175 127
0.015225 0.064081 -0.252580 69 5 88
0.434351 0.124902 -0.127853 68 1 84
-0.599241 -0.562765 0.122968 68 1 84
0.454557 0.230357 -0.042218 68 1 84
0.057439 0.209674 -0.256978 71 15 98
0.508510 -0.494438 -0.187233 61 74 137
0.502591 -0.039979 -0.125006 68 1 84
-0.647909 -0.239437 0.273472 68 1 84
0.468301 0.251263 -0.007216 68 1 84
-0.348160 -0.426858 -0.283377 43 116 142
0.393677 0.498766 0.224365 68 1 84
-0.268112 0.223246 -0.136166 68 1 84
0.411735 0.135494 -0.134328 68 1 84
-0.370502 -0.120525 -0.199302 61 75 137
-0.481379 0.198817 -0.032599 68 1 84
0.257827 0.179061 -0.144190 68 1 84
0.534517 0.121374 0.011801 68 1 84
-0.622091 -0.565258 0.238662 68 1 84
0.521451 0.281941 0.098666 68 1 84
0.440396 0.152614 -0.105742 68 1 84
-0.112546 0.271320 -0.240788 72 33 114
0.520979 -0.047652 -0.104037 68 1 84
-0.657115 -0.055945 0.557348 68 1 84
0.559761 0.104303 0.051664 68 1 84
-0.592278 -0.205130 0.028717 68 1 84
-0.559592 -0.433545 -0.005256 68 1 84
-0.002916 0.051694 -0.316375 55 88 140
0.531576 0.008604 -0.077710 68 1 84
0.045690 0.041500 -0.361382 55 88 140
0.426895 0.465156 0.264786 68 1 84
0.604105 -0.454024 0.041630 68 1 84
0.379182 -0.259965 -0.175279 68 1 84
0.601729 0.001755 0.117311 68 1 84
-0.530557 0.306488 0.472794 68 1 84
-0.216205 0.072121 -0.181819 69 6 90
-0.398980 -0.229305 -0.144688 68 1 84
0.676394 -0.126382 0.387167 68 1 84
-0.249731 -0.251894 -0.219932 64 67 135
-0.350308 -0.249599 -0.175228 72 28 110
0.500072 -0.020321 -0.125939 68 1 84
-0.593626 -0.085104 0.122254 68 1 84
-0.156427 -0.038395 -0.220612 54 91 140
0.094930 -0.362244 -0.292672 56 86 139
0.066812 -0.362147 -0.311823 31 149 139
-0.670210 -0.350882 0.425221 68 1 84
-0.652406 -0.495679 0.299398 68 1 84
-0.159359 -0.357526 -0.246706 53 93 140
0.050137 -0.140369 -0.361748 37 171 129
0.225213 0.575512 -0.001417 68 1 84
-0.043503 0.008449 -0.421677 34 138 141
0.588706 -0.469385 -0.012061 68 1 84
-0.031609 0.022624 -0.416138 35 137 141
-0.576777 0.113877 0.122056 68 1 84
0.308870 0.546954 0.142362 68 1 84
-0.657618 -0.013221 0.413684 68 1 84
-0.553886 0.071026 0.017489 68 1 84
-0.087868 -0.088216 -0.339412 31 161 135
0.392550 0.222034 -0.090871 68 1 84
0.558396 0.092409 0.036816 68 1 84
0.372865 0.504806 0.163790 68 1 84
-0.612203 0.063853 0.277825 68 1 84
-0.025611 0.437643 -0.215976 68 1 84
0.614881 0.129071 0.383601 68 1 84
-0.330126 -0.247979 -0.192457 71 38 118
0.590172 0.193623 0.388456 68 1 84
0.588373 -0.157866 -0.023699 68 1 84
-0.388834 -0.352587 -0.189172 70 12 95
0.110554 -0.266175 -0.216507 72 28 110
-0.609824 -0.525155 0.167454 68 1 84
-0.579706 -0.457283 0.042102 68 1 84
0.618845 -0.087555 0.101218 68 1 84
0.120088 0.643612 -0.079033 68 1 84
0.603048 0.003040 0.168959 68 1 84
0.681296 -0.206907 0.505810 68 1 84
0.462195 -0.077263 -0.162415 68 1 84
0.167672 0.344680 -0.169290 68 1 84
0.606991 -0.316250 0.039115 68 1 84
-0.586416 0.007497 0.144727 68 1 84
0.105137 -0.023815 -0.333648 31 150 139
0.537508 -0.153581 -0.083905 68 1 84
-0.096935 -0.224914 -0.237851 35 136 141
-0.610319 -0.615633 0.176600 68 1 84
-0.600275 -0.528446 0.118904 68 1 84
-0.661303 -0.261599 0.329039 68 1 84
0.152247 0.313558 -0.193499 68 1 84
-0.229733 0.493634 -0.136298 68 1 84
0.632552 -0.275347 0.101791 68 1 84
0.241648 0.530207 -0.059815 68 1 84
0.397582 -0.401826 -0.287431 71 44 123
-0.261466 0.265807 -0.109236 68 1 84
-0.155504 -0.304884 -0.197707 71 18 101
0.115807 -0.099255 -0.253608 71 38 118
0.348937 -0.324951 -0.241099 72 30 112
-0.676714 -0.285569 0.483629 68 1 84
0.286364 0.228711 -0.100140 68 1 84
-0.135242 0.194795 -0.238788 71 43 122
0.479620 0.139598 -0.076985 68 1 84
-0.505160 0.372672 0.167997 68 1 84
-0.670614 -0.489868 0.457011 68 1 84
0.326893 0.336555 -0.049486 68 1 84
-0.577044 -0.239744 0.001576 68 1 84
-0.600997 -0.145263 0.065471 68 1 84
-0.009305 -0.200364 -0.345964 85 198 102
-0.305524 0.124068 -0.169363 68 1 84
0.439116 -0.337877 -0.156476 68 1 84
-0.517591 0.342846 0.297600 68 1 84
0.594454 0.173837 0.279667 68 1 84
0.095741 -0.035509 -0.355646 39 126 142
-0.544599 0.179636 0.059923 68 1 84
-0.094877 0.091652 -0.239946 56 87 140
0.136371 0.590489 -0.155153 68 1 84
0.094976 -0.038362 -0.356427 40 122 142
0.503375 0.061460 -0.094959 68 1 84
0.105127 -0.211531 -0.244995 71 37 117
-0.560792 -0.556957 -0.013938 68 1 84
-0.557044 0.258792 0.169186 68 1 84
0.204374 -0.063788 -0.224565 70 45 124
-0.410901 -0.345353 -0.126525 68 1 84
0.311762 0.496068 0.023526 68 1 84
0.598410 0.017399 0.107035 68 1 84
0.511218 0.276961 0.076236 68 1 84
-0.329095 0.166568 -0.145294 68 1 84
-0.104036 -0.396349 -0.322515 46 108 142
-0.120759 -0.022496 -0.315937 30 156 137
-0.666660 -0.546651 0.397487 68 1 84
0.449462 -0.303979 -0.091532 68 1 84
-0.531192 -0.030138 -0.070420 68 1 84
-0.484491 -0.026081 -0.128764 68 1 84
-0.609472 -0.504034 0.158466 68 1 84
-0.612615 0.171790 0.497445 68 1 84
0.092854 -0.035485 -0.365574 35 136 141
-0.035214 0.547877 -0.222883 71 15 98
0.435057 0.456375 0.260865 68 1 84
-0.655933 -0.053759 0.571876 68 1 84
0.063372 0.091017 -0.239992 68 1 84
-0.439725 -0.116297 -0.161252 68 1 84
-0.125692 0.326207 -0.227763 72 28 110
0.054142 0.029618 -0.386116 50 98 141
0.363038 0.523001 0.203402 68 1 84
0.064491 -0.419524 -0.351124 38 172 129
-0.360349 0.407306 -0.035256 68 1 84
-0.583509 0.072759 0.148034 68 1 84
0.648905 -0.526088 0.217300 68 1 84
-0.271823 -0.278846 -0.215357 68 1 84
0.523898 -0.314299 -0.049183 68 1 84
0.468506 -0.475359 -0.248382 58 83 139
0.145359 0.623674 -0.106096 68 1 84
0.035462 -0.261421 -0.313339 35 168 131
0.416417 -0.097350 -0.187828 68 1 84
-0.582002 -0.009824 0.051802 68 1 84
-0.066660 -0.226877 -0.280974 30 158 136
0.479422 0.396529 0.298339 68 1 84
-0.663473 -0.076154 0.539694 68 1 84
-0.129984 -0.131138 -0.252282 46 107 142
-0.622023 -0.190199 0.214769 68 1 84
0.371096 -0.217290 -0.167624 68 1 84
0.313423 -0.376654 -0.281730 46 108 142
0.545179 -0.180130 -0.071439 68 1 84
-0.280822 -0.432564 -0.313863 30 156 137
-0.324049 -0.248040 -0.197098 66 62 133
0.565521 0.254397 0.235332 68 1 84
-0.574856 0.005362 0.032271 68 1 84
0.639310 -0.455206 0.153223 68 1 84
0.649207 -0.560786 0.214725 68 1 84
-0.217100 0.596908 -0.065979 68 1 84
-0.507445 -0.123906 -0.101644 68 1 84
-0.224694 -0.019055 -0.219676 71 38 118
0.166839 0.472020 -0.166286 68 1 84
0.406680 0.066614 -0.176433 68 1 84
-0.345182 -0.155766 -0.193928 69 50 127
0.199572 -0.165535 -0.207484 66 61 132
-0.351500 0.466414 -0.008001 68 1 84
-0.509989 0.337407 0.426760 68 1 84
0.187330 0.601343 -0.071270 68 1 84
-0.471316 0.085936 -0.112822 68 1 84
-0.523655 -0.302498 -0.044421 68 1 84
0.624745 -0.044408 0.262199 68 1 84
-0.574577 -0.322959 0.022270 68 1 84
0.024005 0.317448 -0.264698 68 1 84
-0.253987 0.260721 -0.114007 68 1 84
-0.376337 0.495383 0.098197 68 1 84
-0.050522 0.613924 -0.188505 68 1 84
-0.286837 0.515892 -0.061625 68 1 84
-0.612004 -0.414920 0.134424 68 1 84
-0.496377 0.380088 0.141884 68 1 84
0.185584 0.543225 -0.134563 68 1 84
-0.369834 -0.434503 -0.274387 44 114 142
-0.095725 0.486661 -0.214885 69 5 88
-0.614475 -0.343917 0.129394 68 1 84
-0.617556 -0.090673 0.252902 68 1 84
-0.335409 -0.247991 -0.188192 71 37 117
0.043701 0.286011 -0.264991 68 1 84
-0.353131 -0.029536 -0.216467 65 65 134
0.120452 0.255353 -0.218487 68 1 84
0.384774 0.273369 -0.066614 68 1 84
-0.512010 0.353088 0.294476 68 1 84
-0.584468 0.029293 0.135379 68 1 84
-0.659160 -0.549709 0.356844 68 1 84
0.683648 -0.239805 0.396207 72 35 116
-0.072691 0.141187 -0.261555 71 43 122
0.661805 -0.390100 0.283026 68 1 84
0.147828 -0.104261 -0.229793 71 44 123
0.014813 0.270777 -0.259385 68 1 84
0.088674 -0.171264 -0.286869 36 133 141
0.014641 0.660786 -0.109697 68 1 84
-0.440969 0.407110 0.061762 68 1 84
-0.409928 0.472028 0.115470 68 1 84
-0.377046 0.056893 -0.190347 68 1 84
0.622163 0.015970 0.282552 68 1 84
0.644822 -0.005178 0.340083 68 1 84
0.358742 -0.341024 -0.244135 68 57 130
-0.553493 -0.198904 -0.043130 68 1 84
0.382032 0.498032 0.167416 68 1 84
-0.178344 0.622345 -0.060324 68 1 84
-0.387534 0.491719 0.113274 68 1 84
0.446792 -0.195246 -0.135221 68 1 84
-0.618437 -0.185558 0.203763 68 1 84
-0.050792 0.524610 -0.224598 68 1 84
0.043508 0.023958 -0.273230 43 116 142
-0.075147 0.125986 -0.257034 72 29 111
-0.632956 -0.253607 0.218108 68 1 84
-0.289771 0.018170 -0.216986 65 65 134
-0.555427 -0.159979 -0.045284 68 1 84
0.162746 -0.413958 -0.338969 31 147 139
0.611516 -0.080161 0.052475 68 1 84
-0.396244 0.486132 0.118657 68 1 84
-0.427781 0.373902 0.009861 68 1 84
-0.517206 -0.259581 -0.063729 68 1 84
0.330081 0.095921 -0.181259 68 1 84
0.619876 -0.101990 0.081929 68 1 84
0.606425 -0.033995 0.172767 68 1 84
-0.014414 0.153266 -0.264303 70 48 125
-0.364719 -0.448655 -0.283550 34 137 141
-0.396650 0.478156 0.100388 68 1 84
0.684740 -0.215780 0.421636 68 1 84
-0.673020 -0.172803 0.356029 68 1 84
0.417094 0.039032 -0.181968 68 1 84
-0.005402 0.067024 -0.256263 72 26 108
-0.321523 -0.395969 -0.279763 54 90 140
-0.609998 -0.054154 0.239423 68 1 84
-0.668966 -0.081339 0.383737 68 1 84
-0.342283 -0.204476 -0.174433 68 1 84
-0.105039 0.349791 -0.224140 68 1 84
0.451515 -0.207275 -0.126796 68 1 84
-0.587875 0.192403 0.327275 68 1 84
-0.027375 -0.032838 -0.437994 66 190 113
0.517787 -0.381510 -0.108475 68 1 84
0.611032 -0.355207 0.051203 68 1 84
-0.411487 -0.347602 -0.129385 68 1 84
0.278825 -0.341614 -0.270019 57 85 139
0.591060 -0.336409 0.014979 68 1 84
0.643354 -0.001360 0.337653 68 1 84
0.069233 -0.083123 -0.387543 32 143 140
-0.537990 -0.135143 -0.067797 68 1 84
0.409958 0.220910 -0.083318 68 1 84
-0.474017 0.180288 -0.051481 68 1 84
0.609787 -0.409808 0.051363 68 1 84
0.658558 -0.129338 0.305809 68 1 84
-0.099611 0.276166 -0.249049 70 47 124
-0.581522 0.019674 0.082647 68 1 84
0.337367 0.041870 -0.205309 72 28 110
0.529374 -0.389342 -0.104111 68 1 84
-0.641653 -0.358676 0.248148 68 1 84
0.028445 -0.033000 -0.439985 103 204 92
0.601321 0.029860 0.173391 68 1 84
-0.593964 0.095053 0.214589 68 1 84
-0.629618 -0.474074 0.229958 68 1 84
-0.569621 0.249434 0.441422 68 1 84
0.451911 0.433594 0.200331 68 1 84
-0.131735 -0.318724 -0.200827 72 29 111
0.601934 0.111136 0.256469 68 1 84
-0.197870 0.482310 -0.163073 68 1 84
0.668957 -0.171489 0.324931 68 1 84
-0.360321 -0.319557 -0.178473 69 5 88
-0.563080 0.250408 0.345903 68 1 84
0.661167 -0.033208 0.389968 68 1 84
-0.217480 0.599935 -0.045835 68 1 84
0.455861 -0.233440 -0.111601 68 1 84
0.260129 0.196861 -0.133219 68 1 84
0.331744 0.303490 -0.063232 68 1 84
0.250947 0.417914 -0.097046 68 1 84
-0.408744 0.286146 -0.060494 68 1 84
0.682499 -0.340331 0.421175 68 1 84
0.033507 -0.442262 -0.355133 199 224 31
-0.032644 0.658359 -0.125938 68 1 84
-0.603892 0.145317 0.330097 68 1 84
0.459890 -0.425706 -0.262367 71 40 120
-0.437188 0.041101 -0.162504 69 6 90
0.561938 -0.012807 -0.036963 68 1 84
0.194125 0.598799 0.030841 68 1 84
0.666204 -0.588230 0.277351 68 1 84
-0.176191 -0.229194 -0.201594 69 6 90
-0.035538 -0.074260 -0.421019 119 208 82
-0.062219 0.597008 -0.199987 68 1 84
-0.603866 -0.176848 0.079676 68 1 84
0.516438 -0.429310 -0.165405 68 1 84
0.611605 0.142293 0.417680 68 1 84
-0.677312 -0.216657 0.508648 68 1 84
-0.521139 -0.504156 -0.160359 52 94 141
0.461410 0.220207 -0.041400 68 1 84
-0.402400 -0.297645 -0.118142 68 1 84
0.396943 0.080433 -0.173963 68 1 84
-0.094900 0.652792 -0.115648 68 1 84
0.548085 0.296134 0.267754 68 1 84
-0.573777 -0.202165 -0.011936 68 1 84
0.621861 -0.196914 0.049180 68 1 84
-0.463528 0.434899 0.191535 68 1 84
0.609311 -0.082878 0.039179 68 1 84
-0.635904 -0.607462 0.283470 68 1 84
-0.050176 0.210335 -0.266054 67 59 131
0.605546 0.121484 0.531214 68 1 84
-0.649246 -0.229278 0.283514 68 1 84
-0.238098 0.082548 -0.180096 71 15 98
-0.366375 -0.120299 -0.200931 64 68 135
-0.343517 -0.488979 -0.306426 134 212 73
-0.635383 0.075164 0.417281 68 1 84
0.412780 0.250257 -0.064885 68 1 84
-0.257924 0.165211 -0.166220 68 1 84
0.042411 -0.220300 -0.325076 35 169 130
0.156961 0.625395 -0.021649 68 1 84
-0.534095 -0.079121 -0.072203 68 1 84
0.143343 0.347338 -0.188005 68 1 84
0.620031 0.035409 0.286555 68 1 84
0.031654 0.113070 -0.254424 68 1 84
-0.383433 -0.418732 -0.257423 51 97 141
-0.577985 -0.481392 0.037324 68 1 84
-0.602907 0.172824 0.431917 68 1 84
0.594718 -0.388552 0.020474 68 1 84
0.588980 0.142802 0.554788 68 1 84
0.460963 0.421960 0.291015 68 1 84
-0.511191 0.181870 0.001266 68 1 84
0.680908 -0.188405 0.492200 68 1 84
-0.662639 -0.441835 0.363900 68 1 84
0.262056 -0.192191 -0.189799 68 3 87
-0.535501 -0.435377 -0.054502 68 1 84
0.633962 -0.358300 0.114617 68 1 84
0.097067 -0.286974 -0.230676 51 97 141
-0.389447 0.495251 0.127576 68 1 84
-0.611415 -0.165886 0.190233 68 1 84
0.360881 -0.410489 -0.320466 56 87 140
-0.615433 -0.539393 0.204242 68 1 84
0.604340 -0.016207 0.116161 68 1 84
0.016383 -0.021139 -0.441761 112 206 86
0.522471 0.335955 0.304693 68 1 84
-0.073739 0.508646 -0.221569 72 28 110
-0.352743 0.504031 0.067944 68 1 84
-0.621353 -0.340208 0.153325 68 1 84
0.582063 0.090245 0.104133 68 1 84
-0.346635 -0.379614 -0.255509 59 81 138
-0.099115 0.556124 -0.208288 68 1 84
-0.631234 0.049951 0.347446 68 1 84
0.590295 0.153816 0.215157 68 1 84
-0.021486 0.666696 -0.084490 68 1 84
0.041873 -0.394173 -0.339515 30 154 137
0.619935 0.120675 0.421495 68 1 84
0.365563 -0.396355 -0.300647 47 105 141
0.417024 0.467699 0.301016 68 1 84
0.091530 -0.162595 -0.286482 36 132 141
0.672481 -0.075862 0.467306 68 1 84
-0.052685 -0.005879 -0.422120 31 147 139
0.378583 -0.353866 -0.243145 71 37 117
0.083387 0.634705 -0.144004 68 1 84
0.595982 0.065685 0.157263 68 1 84
0.329546 0.228737 -0.100022 68 1 84
0.541346 0.067709 -0.022556 68 1 84
0.554687 0.146014 0.075220 68 1 84
-0.312044 0.545006 0.109676 68 1 84
-0.052467 0.035437 -0.378291 36 134 141
-0.359452 0.486736 0.040474 68 1 84
-0.169991 -0.433681 -0.343028 114 207 85
-0.032230 0.161644 -0.267953 71 21 103
-0.591185 0.133198 0.227552 68 1 84
-0.444501 -0.274603 -0.101224 68 1 84
0.636441 0.073787 0.396855 68 1 84
-0.525791 0.122074 -0.008715 68 1 84
0.667287 -0.106672 0.354238 68 1 84
0.675739 -0.123603 0.494440 68 1 84
-0.344718 0.526130 0.117737 68 1 84
-0.475240 0.421448 0.223769 68 1 84
-0.194773 0.068380 -0.185719 68 1 84
0.300031 -0.312488 -0.242693 60 78 138
-0.183673 -0.044481 -0.212101 72 29 111
0.489509 -0.404768 -0.191184 68 1 84
0.299107 0.502198 0.010709 68 1 84
0.401770 0.484509 0.287631 68 1 84
-0.610920 -0.118967 0.227575 68 1 84
-0.623159 -0.362929 0.163339 68 1 84
-0.011408 0.095839 -0.253524 72 29 111
-0.515483 0.305502 0.081481 68 1 84
-0.125759 0.428172 -0.196811 68 1 84
0.273764 0.527524 0.004323 68 1 84
0.658140 -0.177118 0.265877 68 1 84
0.557795 0.272895 0.333156 68 1 84
0.140180 0.565137 -0.167908 68 1 84
-0.580964 -0.479140 0.045956 68 1 84
0.451666 -0.393398 -0.250262 71 38 118
0.680157 -0.505793 0.368172 68 1 84
0.374566 0.446193 0.054402 68 1 84
0.562495 0.268208 0.279452 68 1 84
-0.362455 0.466786 0.012502 68 1 84
-0.388504 -0.178884 -0.172837 68 1 84
-0.228385 -0.089026 -0.230080 52 95 141
-0.593436 -0.317839 0.060919 68 1 84
0.470026 0.182981 -0.059518 68 1 84
-0.573350 0.222082 0.258376 68 1 84
0.349129 -0.248043 -0.197885 68 1 84
0.492114 0.212891 0.000444 68 1 84
-0.400469 0.413662 0.012803 68 1 84
-0.315948 -0.393095 -0.280005 52 94 141
0.026391 0.027666 -0.411415 36 133 141
0.659902 -0.237239 0.236954 68 1 84
-0.141307 -0.091831 -0.235174 56 87 140
-0.476047 -0.301882 -0.074367 68 1 84
0.599835 0.137908 0.530343 68 1 84
-0.075356 -0.077752 -0.383832 39 173 128
0.138321 0.009419 -0.224958 68 1 84
-0.027520 0.045029 -0.303768 38 129 142
-0.628072 -0.286996 0.186003 68 1 84
-0.400221 0.492532 0.147789 68 1 84
0.609660 -0.031648 0.223974 68 1 84
0.469339 -0.178821 -0.131709 68 1 84
-0.622507 0.138824 0.499596 68 1 84
0.577732 0.199852 0.194743 68 1 84
-0.089836 0.252470 -0.238766 71 20 102
-0.001821 -0.424943 -0.353843 202 224 30
-0.189973 -0.368792 -0.267903 59 80 138
-0.579348 0.091544 0.128239 68 1 84
0.673073 -0.157254 0.352247 68 1 84
-0.267260 0.248976 -0.113581 68 1 84
0.622724 0.026747 0.289767 68 1 84
-0.164704 0.622639 -0.109371 68 1 84
0.112059 0.647442 -0.068904 68 1 84
-0.469344 -0.415784 -0.147005 68 1 84
0.098366 -0.108101 -0.287628 38 127 142
-0.272588 -0.332285 -0.246079 63 71 136
-0.339123 0.496712 0.011113 68 1 84
0.159615 -0.279366 -0.195771 70 14 97
0.668429 -0.222527 0.290095 68 1 84
0.455722 -0.385034 -0.199481 68 1 84
-0.473490 0.421598 0.187154 68 1 84
0.284609 0.199283 -0.123813 68 1 84
0.249699 -0.428673 -0.331876 53 183 120
0.618495 -0.121666 0.053627 68 1 84
-0.165709 0.431580 -0.180833 68 1 84
0.643272 -0.406596 0.157063 68 1 84
0.181716 0.161150 -0.190251 68 1 84
0.684535 -0.597285 0.417923 68 1 84
-0.658253 -0.016384 0.488205 68 1 84
-0.646757 -0.138204 0.296961 68 1 84
0.330927 -0.336487 -0.257522 56 87 140
0.504816 0.191544 0.006322 68 1 84
0.087473 -0.109696 -0.318957 38 128 142
-0.640186 0.007378 0.345402 68 1 84
-0.654143 -0.271174 0.281864 68 1 84
0.671426 -0.162807 0.341150 72 28 110
-0.571174 -0.095620 -0.019123 68 1 84
-0.405544 0.458974 0.078580 68 1 84
0.447564 0.425805 0.153025 68 1 84
