ply
format ascii 1.0
element vertex 1275
property float x
property float y
property float z
property uchar red
property uchar green
property uchar blue
end_header
0.608372 -0.235098 0.454015 68 1 84
-0.148169 -0.532080 -0.175877 68 1 84
-0.686512 0.143512 0.454330 68 3 87
0.116787 0.320079 -0.204245 68 1 84
-0.697456 0.303188 0.439807 63 69 135
-0.630349 0.352860 0.142161 53 93 140
-0.677915 0.397442 0.353677 30 153 138
0.145158 -0.116821 -0.266871 68 1 84
0.287242 -0.285654 -0.166177 68 1 84
0.191133 -0.114577 -0.240518 68 1 84
0.616062 -0.140553 0.231250 71 42 121
-0.526750 0.153266 -0.073399 35 137 141
0.555862 0.595729 0.246051 68 1 84
-0.696294 0.293679 0.428540 69 54 129
-0.672621 0.038094 0.456870 68 1 84
0.659102 0.103566 0.368587 57 185 118
-0.070414 0.231396 -0.326341 68 1 84
0.646328 -0.093960 0.342100 41 120 142
0.092794 0.139854 -0.392714 58 83 139
0.608057 0.290793 0.184947 44 114 142
0.598061 0.379273 0.200598 58 83 139
0.625857 0.351969 0.454543 149 215 63
-0.111887 -0.216611 -0.214283 68 1 84
-0.682539 0.120500 0.494269 68 1 84
-0.476284 0.297462 -0.055109 54 184 119
-0.381522 -0.210350 -0.142457 68 1 84
-0.456733 -0.101261 -0.104944 68 1 84
0.167077 -0.163250 -0.245706 68 1 84
-0.399509 -0.555708 0.067768 68 1 84
-0.513389 -0.204000 0.030119 68 1 84
-0.092526 -0.135220 -0.267967 68 1 84
-0.542568 -0.467068 0.384654 68 1 84
0.586629 -0.266402 0.492541 68 1 84
0.546016 -0.208418 0.061956 71 21 103
0.403055 0.467774 -0.125892 71 18 101
0.070636 -0.007248 -0.290331 72 32 113
-0.213802 -0.138805 -0.219327 68 1 84
0.169450 0.364173 -0.170658 68 1 84
-0.575933 0.160874 0.001660 55 88 140
-0.511783 0.151012 -0.093127 30 157 136
-0.524003 -0.097386 -0.006294 68 1 84
0.312672 0.141046 -0.214943 71 15 98
-0.416216 -0.200685 -0.117976 68 1 84
-0.582258 -0.307485 0.256433 68 1 84
-0.348697 -0.610105 0.067739 68 1 84
-0.295314 -0.604568 0.025168 68 1 84
0.500859 -0.507826 0.123002 68 1 84
-0.488391 -0.454307 0.183221 68 1 84
-0.076866 -0.395612 -0.247167 68 1 84
-0.542583 0.486010 -0.046754 68 1 84
0.478992 -0.210736 -0.076843 48 104 141
-0.456425 -0.323815 -0.018207 68 1 84
-0.630906 -0.225691 0.327942 68 1 84
-0.672296 0.031030 0.437382 68 1 84
0.505375 -0.474760 0.094958 68 1 84
0.436324 -0.372928 -0.059815 68 1 84
0.549159 -0.075240 0.031762 68 1 84
-0.652877 0.142348 0.194506 71 37 117
0.092923 0.303435 -0.242091 68 1 84
0.304011 0.412046 -0.136177 68 1 84
0.126425 0.094319 -0.298298 70 9 92
-0.694625 0.528103 0.429573 63 69 135
-0.591522 0.454600 0.071250 50 99 141
-0.690848 0.302349 0.378720 62 73 137
0.460593 -0.474044 0.018817 68 1 84
-0.301596 -0.190660 -0.190605 68 1 84
-0.560005 -0.305816 0.198361 68 1 84
-0.104714 0.128895 -0.260243 68 1 84
0.489271 -0.475001 0.061117 68 1 84
-0.211078 -0.008061 -0.242229 68 1 84
0.107202 -0.569612 -0.205704 68 1 84
0.620007 -0.187127 0.287633 71 22 105
0.511590 0.348228 0.003817 41 120 142
-0.679871 0.033074 0.342583 68 1 84
0.556214 -0.160955 0.075271 70 48 125
0.537222 0.295219 0.010762 35 169 130
0.165672 -0.246584 -0.233531 68 1 84
-0.545780 0.433700 -0.045151 71 40 120
-0.331189 -0.215033 -0.172737 68 1 84
-0.255126 0.253161 -0.192293 68 1 84
-0.706221 0.314267 0.526576 68 1 84
-0.611053 0.129147 0.079800 44 113 142
-0.293142 -0.191112 -0.192500 68 1 84
-0.342073 -0.552731 0.003100 68 1 84
0.393323 0.207078 -0.174763 33 141 140
-0.655016 -0.135383 0.370260 68 1 84
0.234555 0.563770 -0.196461 68 1 84
0.396238 0.087045 -0.180533 30 158 136
-0.109718 -0.390251 -0.228428 68 1 84
0.034498 0.077555 -0.399969 34 139 141
-0.606127 -0.241497 0.484255 68 1 84
0.616491 -0.236589 0.330314 66 61 132
-0.428092 -0.593304 0.274072 68 1 84
0.098547 -0.236668 -0.268178 68 1 84
-0.669240 0.303276 0.270226 64 68 135
-0.683786 0.132302 0.490512 68 1 84
-0.320932 -0.611702 0.047730 68 1 84
0.269181 0.472212 -0.207610 68 1 84
0.606229 0.598928 0.414587 45 111 142
-0.387846 -0.042828 -0.188669 68 1 84
-0.511564 0.385913 -0.078240 56 87 140
-0.171804 0.409223 -0.164274 68 1 84
0.458107 -0.497779 0.034934 68 1 84
-0.374582 -0.421247 -0.061044 68 1 84
-0.082213 0.091447 -0.342871 68 1 84
0.631597 -0.027291 0.231923 44 113 142
0.655905 0.167864 0.418459 59 186 117
-0.662626 0.427530 0.311489 32 165 133
0.519310 -0.437699 0.105884 68 1 84
-0.676373 0.439744 0.361066 41 120 142
0.173049 -0.195429 -0.214134 68 1 84
-0.246458 0.229421 -0.196845 68 1 84
0.155878 -0.526535 -0.225239 68 1 84
0.378495 0.261294 -0.159187 66 62 133
0.115307 -0.456142 -0.267443 68 1 84
-0.689871 0.313962 0.376236 50 99 141
0.267268 -0.359158 -0.171500 68 1 84
-0.422044 -0.356550 -0.046594 68 1 84
-0.276762 -0.101213 -0.227861 68 1 84
0.433067 -0.146936 -0.142104 40 122 142
-0.692120 0.205155 0.422682 61 74 137
0.228732 -0.431185 -0.194083 68 1 84
0.195114 0.406153 -0.152712 68 1 84
-0.510158 0.486549 -0.112446 68 55 129
0.448297 0.376736 -0.031216 70 14 97
-0.471156 0.425234 -0.148421 68 57 130
0.588059 -0.331613 0.344933 68 1 84
-0.353965 0.268346 -0.163972 68 1 84
0.307211 0.184029 -0.206056 66 64 133
-0.610347 -0.207982 0.231788 68 1 84
-0.516298 0.093255 -0.085307 41 120 142
-0.518972 -0.175420 0.027549 68 1 84
0.452391 0.241194 -0.122411 56 87 140
0.080274 0.138730 -0.411820 41 121 142
0.652252 0.194382 0.353209 31 161 135
0.052809 -0.237624 -0.276470 68 1 84
0.621239 -0.158347 0.261430 69 52 127
0.546279 0.006512 0.010469 71 44 123
-0.076634 0.318722 -0.264590 68 1 84
0.523287 0.626387 0.115035 68 1 84
0.528790 -0.405326 0.117705 68 1 84
-0.081316 0.581656 -0.252319 68 1 84
-0.641601 -0.187156 0.376175 68 1 84
0.099555 0.183181 -0.375355 68 1 84
-0.115334 -0.281622 -0.229487 68 1 84
0.510038 -0.509381 0.171734 68 1 84
-0.283447 0.150722 -0.223925 68 1 84
-0.479462 0.003565 -0.098413 58 82 139
0.263565 0.536547 -0.198843 68 1 84
-0.655204 0.458643 0.311244 35 135 141
-0.622397 0.230255 0.094712 62 73 137
0.512127 0.017308 -0.051631 126 210 78
0.056725 -0.391934 -0.261270 68 1 84
-0.658314 -0.123328 0.367824 68 1 84
-0.060355 0.322948 -0.286574 68 1 84
0.661800 0.039332 0.384057 37 130 142
0.060034 0.375896 -0.235508 68 1 84
-0.385412 -0.622868 0.200883 68 1 84
-0.182786 -0.322907 -0.186015 68 1 84
-0.420088 -0.528109 0.074278 68 1 84
-0.053331 0.117190 -0.417469 69 8 91
-0.162562 -0.066187 -0.227892 68 1 84
0.239175 -0.165604 -0.213759 68 1 84
-0.674324 0.416453 0.347288 32 144 140
0.610171 0.554517 0.413835 33 141 140
0.219161 -0.359115 -0.197934 68 1 84
0.396697 0.090483 -0.179901 35 169 130
-0.630382 0.329545 0.133316 32 145 140
0.159191 0.285793 -0.199026 68 1 84
0.622458 -0.211154 0.328973 71 37 117
0.097155 -0.319521 -0.243974 69 5 88
-0.390476 -0.066645 -0.181802 68 1 84
-0.024313 -0.173682 -0.275518 68 1 84
0.457849 0.528740 -0.080141 68 1 84
-0.476236 -0.385235 0.079515 68 1 84
-0.029320 -0.133113 -0.295975 68 1 84
-0.663669 0.330349 0.254915 44 112 142
0.593901 0.470302 0.366199 47 179 123
0.553472 -0.291319 0.136485 68 1 84
-0.073652 0.217201 -0.338048 68 1 84
0.065527 0.383063 -0.220178 68 1 84
-0.115983 0.232162 -0.253564 68 1 84
0.108315 -0.266105 -0.264657 68 1 84
0.635675 0.296856 0.266922 35 136 141
-0.681624 0.365825 0.353094 38 129 142
-0.373877 -0.169075 -0.163061 68 1 84
-0.210393 -0.279583 -0.167013 68 1 84
0.651864 0.127770 0.331893 31 146 140
0.573666 -0.356809 0.392478 68 1 84
0.190063 0.299927 -0.187130 68 1 84
0.620209 0.566636 0.479568 60 77 138
-0.315671 -0.080359 -0.224240 68 1 84
0.297309 0.416704 -0.140096 68 1 84
-0.582103 -0.230651 0.188216 68 1 84
-0.520669 0.230974 -0.048730 39 173 128
0.611812 0.381119 0.239609 44 112 142
0.380693 0.493498 -0.151911 51 97 141
-0.496881 0.269515 -0.048497 33 167 132
0.515756 -0.214623 -0.017594 72 34 115
0.555185 0.532287 0.200535 68 1 84
0.260662 -0.552801 -0.067662 68 1 84
0.646613 0.072285 0.282865 57 185 118
-0.431124 0.091502 -0.166097 31 149 139
-0.322026 -0.282775 -0.165237 68 1 84
-0.577916 0.056030 0.028408 50 98 141
0.038900 -0.035674 -0.301874 70 9 92
0.382087 -0.122252 -0.183534 32 164 133
-0.457245 -0.334536 -0.009264 68 1 84
-0.556594 0.338107 0.001570 43 115 142
-0.230144 -0.339506 -0.161336 68 1 84
0.213277 0.146696 -0.230428 70 12 95
0.452193 0.572116 -0.077587 68 1 84
-0.589422 0.225004 0.031572 42 118 142
-0.505290 -0.190478 -0.000792 68 1 84
0.574621 0.163826 0.062036 31 147 139
-0.519550 0.408476 -0.083528 55 88 140
0.478602 0.605567 -0.004471 68 1 84
-0.059278 0.326861 -0.286134 68 1 84
-0.075045 -0.071934 -0.276369 68 1 84
0.590904 -0.062074 0.156740 69 6 90
-0.169815 -0.378376 -0.195522 68 1 84
-0.438754 0.393243 -0.151333 71 20 102
-0.582042 0.119482 0.014733 39 124 142
-0.700098 0.372310 0.451023 56 87 140
-0.552920 -0.438318 0.386110 68 1 84
-0.690800 0.495515 0.414100 63 71 136
-0.424746 0.048638 -0.164761 50 99 141
-0.686590 0.214714 0.320191 68 1 84
0.456442 0.091547 -0.123566 41 121 142
0.565836 0.528082 0.265400 43 116 142
-0.435674 -0.208968 -0.097344 68 1 84
-0.683307 0.123808 0.534707 68 1 84
0.493694 0.199180 -0.089890 32 165 133
0.655833 -0.003615 0.320188 33 141 140
0.184594 -0.211422 -0.202416 68 1 84
0.019870 -0.228464 -0.274790 68 1 84
-0.568934 -0.382243 0.340276 68 1 84
-0.087904 0.141318 -0.343755 68 1 84
-0.533321 0.331258 -0.017998 65 66 134
0.400857 0.602493 -0.137466 68 1 84
-0.029626 0.200507 -0.411864 68 1 84
-0.319297 -0.492043 -0.063373 68 1 84
-0.092816 0.581854 -0.250259 68 1 84
0.473987 0.077727 -0.103009 53 92 140
-0.675314 -0.029790 0.325173 68 1 84
0.068516 0.383796 -0.214483 68 1 84
-0.557998 -0.411723 0.349139 68 1 84
0.459266 0.390890 -0.024383 63 71 136
-0.541472 -0.078404 0.020369 68 1 84
0.068609 0.408309 -0.196493 68 1 84
0.636858 0.276857 0.445146 191 223 36
0.511741 -0.495117 0.269394 68 1 84
0.357638 0.489077 -0.169177 70 14 97
0.621844 -0.225082 0.364983 68 2 85
0.550026 -0.139007 0.049715 68 1 84
0.304918 0.311154 -0.163500 68 1 84
-0.688725 0.162318 0.451583 72 29 111
0.598257 -0.242472 0.250334 68 1 84
0.487128 0.212358 -0.095520 31 150 139
0.090550 -0.292751 -0.255377 68 1 84
-0.332155 0.013570 -0.232709 68 1 84
-0.037226 -0.489260 -0.261904 68 1 84
0.131828 -0.570896 -0.186818 68 1 84
-0.598656 0.522170 0.096636 72 35 116
-0.697489 0.302000 0.440078 66 62 133
-0.303383 -0.629591 0.067527 68 1 84
-0.094051 -0.587700 -0.129952 68 1 84
-0.511243 0.281042 -0.031721 30 152 138
-0.351382 -0.400946 -0.096281 68 1 84
-0.026069 0.061153 -0.287044 68 1 84
-0.306333 0.475730 -0.207550 68 1 84
-0.617738 -0.180407 0.233068 68 1 84
0.142327 0.015849 -0.222354 68 1 84
-0.526933 0.445332 -0.083509 71 39 119
0.516817 -0.282934 0.021567 72 30 112
0.516777 -0.412552 0.080808 68 1 84
-0.137532 -0.582376 -0.094103 68 1 84
-0.216529 0.425336 -0.179221 68 1 84
0.322668 0.282065 -0.164201 68 1 84
0.462352 -0.356913 -0.032592 69 8 91
0.645006 -0.057956 0.283120 31 161 135
0.620775 0.565683 0.484400 65 66 134
0.535621 -0.451379 0.255477 68 1 84
0.139767 -0.060300 -0.261222 68 1 84
-0.061509 0.279355 -0.308006 68 1 84
0.657997 0.038745 0.508119 71 15 98
-0.539502 -0.131302 0.048207 68 1 84
0.547277 0.276109 0.018702 32 165 133
0.486377 0.550213 -0.006433 68 1 84
-0.022005 -0.066925 -0.300045 68 1 84
0.175034 -0.464083 -0.237684 68 1 84
-0.021957 -0.341744 -0.246758 68 1 84
0.542502 0.569904 0.170109 68 1 84
-0.551902 0.427108 -0.031090 56 86 139
0.124793 0.051734 -0.256565 68 1 84
-0.122081 -0.088865 -0.247669 68 1 84
0.501026 0.526706 0.014429 68 1 84
0.024553 -0.106567 -0.300952 68 1 84
0.578773 0.397702 0.143985 46 107 142
0.650851 0.038968 0.285817 131 211 75
0.647776 0.224629 0.423005 31 161 135
0.476853 0.063051 -0.097976 30 157 136
-0.302580 -0.202798 -0.186442 68 1 84
0.638489 -0.147231 0.373849 71 39 119
-0.020300 -0.336637 -0.246399 68 1 84
0.486283 -0.393999 0.015250 68 1 84
-0.134465 -0.208658 -0.199392 68 1 84
0.650938 0.121120 0.310127 181 221 43
0.569433 0.263350 0.059257 39 124 142
-0.211540 0.238362 -0.201023 68 1 84
0.462852 -0.323392 -0.049771 71 21 103
0.481544 0.475594 -0.035701 68 1 84
0.159542 0.283043 -0.199835 68 1 84
-0.496272 -0.526086 0.362280 68 1 84
0.556645 0.510066 0.175500 55 88 140
0.247913 0.653872 -0.207230 68 1 84
-0.006514 0.390903 -0.278058 68 1 84
-0.349710 0.063053 -0.220965 71 39 119
-0.470264 -0.398004 0.076510 68 1 84
0.084654 -0.035412 -0.291028 62 72 136
-0.578119 -0.291527 0.228657 68 1 84
0.052728 -0.204741 -0.264449 68 1 84
0.084701 0.003612 -0.275340 68 1 84
-0.370396 -0.513081 -0.009720 68 1 84
0.333405 -0.192697 -0.188868 61 75 137
0.566567 -0.071773 0.089234 62 73 137
-0.057818 0.225276 -0.366291 68 1 84
-0.151803 0.518743 -0.210940 68 1 84
-0.622934 -0.210890 0.443645 68 1 84
-0.388216 -0.353467 -0.082938 68 1 84
-0.085620 -0.152783 -0.268633 68 1 84
0.616528 -0.185716 0.478436 66 62 133
-0.517825 -0.260090 0.076215 68 1 84
-0.132942 0.472711 -0.189061 68 1 84
0.056529 0.117220 -0.426485 36 170 130
0.632161 0.313445 0.257775 30 160 135
0.617975 -0.190546 0.468362 71 42 121
0.208545 -0.522635 -0.183190 68 1 84
-0.490258 0.354014 -0.074925 56 87 140
-0.550306 0.200054 -0.028696 33 142 140
0.621897 0.410282 0.533342 44 177 125
0.590866 0.328992 0.139099 33 142 140
0.432930 -0.104356 -0.149092 91 200 98
-0.648065 -0.114301 0.445251 68 1 84
0.633868 0.299071 0.438053 68 190 112
0.572566 -0.168588 0.129823 71 24 106
-0.687387 0.434710 0.399834 41 120 142
0.559546 -0.202005 0.104239 66 61 132
0.082170 0.051990 -0.270862 68 1 84
-0.584687 0.465259 0.055548 57 84 139
-0.553835 -0.322941 0.201402 68 1 84
0.127235 -0.503180 -0.255177 68 1 84
-0.045678 0.236331 -0.369092 68 1 84
-0.574653 -0.362193 0.320384 68 1 84
-0.653137 0.465084 0.303540 41 120 142
-0.679122 0.350774 0.301651 32 145 140
0.142686 -0.224324 -0.241551 68 1 84
0.080823 0.260777 -0.293621 68 1 84
-0.463635 0.174156 -0.140245 30 153 138
0.612551 -0.072810 0.209065 61 75 137
0.580746 -0.218492 0.173317 67 58 131
-0.251380 0.240249 -0.194270 68 1 84
0.126461 0.445532 -0.169788 68 1 84
-0.511594 -0.466949 0.273947 68 1 84
0.299844 -0.565575 -0.015309 68 1 84
0.473288 -0.465904 0.029560 68 1 84
0.555030 -0.145206 0.066730 71 42 121
-0.473148 -0.009040 -0.102496 67 59 131
0.100653 -0.442111 -0.269856 68 1 84
-0.679273 0.377897 0.348219 33 142 140
-0.252551 0.138666 -0.232844 68 1 84
-0.058526 -0.551431 -0.224237 68 1 84
0.077039 -0.143042 -0.296481 71 37 117
-0.335475 -0.343446 -0.138648 68 1 84
0.614142 0.408190 0.396958 151 216 62
0.274740 -0.445904 -0.162555 68 1 84
-0.429902 0.164132 -0.170996 64 67 135
-0.229836 -0.092473 -0.229891 68 1 84
-0.514200 -0.309410 0.105517 68 1 84
0.552057 0.544130 0.196219 68 1 84
0.418569 0.527372 -0.124317 72 29 111
-0.485833 0.262744 -0.063471 31 148 139
0.271862 0.606544 -0.198228 68 1 84
-0.599237 0.376125 0.069172 48 103 141
0.105551 -0.467717 -0.270850 68 1 84
0.637218 0.253358 0.496064 114 207 85
0.525931 0.629431 0.124028 68 1 84
0.149270 0.057854 -0.217873 68 1 84
0.453591 -0.544957 0.071797 68 1 84
-0.451395 -0.034541 -0.123183 71 44 123
-0.026513 -0.519434 -0.255336 68 1 84
-0.160490 -0.229409 -0.176993 68 1 84
0.497499 0.193756 -0.085871 30 155 137
0.031380 0.082799 -0.409409 35 137 141
0.307008 -0.093916 -0.218102 47 106 141
0.185010 -0.212781 -0.202015 68 1 84
-0.161288 -0.295482 -0.197714 68 1 84
0.245622 -0.217639 -0.180610 71 15 98
-0.683095 0.013739 0.386297 68 1 84
-0.083285 0.210689 -0.300934 68 1 84
0.355249 0.141811 -0.200148 36 134 141
0.656396 0.135220 0.363528 35 137 141
0.480798 -0.522374 0.092651 68 1 84
-0.452934 -0.310811 -0.031948 68 1 84
0.620750 0.445161 0.507736 39 173 128
-0.032138 0.083337 -0.307337 68 1 84
0.512814 0.084290 -0.055583 36 134 141
0.540767 -0.418363 0.369622 68 1 84
-0.659411 0.507920 0.312167 66 61 132
-0.534980 0.384115 -0.044710 66 61 132
-0.347864 0.045239 -0.223754 69 8 91
0.347647 -0.569062 0.015487 68 1 84
-0.392559 -0.582297 0.088888 68 1 84
0.381878 0.447263 -0.134190 48 103 141
0.584328 0.028243 0.120877 39 173 128
0.372193 0.582071 -0.160954 68 1 84
-0.454577 -0.451258 0.084116 68 1 84
0.469501 0.053307 -0.106076 61 187 116
-0.427790 -0.504981 0.066879 68 1 84
0.588196 0.426171 0.219890 35 135 141
0.572222 0.335106 0.088512 36 170 130
0.111972 0.140221 -0.311039 68 1 84
0.482625 0.203983 -0.101876 40 122 142
-0.618313 -0.249462 0.299668 68 1 84
0.513042 -0.355763 0.047870 68 1 84
-0.270891 0.284021 -0.186625 68 1 84
-0.223960 0.240765 -0.198825 68 1 84
-0.692843 0.210704 0.494120 68 1 84
-0.686042 0.129952 0.361014 68 1 84
-0.509859 0.409245 -0.098384 54 90 140
-0.143390 0.275942 -0.215096 68 1 84
-0.594355 -0.299970 0.465200 68 1 84
0.505197 0.302067 -0.026074 36 134 141
0.605956 0.252660 0.169422 40 123 142
-0.686182 0.124235 0.376540 68 1 84
-0.425462 -0.567273 0.148470 68 1 84
0.027251 -0.528065 -0.258614 68 1 84
0.535219 -0.364500 0.116015 68 1 84
-0.104583 0.503957 -0.216127 68 1 84
-0.602770 -0.013300 0.119536 68 1 84
-0.205142 -0.270289 -0.167284 68 1 84
-0.483454 -0.039346 -0.083497 60 78 138
-0.613700 0.485646 0.143297 63 69 135
0.568555 0.266119 0.057886 34 137 141
0.447267 -0.276289 -0.092787 70 47 124
0.413573 0.160063 -0.163863 33 166 133
0.543506 0.197568 -0.013599 38 128 142
0.036039 0.073639 -0.357198 57 84 139
-0.181399 -0.551579 -0.110348 68 1 84
0.066978 0.270200 -0.321274 68 1 84
0.472682 -0.431037 0.010477 68 1 84
-0.457955 0.203810 -0.134425 43 115 142
0.297639 -0.063893 -0.226053 66 64 133
-0.063312 -0.490301 -0.253890 68 1 84
0.526632 -0.256689 0.029926 69 5 88
0.106601 0.159390 -0.345424 68 1 84
0.420226 -0.323917 -0.105052 68 1 84
0.364207 -0.083732 -0.200835 43 177 125
0.013409 0.081565 -0.414708 44 112 142
0.224369 0.521594 -0.201847 68 1 84
0.660251 0.086006 0.497927 38 127 142
-0.620178 -0.215965 0.449295 68 1 84
0.586514 -0.327831 0.389768 68 1 84
-0.702144 0.421077 0.467163 70 11 94
-0.665154 0.011407 0.472717 68 1 84
-0.641238 -0.135415 0.480130 68 1 84
0.125095 0.462310 -0.175455 68 1 84
-0.492970 -0.043321 -0.070476 58 83 139
-0.384496 -0.468191 -0.022694 68 1 84
-0.665946 0.092875 0.254503 68 1 84
-0.654482 0.493112 0.301292 55 89 140
-0.244461 0.396418 -0.163646 68 1 84
0.538996 0.487465 0.084429 68 1 84
-0.347152 0.124803 -0.215422 72 29 111
0.115947 0.399009 -0.157255 68 1 84
0.634863 0.270976 0.493777 109 206 88
-0.263356 -0.377661 -0.151061 68 1 84
-0.582249 0.117242 0.015481 39 126 142
0.045395 -0.294153 -0.253602 68 1 84
-0.689969 0.176520 0.459632 68 1 84
-0.365931 -0.477939 -0.036185 68 1 84
0.521440 -0.486594 0.213772 68 1 84
0.439261 -0.570301 0.077573 68 1 84
0.527225 0.627138 0.128113 68 1 84
-0.574760 -0.269393 0.201222 68 1 84
0.270183 -0.424457 -0.170663 68 1 84
0.343643 -0.215335 -0.184139 47 106 141
-0.562591 -0.282650 0.184746 68 1 84
0.559149 -0.332357 0.187291 68 1 84
-0.619733 -0.096907 0.192900 68 1 84
-0.161560 -0.145761 -0.229383 68 1 84
0.193915 -0.474484 -0.219269 68 1 84
-0.091935 0.299609 -0.254301 68 1 84
-0.085838 -0.172284 -0.259786 68 1 84
0.223745 0.552599 -0.196800 68 1 84
0.582027 -0.294378 0.467526 68 1 84
0.640423 0.278573 0.374907 47 106 141
0.332017 -0.510353 -0.053552 68 1 84
0.653301 0.013423 0.550973 55 89 140
0.016230 -0.520804 -0.261010 68 1 84
-0.222578 0.333755 -0.177666 68 1 84
-0.424758 0.365441 -0.124316 68 1 84
-0.307591 -0.221039 -0.180072 68 1 84
0.341390 0.329643 -0.140708 68 1 84
-0.086489 0.347384 -0.235395 68 1 84
-0.677966 0.007222 0.331832 68 1 84
-0.045723 -0.056289 -0.292759 68 1 84
-0.467774 0.139033 -0.141896 30 154 137
0.502730 -0.510095 0.133131 68 1 84
-0.635459 -0.082131 0.221487 68 1 84
-0.275431 -0.482341 -0.102216 68 1 84
-0.286121 0.354443 -0.163628 68 1 84
-0.678984 0.091499 0.505339 68 1 84
0.513536 -0.202696 -0.026754 64 68 135
-0.445314 -0.576958 0.301556 68 1 84
-0.029248 0.074568 -0.361153 68 1 84
-0.477204 0.311947 -0.055635 30 158 136
0.068222 0.413837 -0.194116 68 1 84
0.289054 -0.361585 -0.161387 68 1 84
0.450043 -0.127695 -0.129548 32 143 140
0.289505 -0.286944 -0.166593 68 1 84
0.223626 0.209498 -0.207700 68 1 84
-0.599282 -0.045732 0.127852 68 1 84
-0.272499 0.538311 -0.213745 68 1 84
0.602575 -0.299452 0.358666 63 69 135
-0.622188 -0.248608 0.372633 68 1 84
0.221041 -0.374853 -0.197854 68 1 84
-0.243929 -0.612546 0.016464 68 1 84
0.294823 0.288801 -0.170797 68 1 84
0.058496 0.442819 -0.201154 68 1 84
0.433329 -0.560827 0.061763 68 1 84
0.609708 0.407504 0.334702 39 124 142
0.484219 -0.016574 -0.089691 30 159 136
0.116026 0.504833 -0.189147 68 1 84
-0.343607 0.531682 -0.210430 68 1 84
-0.336198 -0.626618 0.076824 68 1 84
0.578406 0.599759 0.322571 68 1 84
-0.579039 0.514527 0.042813 71 15 98
-0.016894 -0.429407 -0.269645 68 1 84
0.181228 -0.257332 -0.223914 68 1 84
0.166998 -0.172288 -0.239109 68 1 84
-0.075803 -0.013413 -0.252405 68 1 84
-0.023219 0.424198 -0.257086 68 1 84
-0.019389 0.067943 -0.307797 68 1 84
-0.494027 -0.271544 0.021767 68 1 84
0.628651 -0.186974 0.333910 59 81 138
-0.663285 0.381836 0.278837 35 136 141
-0.371492 0.423987 -0.193158 68 1 84
0.326642 0.211419 -0.197658 61 76 137
-0.645938 0.234501 0.158062 51 96 141
-0.674721 -0.064751 0.365029 68 1 84
0.617083 0.436618 0.445090 69 191 111
0.186195 -0.091091 -0.240678 68 1 84
0.579047 -0.178227 0.150692 71 18 101
0.619272 0.575835 0.480041 64 68 135
-0.428001 0.546336 -0.186731 68 1 84
0.155780 -0.539039 -0.214726 68 1 84
0.426198 -0.363687 -0.077676 68 1 84
0.381442 -0.060388 -0.195023 81 196 104
0.611885 0.261989 0.188039 35 169 130
0.092645 -0.409740 -0.263237 68 1 84
0.411541 -0.365822 -0.093955 68 1 84
-0.670575 0.282072 0.266218 64 67 135
0.511926 0.386064 0.015824 45 110 142
-0.637034 0.221433 0.133716 68 55 129
0.325514 0.229355 -0.191007 68 57 130
0.597118 0.545673 0.353053 30 153 138
0.233877 -0.059177 -0.226326 66 61 132
0.496758 -0.535503 0.220025 68 1 84
-0.001956 0.267758 -0.372380 68 1 84
0.530565 -0.380820 0.108281 68 1 84
0.357765 0.334485 -0.128202 68 1 84
-0.643076 -0.034593 0.222164 68 1 84
-0.587645 -0.343724 0.353348 68 1 84
-0.271273 -0.496120 -0.092805 68 1 84
0.661903 0.065330 0.387088 75 194 108
-0.377732 -0.613897 0.109539 68 1 84
0.605773 -0.193064 0.510067 69 5 88
-0.430479 -0.151597 -0.121553 68 1 84
0.340694 -0.562063 0.002722 68 1 84
-0.447817 -0.100657 -0.115566 70 11 94
0.192246 0.282380 -0.190012 68 1 84
-0.640338 0.377061 0.193265 40 122 142
0.556331 -0.176807 0.081974 70 45 124
0.383375 0.517056 -0.152567 46 109 142
0.647459 0.101451 0.278181 87 198 101
0.235596 0.472588 -0.207506 68 1 84
-0.029288 0.585416 -0.253773 68 1 84
-0.252500 -0.546795 -0.054850 68 1 84
-0.689237 0.364570 0.391586 31 147 139
-0.471487 -0.139898 -0.078370 68 1 84
0.440479 0.141072 -0.142068 30 152 138
0.378381 0.161613 -0.186667 30 158 136
0.304610 0.341529 -0.157916 71 20 102
-0.016289 0.547645 -0.247530 68 1 84
0.657102 0.131566 0.527411 30 152 138
0.026729 -0.115869 -0.302680 71 40 120
-0.564667 -0.409014 0.435359 68 1 84
-0.197508 -0.232647 -0.175231 68 1 84
0.364640 -0.135356 -0.189623 30 153 138
0.017119 0.500620 -0.235509 68 1 84
-0.604010 -0.241146 0.498790 68 1 84
0.625306 0.097435 0.200359 68 190 112
0.366819 0.066837 -0.204871 36 132 141
-0.693672 0.187354 0.442610 69 5 88
-0.432817 -0.215917 -0.097423 68 1 84
0.175588 -0.567996 -0.154182 68 1 84
0.657845 -0.029133 0.388162 34 139 141
-0.607982 0.499336 0.126394 69 53 128
0.594542 -0.001067 0.159069 162 218 55
-0.025804 0.442682 -0.249183 68 1 84
0.271311 0.649946 -0.198440 68 1 84
-0.132596 -0.301549 -0.217790 68 1 84
0.524957 -0.412401 0.108412 68 1 84
-0.144929 -0.417214 -0.211167 68 1 84
-0.609831 -0.188435 0.217695 68 1 84
0.421487 -0.394280 -0.066864 68 1 84
-0.643046 0.322922 0.170308 46 107 142
-0.641698 0.377818 0.200399 43 116 142
-0.220828 0.469289 -0.192226 68 1 84
0.622741 0.378448 0.550670 41 121 142
0.540661 -0.147554 0.024441 71 15 98
0.633076 -0.126547 0.475536 61 74 137
-0.548369 -0.380176 0.257237 68 1 84
-0.585650 -0.315311 0.277525 68 1 84
-0.314104 -0.060626 -0.229117 68 1 84
0.657278 0.136721 0.500641 37 171 129
0.434443 -0.558775 0.061010 68 1 84
0.563103 0.502566 0.200907 43 116 142
0.601250 -0.064074 0.180703 66 64 133
-0.406253 -0.076044 -0.165513 71 18 101
0.591486 -0.217399 0.205203 71 22 105
-0.587179 -0.282029 0.519102 68 1 84
-0.655841 0.361958 0.247695 48 104 141
-0.096391 0.079432 -0.311756 68 1 84
-0.374436 0.200997 -0.182082 63 69 135
-0.674903 0.243671 0.247123 71 42 121
-0.596304 0.330351 0.055540 46 107 142
-0.595206 -0.278510 0.259834 68 1 84
0.484277 -0.329016 -0.012811 68 1 84
-0.105286 0.390190 -0.191437 68 1 84
-0.662662 0.071879 0.250378 68 1 84
0.478165 -0.361711 -0.007930 68 1 84
0.157155 0.181753 -0.231089 68 1 84
0.111514 0.333073 -0.200128 68 1 84
-0.462451 0.399753 -0.142088 67 59 131
0.094537 -0.432636 -0.269069 68 1 84
-0.165538 0.096723 -0.239407 68 1 84
-0.385177 -0.497622 -0.004549 68 1 84
0.185076 -0.454879 -0.230895 68 1 84
0.509764 -0.032942 -0.056456 31 162 134
0.227171 -0.334130 -0.191883 68 1 84
0.154709 -0.453306 -0.251668 68 1 84
0.077587 -0.411671 -0.265716 68 1 84
-0.110710 0.358773 -0.199054 68 1 84
-0.142958 0.144610 -0.239448 68 1 84
-0.668110 0.168622 0.229923 71 15 98
-0.202450 -0.457421 -0.173282 68 1 84
0.637225 0.244634 0.538159 30 153 138
-0.569348 0.473141 0.017010 63 69 135
0.608293 0.578163 0.414230 39 124 142
0.622907 -0.144369 0.496937 68 1 84
0.418625 0.474890 -0.112662 68 1 84
0.006081 -0.354601 -0.250556 68 1 84
-0.489542 0.319133 -0.046823 33 141 140
0.129801 -0.573387 -0.183516 68 1 84
0.482199 -0.459389 0.038960 68 1 84
0.146544 -0.448052 -0.255558 68 1 84
0.354046 -0.544061 -0.010642 68 1 84
0.016921 0.295306 -0.352165 68 1 84
-0.054273 0.035985 -0.263312 68 1 84
0.405112 -0.203379 -0.154998 33 141 140
-0.571737 -0.385623 0.449674 68 1 84
0.609540 0.348508 0.207898 34 139 141
0.177280 0.227358 -0.214471 68 1 84
0.524651 -0.256517 0.024781 68 1 84
-0.053176 0.288506 -0.316397 68 1 84
-0.485323 -0.531449 0.289459 68 1 84
0.071771 0.315755 -0.269235 68 1 84
-0.049583 0.376823 -0.268146 68 1 84
-0.616724 -0.227240 0.448498 68 1 84
-0.203247 0.128803 -0.240168 68 1 84
-0.603350 0.270153 0.061997 32 145 140
-0.187463 0.196155 -0.224667 68 1 84
0.546044 -0.418245 0.235684 68 1 84
-0.413714 0.464657 -0.192568 71 21 103
-0.657350 0.288659 0.199838 46 108 142
-0.625058 0.480194 0.183847 62 72 136
-0.121979 -0.128941 -0.251216 68 1 84
-0.596363 0.154730 0.039947 55 89 140
0.122677 0.043256 -0.243823 68 1 84
-0.098213 -0.435162 -0.244557 68 1 84
-0.228587 0.316230 -0.184662 68 1 84
-0.067094 -0.283460 -0.254904 68 1 84
-0.585817 -0.340100 0.447718 68 1 84
-0.365250 -0.620472 0.100198 68 1 84
-0.683970 0.463722 0.388627 67 59 131
0.033493 0.516827 -0.230955 68 1 84
-0.336386 -0.619137 0.066839 68 1 84
0.660720 0.030481 0.368984 33 167 132
-0.193856 -0.568944 -0.069109 68 1 84
-0.136638 0.348650 -0.180726 68 1 84
-0.364671 -0.455908 -0.050325 68 1 84
0.409556 -0.184719 -0.154978 30 153 138
0.618075 0.449355 0.456836 35 169 130
-0.489371 -0.505090 0.262129 68 1 84
-0.667201 0.169171 0.226569 71 20 102
-0.112049 0.055524 -0.244556 68 1 84
-0.164567 0.246964 -0.213449 68 1 84
0.527033 -0.205721 0.004888 71 24 106
-0.292359 0.119441 -0.232396 68 1 84
-0.353665 0.491115 -0.209942 68 1 84
0.359813 -0.250150 -0.175267 43 115 142
-0.465002 -0.558241 0.304267 68 1 84
-0.631231 0.472115 0.207172 57 85 139
0.491189 -0.512932 0.103235 68 1 84
-0.230466 -0.186367 -0.204115 68 1 84
-0.038727 -0.569664 -0.212422 68 1 84
0.017558 -0.186257 -0.271229 68 1 84
0.564665 -0.096612 0.086196 71 15 98
-0.481071 -0.303510 0.014910 68 1 84
-0.535679 0.192541 -0.049654 33 142 140
-0.436855 -0.117814 -0.124372 68 1 84
-0.177017 -0.326866 -0.190634 68 1 84
0.625743 0.350083 0.466644 103 204 92
-0.269774 -0.312742 -0.171740 68 1 84
0.526617 0.104025 -0.037995 54 90 140
0.574234 -0.284384 0.201137 68 1 84
0.272940 0.604746 -0.197924 68 1 84
-0.696534 0.273927 0.435586 71 39 119
0.090635 0.492187 -0.189158 68 1 84
0.622103 0.381585 0.487945 136 213 71
-0.504642 -0.175010 -0.011842 68 1 84
0.421013 0.442759 -0.095436 61 76 137
0.000379 0.474905 -0.242126 68 1 84
-0.660916 -0.017493 0.445141 68 1 84
0.236910 -0.118147 -0.224862 72 29 111
-0.665048 -0.094925 0.321199 68 3 87
0.511905 -0.128399 -0.048129 30 155 137
0.061446 0.508589 -0.212320 68 1 84
-0.684166 0.076887 0.379208 68 1 84
0.255535 0.471132 -0.206578 68 1 84
-0.006310 0.050880 -0.336141 68 1 84
0.164096 0.281451 -0.198655 68 1 84
0.305655 -0.028667 -0.230573 53 93 140
-0.186325 0.063168 -0.242923 68 1 84
-0.504336 -0.108835 -0.039266 69 8 91
-0.356491 0.453957 -0.204949 68 1 84
-0.007811 0.238036 -0.391187 68 1 84
-0.472726 -0.538480 0.260653 68 1 84
-0.640859 -0.037099 0.216954 68 1 84
-0.585068 0.121249 0.020555 47 105 141
-0.170505 -0.376762 -0.195137 68 1 84
0.557517 0.412625 0.091763 46 107 142
0.413203 0.204379 -0.162575 33 142 140
0.455719 0.329853 -0.052388 71 44 123
-0.506155 0.492965 -0.117914 54 91 140
0.310649 -0.438687 -0.138809 68 1 84
0.595781 0.361091 0.178603 42 119 142
-0.004715 -0.062969 -0.300416 68 1 84
-0.124991 -0.074477 -0.242488 68 1 84
0.343153 -0.379844 -0.138623 68 1 84
-0.648616 0.472702 0.277846 44 114 142
0.269284 -0.349800 -0.169085 68 1 84
0.335215 0.044302 -0.224050 40 122 142
-0.221424 0.299519 -0.189179 68 1 84
-0.290706 -0.313455 -0.171555 68 1 84
0.593488 0.421846 0.239682 41 120 142
0.437863 0.555653 -0.106086 68 1 84
-0.348949 -0.229414 -0.158998 68 1 84
0.426193 -0.542741 0.041177 68 1 84
0.539520 -0.321371 0.107206 68 1 84
0.494621 0.577328 0.023971 68 1 84
0.585140 0.055614 0.112544 62 188 115
-0.512620 0.392421 -0.082886 61 74 137
-0.328434 0.185880 -0.202160 68 1 84
0.149865 -0.573718 -0.166305 68 1 84
-0.070906 0.281943 -0.290324 68 1 84
0.533452 -0.109779 -0.005561 65 66 134
0.161974 0.470816 -0.183205 68 1 84
-0.618025 0.260100 0.087611 30 153 138
0.340795 -0.258251 -0.180597 61 75 137
-0.086491 0.128184 -0.354593 68 1 84
0.123489 -0.438431 -0.263489 68 1 84
-0.587405 0.407041 0.048769 68 57 130
0.481647 0.318613 -0.037914 35 137 141
0.605497 0.380429 0.220963 48 103 141
-0.693747 0.221325 0.427987 71 22 105
0.255841 0.016542 -0.238941 68 1 84
0.648894 -0.072356 0.332790 66 64 133
0.438202 -0.398425 -0.045149 68 1 84
0.549584 -0.327770 0.146958 68 1 84
0.618704 0.586914 0.505686 68 1 84
0.001971 -0.518194 -0.260556 68 1 84
0.626512 0.108781 0.204399 69 191 111
-0.481810 0.092093 -0.121844 31 147 139
0.493722 -0.389491 0.025292 68 1 84
0.511063 0.375599 0.012569 49 102 141
-0.589113 -0.307665 0.277694 68 1 84
-0.636346 0.496280 0.226216 66 64 133
0.637105 0.281998 0.427288 39 126 142
-0.683965 0.354225 0.359156 52 94 141
0.373716 0.246960 -0.169492 51 96 141
-0.373058 -0.177786 -0.160191 68 1 84
0.042694 -0.160995 -0.294368 72 26 108
-0.646392 0.048192 0.205293 68 1 84
-0.612447 0.277280 0.079365 37 130 142
0.086700 0.509912 -0.198134 68 1 84
0.289735 -0.301026 -0.163278 68 1 84
-0.071143 0.213623 -0.352828 68 1 84
-0.646675 0.438006 0.257531 41 120 142
0.245411 -0.290628 -0.174149 68 1 84
0.624126 -0.089574 0.239647 51 97 141
-0.259457 -0.229725 -0.188491 68 1 84
0.416081 -0.364205 -0.089516 68 1 84
0.097614 0.165727 -0.387929 56 87 140
0.266098 -0.520536 -0.111106 68 1 84
0.248056 0.329502 -0.175241 68 1 84
0.631006 0.304592 0.481962 253 231 36
-0.605828 -0.273924 0.287407 68 1 84
0.642988 -0.102529 0.323760 51 96 141
0.641148 0.039200 0.242384 31 162 134
0.213592 0.376302 -0.166816 68 1 84
-0.519897 0.133044 -0.084930 34 139 141
-0.010193 0.418894 -0.261950 68 1 84
0.449224 0.382403 -0.030666 68 3 87
-0.458079 -0.456140 0.098707 68 1 84
0.658645 0.115912 0.505629 40 123 142
-0.427054 -0.591249 0.217154 68 1 84
0.466077 -0.545096 0.090651 68 1 84
0.625304 -0.175933 0.300242 65 65 134
-0.391946 -0.368876 -0.072649 68 1 84
-0.018153 0.458640 -0.246915 68 1 84
0.593561 -0.321589 0.351885 68 1 84
0.607072 0.574486 0.407452 34 137 141
-0.070955 0.084444 -0.339340 68 1 84
0.503236 -0.084804 -0.066571 34 139 141
0.381985 -0.278805 -0.156862 49 102 141
-0.285154 -0.152487 -0.208333 68 1 84
-0.325782 0.054175 -0.234122 72 32 113
-0.328401 -0.272078 -0.163189 68 1 84
-0.065596 -0.278601 -0.256764 68 1 84
-0.375740 -0.059676 -0.194631 71 20 102
-0.197973 -0.030452 -0.232665 68 1 84
0.328797 0.041141 -0.226621 35 135 141
-0.674850 -0.056845 0.377881 68 1 84
0.236257 -0.425311 -0.189935 68 1 84
-0.479116 0.294893 -0.053053 54 184 119
-0.268106 -0.063150 -0.238763 68 1 84
0.534307 0.509626 0.084999 68 1 84
0.588181 -0.283666 0.459235 68 1 84
-0.503682 0.401942 -0.102221 53 92 140
-0.664776 -0.083177 0.384472 68 1 84
-0.550114 -0.216949 0.118068 68 1 84
0.581803 0.596765 0.330847 72 26 108
-0.052477 -0.436682 -0.263015 68 1 84
-0.622112 -0.240464 0.302662 68 1 84
-0.076754 0.360255 -0.242459 68 1 84
-0.202988 -0.590737 -0.021814 68 1 84
0.522059 0.378142 0.025548 48 104 141
0.644681 0.257188 0.326165 71 192 110
-0.581602 -0.317883 0.268260 68 1 84
-0.181895 -0.339444 -0.187558 68 1 84
-0.100098 0.171335 -0.267488 68 1 84
-0.067283 0.287395 -0.293476 68 1 84
0.620287 0.411881 0.463212 165 218 53
0.523967 -0.371255 0.081149 68 1 84
0.286406 -0.109257 -0.217252 68 57 130
0.492846 -0.538894 0.225343 68 1 84
0.037679 -0.138287 -0.303613 58 83 139
0.651949 0.183659 0.488602 30 155 137
-0.368092 -0.120171 -0.185984 68 1 84
-0.666342 0.004398 0.446078 68 1 84
-0.538310 -0.440296 0.323669 68 1 84
0.586805 0.444174 0.250384 38 128 142
-0.625149 0.104972 0.124953 67 58 131
0.177359 0.525652 -0.192747 68 1 84
0.507373 -0.013133 -0.059372 38 128 142
0.413360 -0.092975 -0.167542 51 182 121
-0.380731 0.380211 -0.150897 68 1 84
-0.148536 0.484334 -0.192323 68 1 84
-0.477185 0.100228 -0.128779 37 130 142
0.278872 -0.473641 -0.145196 68 1 84
0.576461 -0.120991 0.128258 72 33 114
0.172350 0.124282 -0.230557 68 1 84
-0.566432 0.517169 0.007787 68 2 85
-0.094818 0.563335 -0.244455 68 1 84
-0.383047 -0.449326 -0.035163 68 1 84
0.086528 -0.425648 -0.268521 68 1 84
0.579188 -0.197129 0.158649 66 64 133
0.013997 -0.595370 -0.180731 68 1 84
0.066736 -0.296759 -0.252733 68 1 84
-0.128132 -0.167371 -0.240466 68 1 84
0.527496 -0.321866 0.066966 68 1 84
-0.447855 -0.213627 -0.083163 68 1 84
-0.220070 -0.478482 -0.150442 68 1 84
0.159147 0.520325 -0.191692 68 1 84
-0.493232 -0.455280 0.198455 68 1 84
-0.177666 -0.386866 -0.191556 68 1 84
-0.099948 0.134075 -0.272121 68 1 84
-0.020165 0.080491 -0.407530 49 100 141
0.187836 0.087842 -0.231447 68 1 84
0.639778 0.223446 0.253016 41 121 142
0.043627 -0.393845 -0.263349 68 1 84
-0.545741 -0.433202 0.339019 68 1 84
0.657786 0.047270 0.339584 151 216 62
-0.557770 -0.058209 0.043610 68 1 84
-0.524212 -0.410509 0.228278 68 1 84
-0.118436 -0.577177 -0.135249 68 1 84
0.037177 0.419789 -0.240260 68 1 84
0.133136 -0.219271 -0.244930 71 18 101
0.661403 0.040337 0.377510 32 144 140
0.561287 -0.028494 0.059754 71 18 101
-0.102609 -0.578303 -0.149269 68 1 84
0.079092 0.286248 -0.278335 68 1 84
0.599733 0.253971 0.151329 34 139 141
-0.703204 0.312264 0.495978 68 1 84
-0.173339 -0.062610 -0.226700 68 1 84
-0.064775 -0.085618 -0.284029 68 1 84
0.589959 0.527377 0.332331 48 103 141
-0.688301 0.171249 0.494152 68 1 84
0.041240 0.018529 -0.305191 68 1 84
-0.020512 -0.001876 -0.296945 68 1 84
0.594403 -0.318984 0.361157 68 1 84
-0.451396 0.170563 -0.152213 38 129 142
-0.632307 -0.155443 0.255882 68 1 84
-0.565625 -0.407751 0.423399 68 1 84
-0.559702 -0.423208 0.418096 68 1 84
0.630582 0.339022 0.288663 44 113 142
-0.474400 0.516803 -0.154791 68 1 84
0.560232 -0.383152 0.256509 68 1 84
-0.119321 0.370093 -0.184339 68 1 84
-0.223356 -0.313890 -0.163311 68 1 84
0.590130 0.461285 0.347676 37 131 141
-0.614804 0.236622 0.078864 34 138 141
0.547590 -0.415137 0.342230 68 1 84
0.028598 0.050397 -0.334754 71 44 123
0.330624 -0.287888 -0.174795 69 5 88
-0.656822 0.408692 0.279668 39 126 142
-0.035853 -0.428880 -0.266426 68 1 84
0.633383 -0.100688 0.501308 62 73 137
0.000552 -0.547418 -0.244452 68 1 84
-0.324878 -0.050292 -0.226830 68 1 84
-0.621540 -0.121912 0.208242 68 1 84
0.364048 -0.342990 -0.144713 68 1 84
0.616102 0.512583 0.439158 81 196 104
0.282451 -0.564144 -0.030592 68 1 84
0.200245 0.276510 -0.189230 68 1 84
-0.612996 0.362317 0.097315 41 121 142
0.572565 0.178025 0.056360 31 149 139
-0.143552 -0.097007 -0.238833 68 1 84
0.069194 -0.367736 -0.251178 68 1 84
-0.601596 -0.256364 0.484232 68 1 84
0.389813 -0.590848 0.072640 68 1 84
-0.123575 -0.534401 -0.196179 68 1 84
-0.647286 0.083404 0.192685 69 6 90
-0.387326 -0.321691 -0.096370 68 1 84
-0.624801 0.118837 0.120075 67 59 131
-0.289300 -0.598916 0.016865 68 1 84
0.361592 -0.012809 -0.210754 69 191 111
-0.066026 0.132381 -0.409009 68 1 84
0.148477 0.536533 -0.197111 68 1 84
-0.200238 -0.293924 -0.169668 68 1 84
0.174669 0.177781 -0.228490 68 1 84
-0.658441 0.177832 0.198060 70 48 125
0.578813 0.498900 0.305465 60 77 138
0.548723 0.609574 0.221100 68 1 84
-0.311210 -0.567552 -0.002157 68 1 84
0.433587 0.341325 -0.062113 68 1 84
-0.491415 -0.030941 -0.075442 52 94 141
-0.117410 -0.006092 -0.222466 68 1 84
0.344544 -0.432313 -0.114317 68 1 84
0.203235 0.572982 -0.200209 68 1 84
-0.601076 0.280254 0.059292 41 121 142
-0.359410 -0.279744 -0.138417 68 1 84
0.372627 -0.102283 -0.192814 32 143 140
0.396696 0.364187 -0.076354 68 1 84
0.347021 0.033664 -0.218969 35 136 141
0.576611 0.607706 0.320041 68 1 84
0.576097 0.505468 0.296221 60 78 138
-0.455715 0.455905 -0.169281 71 37 117
0.570473 -0.325827 0.240544 68 1 84
-0.508045 -0.341818 0.118763 68 1 84
0.476673 0.382387 -0.013341 65 66 134
-0.456435 -0.366624 0.016438 68 1 84
0.530264 -0.235890 0.027245 68 1 84
0.639706 0.284766 0.307586 57 85 139
0.267081 -0.069669 -0.226677 65 65 134
0.516907 -0.488370 0.166550 68 1 84
-0.121533 -0.256825 -0.223705 68 1 84
0.605722 0.554932 0.394122 51 182 121
-0.492632 -0.255166 0.007357 68 1 84
-0.684608 0.096322 0.385646 68 1 84
-0.289669 0.534858 -0.211985 68 1 84
-0.046607 -0.102587 -0.293740 68 1 84
-0.535976 0.385366 -0.043921 66 62 133
0.588240 0.581280 0.343532 47 105 141
0.349808 -0.312118 -0.162807 71 21 103
0.613067 0.260391 0.190867 31 149 139
-0.686631 0.123979 0.397557 68 1 84
-0.484798 0.538767 -0.138264 68 1 84
-0.109369 0.031780 -0.225868 68 1 84
0.400138 0.433884 -0.108896 68 1 84
0.221179 -0.469831 -0.195495 68 1 84
-0.092234 0.169504 -0.279863 68 1 84
0.546258 0.246665 0.006889 75 194 108
-0.582592 0.072243 0.031685 55 88 140
-0.505766 -0.403817 0.172946 68 1 84
-0.102434 -0.294048 -0.235108 68 1 84
-0.081738 -0.333369 -0.236547 68 1 84
0.250818 -0.071220 -0.226181 54 90 140
0.641717 0.159282 0.261394 81 196 104
-0.485260 -0.314728 0.035840 68 1 84
0.444747 -0.198579 -0.119684 44 114 142
0.556330 0.325559 0.054804 53 183 120
0.079884 0.087290 -0.320971 71 39 119
0.220947 -0.462895 -0.197075 68 1 84
-0.448984 0.317143 -0.077426 65 65 134
0.426512 -0.030062 -0.158840 30 152 138
-0.573432 -0.246795 0.181593 68 1 84
0.021048 0.147277 -0.443441 51 96 141
-0.318607 -0.341692 -0.151972 68 1 84
0.172533 0.022984 -0.217587 68 1 84
-0.432765 -0.527297 0.106371 68 1 84
-0.104322 -0.148941 -0.259997 68 1 84
0.227182 -0.174272 -0.212692 68 1 84
0.611490 0.435124 0.404762 51 182 121
-0.017029 -0.291498 -0.257361 68 1 84
0.123166 0.055249 -0.264654 68 1 84
0.592063 -0.214182 0.205029 70 11 94
-0.178272 0.345217 -0.171654 68 1 84
0.621851 0.372783 0.388089 189 222 38
-0.701718 0.521408 0.485514 68 1 84
0.403660 -0.007137 -0.179616 116 208 84
-0.149754 -0.377491 -0.204992 68 1 84
-0.406624 0.265827 -0.135241 69 6 90
0.428030 -0.414053 -0.049202 68 1 84
0.443078 -0.029623 -0.140830 31 148 139
0.179613 -0.410072 -0.230495 68 1 84
0.290668 -0.576167 -0.001383 68 1 84
0.234837 -0.247460 -0.176655 68 1 84
0.540459 -0.337764 0.119879 68 1 84
0.657838 0.081973 0.348697 59 186 117
0.012534 -0.590561 -0.194065 68 1 84
-0.683338 -0.014861 0.375688 68 1 84
-0.649476 0.017236 0.224443 68 1 84
0.625905 0.351193 0.361310 30 156 137
-0.114691 -0.225988 -0.216808 68 1 84
-0.160221 0.177944 -0.235926 68 1 84
0.272885 0.274256 -0.177602 68 1 84
-0.473278 -0.340078 0.028883 68 1 84
-0.619292 0.408811 0.137218 56 87 140
0.422439 -0.426032 -0.048355 68 1 84
0.535986 -0.307801 0.086041 68 1 84
-0.071917 0.092688 -0.357281 68 1 84
-0.461245 -0.251866 -0.050589 68 1 84
-0.408848 -0.237872 -0.110159 68 1 84
0.270414 0.418529 -0.146771 68 1 84
0.518974 -0.490485 0.193166 68 1 84
-0.425731 -0.369769 -0.033961 68 1 84
0.042537 -0.202840 -0.264092 68 1 84
-0.697430 0.367921 0.434906 43 116 142
-0.300293 -0.160340 -0.202342 68 1 84
0.654680 0.148665 0.548304 53 93 140
-0.147005 0.262921 -0.218622 68 1 84
-0.551037 0.108533 -0.040155 30 152 138
-0.675947 -0.029851 0.327696 68 1 84
0.617318 0.565522 0.455336 49 101 141
0.011463 0.383221 -0.281645 68 1 84
0.359148 -0.589767 0.050713 68 1 84
-0.618554 -0.259995 0.372722 68 1 84
-0.006761 -0.363890 -0.252664 68 1 84
0.342331 0.469349 -0.175884 68 1 84
-0.045695 0.227500 -0.377416 68 1 84
0.102277 0.187153 -0.351271 68 1 84
0.290069 0.019588 -0.236551 57 84 139
-0.650473 -0.095657 0.475797 68 1 84
0.269019 -0.529683 -0.092258 68 1 84
-0.344592 0.007187 -0.225930 68 1 84
-0.109737 0.348864 -0.206638 68 1 84
0.538764 -0.006862 -0.005050 46 107 142
-0.342007 0.210548 -0.186026 68 1 84
0.079282 0.048032 -0.271678 68 1 84
0.593191 0.254632 0.129839 41 120 142
0.599961 -0.238022 0.478676 68 1 84
0.639039 0.243398 0.490837 121 209 81
0.650879 -0.080276 0.412623 72 30 112
-0.418901 0.160182 -0.178668 57 85 139
0.266712 0.113352 -0.233439 68 1 84
0.415998 -0.581241 0.065970 68 1 84
-0.280496 0.432457 -0.197164 68 1 84
-0.577996 -0.349245 0.474500 68 1 84
-0.617662 -0.252517 0.401688 68 1 84
-0.524986 -0.447853 0.287648 68 1 84
0.174274 -0.196999 -0.212841 68 1 84
-0.349117 0.583159 -0.215339 68 1 84
0.066020 0.289693 -0.305890 68 1 84
0.150874 0.464097 -0.178767 68 1 84
0.600916 -0.170682 0.205270 59 81 138
-0.028473 -0.269593 -0.268136 68 1 84
-0.478907 0.515305 -0.150674 68 1 84
0.529607 0.600782 0.133813 68 1 84
0.199727 0.334220 -0.180516 68 1 84
-0.700734 0.493352 0.470629 68 1 84
0.593938 0.115445 0.130670 64 189 114
-0.186516 -0.321394 -0.182851 68 1 84
0.555005 -0.384830 0.237131 68 1 84
-0.304803 -0.094387 -0.223983 68 1 84
-0.595662 0.130448 0.041671 40 122 142
0.453874 -0.081590 -0.130057 61 187 116
-0.680953 0.096549 0.330875 68 1 84
-0.091750 -0.568497 -0.180763 68 1 84
-0.112242 -0.575825 -0.146158 68 1 84
-0.503896 -0.398774 0.162314 68 1 84
0.542474 -0.357877 0.141513 68 1 84
-0.601177 0.068724 0.075087 47 106 141
0.089317 -0.219936 -0.264141 68 1 84
0.170139 0.433889 -0.158465 68 1 84
-0.230823 -0.543318 -0.072099 68 1 84
-0.074508 -0.196536 -0.241055 68 1 84
0.035098 0.508870 -0.229214 68 1 84
0.172148 0.435693 -0.160100 68 1 84
0.588100 0.085547 0.116812 30 157 136
0.098081 0.195065 -0.322175 68 1 84
0.038956 -0.580447 -0.211863 68 1 84
-0.272486 -0.569170 -0.023038 68 1 84
0.022421 0.250254 -0.385949 68 1 84
-0.663968 0.143762 0.230079 62 73 137
0.620008 0.381593 0.366951 59 186 117
0.163504 -0.570707 -0.160390 68 1 84
0.101223 0.303517 -0.231160 68 1 84
-0.154147 0.124098 -0.238072 68 1 84
-0.351254 0.306239 -0.162333 68 1 84
-0.578143 0.268412 0.023090 36 133 141
-0.667411 -0.036249 0.296123 68 1 84
0.266185 0.197416 -0.206856 71 18 101
-0.202215 -0.450431 -0.175129 68 1 84
-0.648199 -0.060693 0.498365 68 1 84
-0.353218 0.011104 -0.221069 68 1 84
-0.032171 0.167478 -0.432021 68 1 84
0.164614 0.437956 -0.161626 68 1 84
-0.012211 -0.443793 -0.270762 68 1 84
0.655048 0.020760 0.528388 66 62 133
-0.218191 -0.063271 -0.233680 68 1 84
0.104334 0.177154 -0.353737 68 1 84
-0.657911 0.347631 0.245328 44 112 142
-0.094618 0.315606 -0.243507 68 1 84
0.229588 -0.172867 -0.212875 68 1 84
0.516749 -0.505509 0.228254 68 1 84
0.005802 0.591467 -0.249919 68 1 84
-0.363584 0.155520 -0.205816 71 37 117
0.006330 -0.380648 -0.259142 68 1 84
0.218503 -0.298036 -0.196944 68 1 84
-0.632904 -0.220545 0.360544 68 1 84
0.297719 0.169866 -0.211064 58 82 139
0.600958 0.081699 0.153838 173 220 48
0.408216 -0.525784 0.011107 68 1 84
0.485437 -0.295633 -0.030541 68 1 84
0.144919 0.074135 -0.221775 68 1 84
-0.491151 -0.094953 -0.062869 70 48 125
-0.682297 0.335791 0.337143 49 101 141
0.345626 0.635961 -0.166921 68 1 84
-0.251789 -0.611691 0.017316 68 1 84
-0.592386 0.494876 0.082259 61 74 137
-0.574082 -0.300994 0.227834 68 1 84
0.089794 0.192721 -0.388033 70 9 92
0.376419 0.603659 -0.155505 68 1 84
0.582313 0.135806 0.089455 43 115 142
-0.103739 -0.537818 -0.208474 68 1 84
-0.083024 0.207794 -0.305011 68 1 84
0.663677 0.065073 0.437914 38 127 142
-0.063325 -0.460218 -0.258612 68 1 84
0.600559 -0.251997 0.279986 68 1 84
0.355498 -0.297688 -0.166984 67 58 131
-0.587322 -0.007205 0.080954 68 1 84
-0.178772 -0.561069 -0.096341 68 1 84
-0.278798 -0.579552 -0.008582 68 1 84
0.176582 -0.445636 -0.238591 68 1 84
0.601696 0.306035 0.170493 48 103 141
-0.632109 0.262260 0.122671 31 150 139
0.273842 -0.480447 -0.145678 68 1 84
-0.568590 0.054381 0.009147 58 83 139
-0.193309 0.555880 -0.231237 68 1 84
0.552280 -0.204227 0.081168 72 32 113
-0.293732 -0.559841 -0.020445 68 1 84
-0.601516 -0.301573 0.316716 68 1 84
0.510354 0.140536 -0.066861 61 74 137
-0.548637 -0.429598 0.458490 68 1 84
0.508604 -0.157168 -0.048501 36 134 141
-0.401026 0.152675 -0.190274 54 90 140
-0.621249 -0.218083 0.438587 68 1 84
-0.103222 -0.430850 -0.241116 68 1 84
-0.531002 0.368658 -0.039752 61 74 137
-0.335513 -0.017029 -0.227770 68 1 84
-0.421192 -0.024772 -0.159524 68 1 84
0.531293 -0.447557 0.186314 68 1 84
-0.250825 -0.113883 -0.224391 68 1 84
-0.116648 0.477149 -0.196284 68 1 84
-0.009678 0.132181 -0.443399 47 106 141
-0.201008 0.540978 -0.221074 68 1 84
-0.672323 0.044952 0.478890 68 1 84
0.565494 0.275069 0.052934 34 138 141
-0.606332 0.296314 0.070355 33 142 140
0.497349 -0.376745 0.026426 68 1 84
0.597019 0.060451 0.148644 178 221 44
-0.541484 0.114844 -0.055321 31 146 140
-0.612192 0.496709 0.138318 70 49 126
-0.478846 -0.085283 -0.080805 71 15 98
0.621135 0.548092 0.474119 47 106 141
-0.686932 0.437900 0.398393 38 128 142
0.651373 0.038671 0.290718 53 183 120
0.527087 -0.142011 -0.012824 51 96 141
0.473602 -0.512449 0.070190 68 1 84
0.528627 0.324398 0.012467 34 167 132
0.621796 0.376953 0.520118 69 191 111
-0.385534 0.122442 -0.198641 44 113 142
-0.264816 -0.274528 -0.179889 68 1 84
-0.236120 -0.438401 -0.156250 68 1 84
0.578960 -0.283002 0.219047 68 1 84
0.501212 -0.045303 -0.069247 30 157 136
0.113258 -0.331529 -0.239535 68 1 84
-0.033078 -0.001505 -0.287181 68 1 84
0.141941 0.272432 -0.212163 68 1 84
-0.001475 0.056025 -0.371785 57 84 139
-0.421831 -0.593184 0.190772 68 1 84
0.497744 0.031105 -0.071201 35 137 141
-0.071845 -0.391139 -0.247840 68 1 84
-0.532911 -0.468803 0.350670 68 1 84
0.547250 0.128255 -0.005648 34 137 141
-0.076047 0.216699 -0.328172 68 1 84
-0.469977 -0.433643 0.109152 68 1 84
-0.634665 0.324176 0.144522 38 127 142
-0.522337 -0.476654 0.327260 68 1 84
0.305225 -0.568094 -0.007180 68 1 84
0.643788 -0.109449 0.435888 72 33 114
-0.184856 -0.308048 -0.182033 68 1 84
-0.330101 0.151337 -0.215648 68 2 85
-0.582776 0.451584 0.047298 59 81 138
0.061770 -0.069593 -0.303921 68 1 84
0.424173 -0.081738 -0.159595 32 165 133
0.545685 -0.098840 0.026519 70 45 124
-0.203763 -0.494174 -0.153126 68 1 84
-0.166368 -0.463590 -0.195438 68 1 84
-0.196951 -0.567047 -0.069649 68 1 84
0.269881 -0.037511 -0.232959 68 1 84
-0.652455 -0.111870 0.403019 68 1 84
0.602851 -0.085888 0.186427 37 131 141
0.595839 -0.315807 0.361349 71 43 122
0.003278 -0.231078 -0.273602 68 1 84
-0.285281 0.544060 -0.215438 68 1 84
-0.097557 0.582094 -0.249344 68 1 84
-0.603057 0.191391 0.053039 46 108 142
-0.652590 0.244788 0.176638 56 86 139
0.115395 0.110388 -0.318615 71 22 105
-0.303277 -0.534397 -0.039976 68 1 84
-0.538999 -0.404872 0.264638 68 1 84
0.663021 0.030945 0.437138 40 122 142
0.594474 -0.030746 0.162850 47 105 141
-0.665232 0.144945 0.233454 65 66 134
0.321366 0.548769 -0.187402 68 1 84
0.629825 -0.181323 0.332235 57 84 139
0.660782 0.104118 0.395159 30 159 136
0.303385 -0.524579 -0.063522 68 1 84
-0.645545 -0.118155 0.483326 68 1 84
0.520650 -0.022223 -0.039924 81 196 104
-0.016326 -0.129040 -0.298826 68 1 84
0.442578 -0.035496 -0.141813 33 140 141
0.405324 0.201973 -0.168232 33 142 140
-0.022621 -0.186375 -0.265300 68 1 84
-0.420083 -0.575614 0.145749 68 1 84
0.545247 -0.393446 0.194259 68 1 84
0.663744 0.047347 0.430010 34 139 141
-0.488401 -0.099849 -0.065333 71 39 119
0.325439 0.245956 -0.181981 71 40 120
0.040686 0.448371 -0.225874 68 1 84
