ply
format ascii 1.0
element vertex 1263
property float x
property float y
property float z
property uchar red
property uchar green
property uchar blue
end_header
-0.561448 0.273180 0.379557 68 1 84
-0.338773 0.570189 0.045624 68 1 84
-0.655186 -0.385419 0.291549 68 1 84
0.488699 0.381536 0.204720 68 1 84
-0.532183 0.335718 0.305512 68 1 84
0.442731 0.460763 0.318258 68 1 84
0.374349 0.123368 -0.130700 46 109 142
0.574839 -0.521290 0.250189 45 110 142
-0.031791 0.388671 -0.270847 47 179 123
0.576612 0.063969 0.200323 68 1 84
0.334264 -0.364004 -0.131273 31 149 139
0.400091 -0.571733 -0.168808 56 185 118
0.075574 0.643683 -0.212945 45 111 142
0.044423 -0.319769 -0.338497 68 1 84
-0.543691 -0.387995 0.027663 70 9 92
0.560819 0.183788 0.253628 68 1 84
-0.277959 -0.458742 -0.220439 71 15 98
-0.133352 0.293465 -0.241150 70 48 125
0.615656 -0.329267 0.312354 61 75 137
0.200050 0.085353 -0.219063 33 166 133
-0.676427 -0.347508 0.360840 72 26 108
0.192289 -0.034522 -0.228257 38 128 142
0.051931 -0.510367 -0.278829 69 52 127
-0.472243 -0.388379 -0.079173 68 1 84
0.002520 0.015288 -0.428106 59 81 138
-0.137748 -0.191881 -0.228845 38 172 129
0.307865 -0.436412 -0.159486 40 122 142
-0.339703 0.554953 0.025663 68 1 84
-0.419536 0.124453 -0.080164 68 1 84
0.568139 0.189717 0.345651 68 1 84
-0.499501 0.369647 0.192862 68 1 84
0.573221 -0.411595 0.182338 33 142 140
0.148986 0.021465 -0.296863 31 148 139
-0.561551 -0.250769 0.019629 68 1 84
0.581339 -0.439554 0.229294 49 100 141
0.626325 -0.134243 0.405073 68 1 84
-0.237594 -0.456398 -0.208942 71 44 123
-0.397396 0.539000 0.219623 68 1 84
-0.561506 -0.115398 -0.007877 72 25 107
-0.519652 0.362783 0.354805 68 1 84
-0.624642 0.058526 0.532428 68 1 84
0.075020 0.119172 -0.315519 37 171 129
0.589097 -0.006462 0.214873 68 1 84
0.149299 -0.094167 -0.345525 68 1 84
0.487648 0.367445 0.174530 68 1 84
-0.551659 -0.521421 0.082632 41 120 142
0.538045 -0.188969 -0.012523 61 74 137
0.205592 0.643481 -0.064300 68 1 84
0.567638 -0.152376 0.043907 58 83 139
0.423988 -0.065642 -0.124514 35 137 141
-0.585836 -0.088578 0.062656 68 1 84
0.408844 0.325070 -0.019463 72 34 115
0.556040 0.078758 0.120188 68 1 84
0.400070 0.359324 -0.008830 68 1 84
0.589716 0.025602 0.584413 68 1 84
-0.020605 -0.000958 -0.438074 72 34 115
0.593501 0.052716 0.527578 68 1 84
0.147021 0.662554 -0.130095 61 76 137
0.609137 0.000289 0.502702 68 1 84
-0.057585 -0.393491 -0.248239 72 32 113
-0.612376 -0.207171 0.131878 68 1 84
-0.093606 0.112776 -0.280722 69 191 111
-0.072701 0.071404 -0.285220 37 131 141
-0.447399 -0.391441 -0.100159 68 1 84
0.535850 -0.144427 -0.024111 67 59 131
0.287344 0.550816 -0.031873 68 1 84
-0.623347 -0.431346 0.222417 69 53 128
0.132600 -0.366904 -0.169866 60 78 138
-0.111187 -0.382907 -0.181187 66 64 133
0.605275 -0.065217 0.553842 68 1 84
-0.447412 0.300232 0.029113 68 1 84
-0.071976 -0.411930 -0.230687 68 1 84
-0.400605 0.346007 -0.019127 68 1 84
-0.174459 0.631388 -0.153970 68 1 84
-0.491894 0.128784 0.010680 68 1 84
-0.164267 -0.464942 -0.213292 71 24 106
0.234928 -0.470267 -0.183335 40 122 142
-0.110233 0.665910 -0.168374 68 1 84
-0.523385 0.046234 0.003554 68 1 84
0.595774 -0.452003 0.302239 64 67 135
0.628617 -0.220332 0.344501 68 1 84
-0.015076 0.681107 -0.154044 53 93 140
-0.575644 0.236355 0.395811 68 1 84
0.358898 0.473611 0.019318 72 30 112
0.412610 -0.578102 -0.159111 96 201 96
0.575493 -0.493145 0.240611 49 100 141
0.613918 -0.281954 0.272488 64 67 135
-0.009505 0.419046 -0.243186 42 119 142
0.080002 -0.151470 -0.435511 68 1 84
0.151572 -0.009658 -0.359687 71 44 123
-0.503210 0.189243 0.068208 68 1 84
0.474856 0.225449 0.026403 68 2 85
0.597180 -0.105265 0.170548 71 37 117
-0.452640 0.063224 -0.073944 68 1 84
-0.680921 -0.178369 0.482991 68 1 84
-0.564568 0.017678 0.081318 68 1 84
-0.585462 0.194077 0.494578 68 1 84
0.328923 0.596364 0.155651 68 1 84
-0.473641 0.311308 0.080186 68 1 84
-0.297698 0.464795 -0.083801 68 1 84
-0.452067 0.423606 0.113339 68 1 84
-0.530359 0.089831 0.053448 68 1 84
-0.320275 -0.357241 -0.158757 71 22 105
-0.113646 0.436661 -0.220295 70 14 97
0.520055 -0.024589 -0.025943 68 55 129
-0.507859 -0.335471 -0.024501 72 25 107
0.101282 -0.335718 -0.236396 71 42 121
-0.504109 -0.208066 -0.075919 59 81 138
-0.486470 0.385118 0.168348 68 1 84
-0.551792 0.095199 0.114389 68 1 84
-0.479560 0.413534 0.398204 68 1 84
0.067097 -0.400705 -0.276826 71 42 121
-0.590389 0.168503 0.504162 68 1 84
-0.413166 -0.342160 -0.111852 72 34 115
0.112031 -0.394870 -0.194153 72 28 110
0.201691 0.300315 -0.182562 37 130 142
0.442605 0.227196 -0.027733 58 82 139
-0.345681 0.500413 -0.009689 68 1 84
0.044803 0.248900 -0.309519 189 222 38
-0.093539 -0.470549 -0.245009 68 3 87
0.501324 0.359424 0.395387 68 1 84
-0.470028 0.428464 0.371231 68 1 84
0.609814 0.010807 0.493618 68 1 84
-0.694229 -0.542580 0.472917 69 50 127
0.082559 0.450419 -0.221290 68 1 84
-0.604114 -0.106092 0.132675 68 1 84
-0.237544 -0.355452 -0.165934 48 103 141
-0.571188 0.146993 0.219759 68 1 84
-0.178460 -0.371980 -0.149402 48 104 141
0.500406 -0.538491 -0.050994 30 153 138
0.068422 -0.538661 -0.277052 45 111 142
0.606178 -0.066360 0.311098 68 1 84
0.101826 0.332621 -0.273834 41 175 127
-0.015029 0.363544 -0.289295 178 221 44
-0.024583 0.242776 -0.308531 56 185 118
-0.529381 -0.495309 0.018807 61 75 137
-0.045866 -0.139311 -0.462780 68 1 84
-0.200714 0.317840 -0.194136 69 54 129
-0.325036 -0.423262 -0.206956 68 1 84
0.602866 -0.016376 0.526866 68 1 84
0.040450 -0.085756 -0.510814 68 1 84
-0.504865 -0.025247 -0.063042 68 1 84
-0.675443 -0.224536 0.323442 69 52 127
0.247575 0.614871 -0.028385 68 1 84
-0.146369 -0.528868 -0.266106 71 38 118
-0.133405 0.053137 -0.234556 31 147 139
0.539049 -0.478430 0.082524 30 156 137
0.619220 -0.126124 0.329373 68 1 84
-0.138798 0.542331 -0.213873 68 1 84
-0.612411 0.103924 0.407096 68 1 84
0.226709 0.307564 -0.161465 57 85 139
-0.577721 0.052554 0.171478 68 1 84
0.133038 -0.396338 -0.173411 52 95 141
-0.326622 -0.602896 -0.238984 71 22 105
0.398583 -0.452460 -0.167885 51 97 141
-0.679965 -0.467616 0.389642 62 72 136
0.374038 0.394472 -0.019607 70 12 95
0.465219 0.324538 0.076549 68 1 84
-0.126145 -0.348371 -0.171748 57 85 139
0.368716 -0.034084 -0.149146 41 120 142
0.081639 0.458013 -0.222071 68 1 84
0.118593 -0.354692 -0.184924 54 90 140
-0.091649 0.223332 -0.304839 207 225 28
-0.194082 -0.323032 -0.167224 49 100 141
-0.663762 -0.087537 0.523001 68 1 84
0.092854 -0.245691 -0.318743 72 32 113
0.122854 -0.012719 -0.390544 71 43 122
0.557834 0.119197 0.168527 68 1 84
-0.575939 0.180089 0.273160 68 1 84
-0.422555 0.506539 0.253081 68 1 84
-0.569449 0.169435 0.232702 68 1 84
-0.540170 0.303628 0.471301 68 1 84
0.186544 0.585605 -0.158348 45 111 142
-0.548691 0.275096 0.262720 68 1 84
0.561743 0.138026 0.516545 68 1 84
0.246314 0.086915 -0.196483 30 153 138
0.076439 0.001061 -0.330907 62 72 136
0.579823 0.115034 0.290237 68 1 84
0.083725 -0.011754 -0.411353 71 18 101
0.593092 0.054035 0.410629 68 1 84
0.622355 -0.304921 0.333641 50 99 141
-0.038602 -0.321402 -0.312850 68 57 130
0.368615 -0.035928 -0.149240 36 134 141
0.089770 0.318384 -0.276475 121 209 81
-0.089772 -0.479925 -0.252590 71 15 98
-0.553764 0.273892 0.287856 68 1 84
-0.597395 0.048719 0.262476 68 1 84
0.585442 0.098106 0.363388 68 1 84
-0.591162 0.168911 0.499790 68 1 84
0.072523 -0.116308 -0.481367 68 1 84
0.356263 -0.503651 -0.190380 35 135 141
-0.656274 -0.081934 0.341549 68 1 84
-0.600993 -0.291289 0.115146 71 24 106
-0.659005 -0.093280 0.352484 68 1 84
-0.599367 0.059652 0.279099 68 1 84
-0.535856 0.297559 0.515359 68 1 84
0.346233 -0.441390 -0.160176 46 108 142
0.588138 -0.003258 0.209723 68 1 84
0.051882 0.431313 -0.232936 69 50 127
0.551592 0.252063 0.359459 68 1 84
-0.678365 -0.165592 0.442109 68 1 84
0.112024 -0.216963 -0.305328 71 44 123
-0.620766 -0.354043 0.189381 72 32 113
-0.089230 -0.230143 -0.282829 40 123 142
-0.170290 -0.149874 -0.211845 68 190 112
0.122958 -0.443441 -0.211503 71 43 122
0.408606 0.521359 0.209239 68 1 84
-0.247018 0.642186 0.016641 68 1 84
-0.137344 0.357009 -0.245504 36 132 141
-0.433205 0.257564 -0.011428 68 1 84
-0.599921 -0.459518 0.165232 63 71 136
-0.228073 -0.237292 -0.175328 41 121 142
0.584431 -0.572901 0.293191 30 153 138
-0.061956 -0.012509 -0.393949 72 26 108
0.555896 -0.035554 0.039316 70 49 126
-0.220931 0.226784 -0.222841 44 112 142
-0.560623 -0.191681 -0.001013 72 29 111
-0.356540 -0.061639 -0.158142 52 95 141
0.571569 0.175642 0.362189 68 1 84
0.293101 0.582415 0.012643 68 1 84
-0.202090 -0.512855 -0.240903 68 1 84
0.557626 0.184497 0.471551 68 1 84
0.570967 0.034078 0.138163 68 1 84
0.456316 0.448289 0.221123 68 1 84
0.401762 0.527519 0.177653 68 1 84
0.021416 0.603789 -0.243787 68 1 84
-0.483747 0.332392 0.113066 68 1 84
0.602648 -0.033114 0.331212 68 1 84
0.513215 0.222525 0.117904 68 1 84
0.625481 -0.575809 0.437721 30 153 138
0.527313 -0.019550 -0.011939 68 57 130
0.608449 -0.147507 0.229777 71 24 106
-0.162195 0.376416 -0.222285 66 64 133
0.404568 -0.088833 -0.135629 35 136 141
0.372537 0.448233 0.018422 71 20 102
0.113879 -0.016557 -0.332386 60 78 138
0.119124 -0.041282 -0.446817 68 1 84
0.371085 0.561806 0.177240 68 1 84
0.215187 0.635473 -0.062645 68 1 84
-0.672754 -0.265560 0.310614 71 43 122
0.613261 -0.199679 0.525184 68 1 84
-0.071241 -0.073501 -0.472685 68 1 84
0.475062 0.384112 0.450513 68 1 84
0.419118 0.304353 -0.016831 72 28 110
0.293866 0.573273 0.002335 68 1 84
-0.491464 -0.479825 -0.082234 66 61 132
-0.036830 0.636710 -0.225712 59 81 138
0.624170 -0.452352 0.515442 45 110 142
0.050935 0.428567 -0.234439 48 104 141
0.480154 -0.378894 -0.028966 62 72 136
0.479164 0.375018 0.459131 68 1 84
-0.162846 0.033668 -0.216379 33 142 140
0.435202 0.264930 -0.015913 68 2 85
0.257402 -0.431664 -0.166782 35 136 141
-0.521697 -0.386231 -0.008536 68 1 84
0.513498 0.336617 0.400153 68 1 84
0.466615 -0.382816 -0.043249 56 87 140
-0.058625 -0.087647 -0.485686 68 1 84
0.460380 -0.002215 -0.089144 56 87 140
0.439068 -0.306762 -0.085301 52 95 141
0.525580 -0.082505 -0.034133 58 82 139
-0.026353 -0.317890 -0.328605 72 32 113
0.100748 -0.224298 -0.317714 70 49 126
0.248996 0.002408 -0.195152 32 145 140
0.505335 0.098425 0.007485 71 42 121
0.598373 -0.359579 0.239626 60 78 138
-0.621023 -0.200583 0.160310 68 1 84
0.238116 0.188248 -0.215432 189 222 38
0.005330 0.464569 -0.236842 68 2 85
-0.496214 0.227110 0.077972 68 1 84
-0.129019 -0.408297 -0.183695 67 58 131
0.617984 -0.345370 0.429249 59 80 138
-0.323232 -0.601749 -0.240788 72 34 115
-0.153489 0.481735 -0.197183 68 1 84
0.588559 -0.240446 0.143479 67 58 131
-0.204327 0.162723 -0.233400 36 134 141
-0.040814 -0.441103 -0.268446 72 28 110
0.473759 -0.420581 -0.063623 44 114 142
-0.029259 -0.324696 -0.322336 72 29 111
0.479033 0.272355 0.066430 68 1 84
-0.465530 -0.175587 -0.118067 39 124 142
-0.692829 -0.511244 0.442094 68 2 85
0.570155 0.045282 0.147075 68 1 84
-0.201068 -0.317891 -0.170542 44 113 142
0.545385 0.234584 0.239691 68 1 84
-0.178030 0.637874 -0.142013 68 1 84
-0.560636 0.262509 0.466416 68 1 84
0.122178 0.546683 -0.220579 68 1 84
0.057907 0.662918 -0.195466 48 103 141
0.050499 0.495980 -0.240195 68 1 84
0.535666 0.138921 0.104803 68 1 84
0.427249 0.479175 0.155539 68 1 84
0.122476 -0.383993 -0.179344 53 93 140
0.595015 -0.021912 0.252411 68 1 84
0.463085 -0.044269 -0.096175 67 60 132
-0.451471 0.454459 0.358495 68 1 84
-0.316069 -0.037984 -0.166468 39 126 142
-0.001027 0.289647 -0.276371 103 204 92
0.255608 0.336018 -0.140308 50 181 122
-0.273312 -0.075637 -0.177670 38 127 142
-0.436070 0.218605 -0.025300 68 1 84
0.586532 -0.145416 0.104658 72 32 113
0.600306 -0.401535 0.276895 61 74 137
-0.608121 -0.478098 0.196087 68 55 129
0.081726 0.649282 -0.205876 43 115 142
-0.390915 0.115040 -0.107132 70 14 97
-0.414006 -0.592473 -0.183297 56 86 139
0.245162 -0.281555 -0.155291 30 158 136
0.617611 -0.087146 0.435373 68 1 84
-0.132961 0.024423 -0.301229 60 77 138
-0.639711 -0.350096 0.233861 68 1 84
0.532499 0.228934 0.180562 68 1 84
-0.665875 -0.105568 0.413352 68 1 84
-0.195463 0.350393 -0.201627 72 29 111
-0.561153 0.118752 0.162575 68 1 84
-0.436989 0.060878 -0.088893 72 26 108
0.482365 -0.459002 -0.077898 43 115 142
0.427814 0.341587 0.022161 68 1 84
-0.651654 -0.363799 0.272591 69 8 91
0.336588 0.428192 -0.040848 71 44 123
-0.424622 0.396365 0.044549 68 1 84
-0.225651 -0.437698 -0.201602 69 5 88
0.580113 -0.151713 0.081720 62 73 137
-0.601050 0.152396 0.417269 68 1 84
0.400393 0.101691 -0.115403 52 94 141
-0.015097 -0.558002 -0.286503 63 69 135
0.047416 0.537482 -0.251610 68 1 84
-0.687367 -0.514292 0.416145 70 48 125
-0.580359 0.015162 0.146271 68 1 84
0.270287 0.617902 0.031198 68 1 84
-0.077744 0.050890 -0.288333 45 110 142
-0.507833 -0.305084 -0.030334 70 49 126
-0.583133 0.138969 0.266810 68 1 84
-0.265617 -0.167625 -0.169445 55 89 140
0.005833 0.210254 -0.334916 205 224 29
0.297774 0.547020 -0.017532 68 1 84
-0.261478 -0.473212 -0.215992 71 37 117
0.523761 0.326324 0.346127 68 1 84
-0.250738 -0.321263 -0.176888 30 153 138
-0.449290 0.301286 0.032732 68 1 84
0.128489 0.372553 -0.246394 30 153 138
0.608993 -0.388496 0.325922 59 81 138
-0.095834 -0.120498 -0.380889 68 1 84
0.438337 0.145123 -0.068205 57 84 139
-0.311513 0.026465 -0.162980 57 84 139
0.422458 0.236270 -0.050863 60 78 138
-0.607655 -0.382208 0.162629 72 35 116
0.591309 -0.326126 0.192215 41 121 142
0.604531 -0.036740 0.344993 68 1 84
-0.108454 0.617684 -0.219728 68 1 84
-0.678670 -0.251195 0.344840 71 24 106
0.421567 -0.175460 -0.125399 46 109 142
0.409689 0.310183 -0.027349 70 47 124
-0.634350 0.013187 0.447279 68 1 84
-0.316873 0.413296 -0.085765 68 1 84
0.084720 0.365262 -0.273628 91 200 98
-0.045125 -0.009914 -0.433886 71 15 98
-0.012354 -0.105450 -0.502955 68 1 84
-0.283838 0.516218 -0.082572 68 1 84
-0.605651 0.126040 0.372731 68 1 84
-0.338254 0.275539 -0.125009 68 1 84
0.614722 -0.513438 0.404555 34 137 141
-0.266154 0.231797 -0.194643 46 107 142
-0.598105 -0.085200 0.120780 72 25 107
-0.070816 -0.243762 -0.308039 56 86 139
0.576552 -0.472286 0.233233 54 90 140
0.554797 -0.298239 0.082502 46 107 142
-0.694945 -0.465403 0.456906 67 58 131
0.539003 -0.460541 0.077982 30 153 138
-0.109371 -0.118491 -0.317162 68 55 129
0.150950 0.313243 -0.237523 36 132 141
-0.544771 -0.312594 0.015748 72 26 108
-0.369194 0.381516 -0.045220 68 1 84
0.587928 -0.039071 0.160368 68 2 85
0.617698 -0.308950 0.475937 68 1 84
-0.524295 -0.012918 -0.031998 68 1 84
-0.295845 0.167266 -0.173942 48 103 141
0.379121 0.475351 0.049289 72 32 113
-0.487757 0.014433 -0.062587 68 1 84
-0.564744 0.173866 0.218885 68 1 84
0.105021 -0.170312 -0.360227 68 1 84
0.566711 -0.344854 0.131501 35 136 141
0.404840 0.376052 0.012084 68 1 84
0.105516 -0.018510 -0.335493 68 55 129
0.306082 0.568402 0.017698 68 1 84
0.587442 -0.269464 0.152419 49 101 141
-0.098197 -0.110523 -0.388790 68 1 84
0.016972 0.657203 -0.206500 50 98 141
-0.318291 0.502752 -0.045640 68 1 84
0.459729 0.398074 0.130785 68 1 84
0.498681 0.378359 0.306292 68 1 84
-0.096160 -0.130024 -0.359652 71 15 98
-0.042851 -0.269790 -0.335757 64 67 135
0.521557 -0.507588 0.016643 34 167 132
0.563573 -0.453996 0.166394 33 140 141
0.507874 -0.195657 -0.054459 50 99 141
-0.122947 -0.195435 -0.246320 31 150 139
0.367060 -0.249450 -0.133568 36 134 141
0.530558 -0.448492 0.046822 46 107 142
0.308763 0.026188 -0.173704 30 156 137
0.025242 -0.425389 -0.289320 70 48 125
-0.632938 -0.198916 0.193481 68 1 84
-0.222316 0.595044 -0.126227 68 1 84
0.380836 -0.208622 -0.135640 38 129 142
0.625611 -0.494841 0.453212 49 101 141
0.616514 -0.302844 0.495339 68 1 84
0.339991 0.419293 -0.042967 66 62 133
-0.548204 0.247410 0.226288 68 1 84
-0.384759 0.247474 -0.079340 68 1 84
-0.384108 0.276053 -0.070705 68 1 84
-0.010748 0.203663 -0.335487 191 223 36
-0.395556 0.176787 -0.087451 68 1 84
-0.231233 -0.550054 -0.258287 68 1 84
0.575004 0.092065 0.222148 68 1 84
0.133257 0.255276 -0.247887 35 169 130
0.388126 -0.458528 -0.176680 58 83 139
-0.630459 -0.260254 0.188905 69 54 129
0.423851 0.345690 0.018835 68 1 84
-0.223126 -0.490155 -0.220620 71 15 98
-0.497926 0.381217 0.441426 68 1 84
-0.404444 0.295368 -0.035900 68 1 84
0.488137 -0.091504 -0.081671 61 76 137
0.559324 -0.026333 0.051893 68 57 130
0.397901 0.021801 -0.128385 52 94 141
-0.077111 -0.399982 -0.217551 68 1 84
-0.603297 -0.216655 0.104586 68 1 84
-0.318079 -0.135850 -0.166197 55 89 140
0.249439 0.630615 0.013670 68 1 84
0.296492 0.389497 -0.098336 45 110 142
0.611180 -0.110435 0.287680 68 1 84
-0.017509 -0.135406 -0.479808 68 1 84
-0.085691 -0.171632 -0.337968 42 117 142
0.349922 -0.046109 -0.156867 34 167 132
-0.598605 -0.207553 0.088879 68 1 84
0.581249 -0.099365 0.090734 66 61 132
-0.654205 -0.314473 0.260142 72 29 111
0.559608 0.175117 0.476798 68 1 84
0.140591 -0.171087 -0.284581 62 72 136
-0.570197 0.245468 0.446153 68 1 84
0.610273 -0.088755 0.311558 68 1 84
0.629381 -0.219625 0.403631 68 1 84
0.471739 -0.320813 -0.040668 67 60 132
0.195140 -0.109819 -0.228666 43 115 142
-0.061852 -0.017463 -0.443157 68 1 84
-0.485898 0.404707 0.401806 68 1 84
-0.184491 0.272486 -0.208477 64 67 135
0.359227 -0.561090 -0.191384 69 191 111
-0.568814 0.236958 0.309529 68 1 84
0.427586 -0.339294 -0.092634 48 103 141
0.279019 -0.097539 -0.179203 32 165 133
0.093690 0.076111 -0.305694 39 125 142
-0.613180 -0.485131 0.212058 56 86 139
-0.554744 -0.000392 0.029732 68 1 84
-0.344061 0.498358 -0.013496 68 1 84
-0.149840 -0.269466 -0.183567 39 125 142
0.553618 0.243526 0.319378 68 1 84
-0.600162 0.133540 0.349458 68 1 84
-0.066343 -0.161058 -0.410852 68 1 84
0.621829 -0.274658 0.439474 70 11 94
0.558106 -0.111253 0.019862 54 90 140
0.601637 -0.399061 0.282795 70 47 124
-0.446307 0.335546 0.046629 68 1 84
0.092655 -0.459405 -0.250791 65 66 134
-0.436730 -0.050350 -0.125079 44 112 142
0.593645 -0.352159 0.216136 58 82 139
-0.556614 0.103178 0.135346 68 1 84
0.209824 -0.012978 -0.210323 32 145 140
0.536438 -0.462974 0.069424 31 148 139
0.587990 -0.205030 0.125030 69 8 91
0.607830 -0.224789 0.209845 69 54 129
-0.669178 -0.124832 0.390375 68 1 84
0.211147 -0.388098 -0.128448 62 188 115
-0.665195 -0.096883 0.472337 68 1 84
0.271759 0.235176 -0.180410 134 212 73
0.360322 -0.284419 -0.135216 48 104 141
-0.612331 -0.107194 0.175015 68 2 85
0.613913 -0.133413 0.282667 68 1 84
-0.692910 -0.531091 0.452271 68 1 84
-0.644273 -0.051997 0.350609 68 1 84
-0.082327 -0.111511 -0.442679 68 1 84
0.126302 -0.253733 -0.255019 62 72 136
0.417762 0.013522 -0.116819 57 85 139
-0.099673 0.184156 -0.300099 107 205 89
0.037835 0.644704 -0.217101 41 120 142
0.342724 0.179788 -0.143962 44 114 142
0.095399 -0.388822 -0.233919 68 1 84
-0.489559 -0.498891 -0.087219 72 29 111
-0.679071 -0.216020 0.354608 70 49 126
-0.325948 -0.205109 -0.166396 68 57 130
-0.522265 -0.546843 0.000634 63 71 136
0.436710 -0.189146 -0.116043 42 119 142
-0.657328 -0.083395 0.371400 68 1 84
0.407790 0.336085 -0.013754 68 1 84
-0.426825 0.045508 -0.102463 71 22 105
0.547861 0.173091 0.524962 68 1 84
-0.354798 0.038974 -0.142975 64 68 135
0.323393 -0.328557 -0.143311 31 148 139
0.512128 0.163741 0.063189 68 2 85
0.550273 0.250054 0.384644 68 1 84
0.074687 0.142003 -0.318499 39 173 128
0.341165 -0.272958 -0.140771 38 127 142
-0.515082 0.352481 0.235503 68 1 84
0.378751 0.178341 -0.116328 45 111 142
-0.692086 -0.354670 0.459321 71 43 122
0.617927 -0.302435 0.474367 68 1 84
-0.500043 -0.287160 -0.046153 60 77 138
0.477508 0.398467 0.394134 68 1 84
-0.465036 -0.044843 -0.106697 69 52 127
-0.290661 0.384861 -0.123108 68 1 84
0.591291 -0.391014 0.231750 54 91 140
-0.526506 0.335499 0.437650 68 1 84
0.051010 -0.404561 -0.286194 68 55 129
0.513874 0.003024 -0.024259 71 43 122
-0.020812 0.035839 -0.341893 69 5 88
-0.181491 -0.453840 -0.204111 68 1 84
0.506904 0.043056 -0.017536 72 29 111
0.161429 0.652942 -0.129682 72 33 114
-0.230944 0.531267 -0.137568 68 1 84
-0.314217 -0.183657 -0.167357 58 83 139
-0.293011 0.614689 0.044663 68 1 84
-0.524393 0.051611 0.009616 68 1 84
-0.467021 -0.054847 -0.107888 56 86 139
0.283525 0.200559 -0.184082 119 208 82
-0.539980 0.312819 0.289722 68 1 84
0.314968 0.241300 -0.151486 50 181 122
-0.423179 -0.289307 -0.114185 60 78 138
0.389235 0.497932 0.088473 68 1 84
-0.499445 0.253342 0.097350 68 1 84
-0.453665 -0.247772 -0.105510 66 62 133
-0.594715 -0.376813 0.129100 58 82 139
-0.585093 -0.093922 0.057087 68 1 84
0.628564 -0.255308 0.377956 72 34 115
-0.526364 0.332314 0.454903 68 1 84
0.094293 -0.389559 -0.237028 68 1 84
0.507718 0.354848 0.260406 68 1 84
0.575621 -0.424657 0.198852 34 137 141
0.601501 -0.431684 0.322213 62 73 137
0.579370 0.035129 0.186119 68 1 84
-0.663786 -0.110278 0.353868 68 1 84
-0.078161 0.101301 -0.287028 49 101 141
-0.048953 0.077519 -0.310324 33 142 140
0.578568 0.107903 0.470017 68 1 84
0.185321 -0.368261 -0.132233 30 160 135
0.628377 -0.248085 0.354843 72 25 107
-0.131003 -0.213242 -0.226628 32 144 140
-0.021492 0.548236 -0.257229 68 1 84
0.544795 -0.440209 0.093827 36 134 141
-0.030071 -0.110596 -0.494620 68 1 84
0.558809 0.215926 0.291775 68 1 84
0.627638 -0.556844 0.441506 35 137 141
0.484893 -0.030894 -0.073240 69 54 129
0.079940 -0.196805 -0.376979 68 1 84
-0.178981 0.337242 -0.214936 69 5 88
-0.347773 0.474242 -0.022465 68 1 84
0.609699 -0.062500 0.344958 68 1 84
-0.574851 -0.094917 0.027358 68 1 84
-0.272564 0.206055 -0.192575 54 90 140
-0.667940 -0.143325 0.328577 72 33 114
-0.682885 -0.198378 0.462194 68 1 84
0.134948 0.642504 -0.176035 66 64 133
-0.650395 -0.228037 0.231505 70 49 126
0.031861 -0.256795 -0.380297 68 1 84
-0.104015 0.676661 -0.145777 68 1 84
0.519905 0.030108 -0.002189 71 37 117
-0.595039 -0.288518 0.100162 67 58 131
0.534382 -0.216619 -0.008442 50 98 141
0.545263 0.268871 0.318885 68 1 84
-0.267512 0.423292 -0.125998 68 1 84
-0.687768 -0.323991 0.427694 71 37 117
0.600057 -0.525672 0.345394 31 148 139
-0.176655 0.645414 -0.132455 68 1 84
-0.173621 -0.489547 -0.230923 71 18 101
0.094735 -0.397129 -0.236147 68 1 84
-0.072332 0.665839 -0.186983 71 39 119
0.613020 -0.218483 0.537370 68 1 84
-0.607252 -0.194166 0.114726 68 1 84
0.403002 -0.560051 -0.165241 69 191 111
0.570266 0.179608 0.342671 68 1 84
-0.016552 0.011183 -0.366396 69 52 127
-0.264797 -0.499153 -0.221835 71 40 120
-0.065892 -0.373433 -0.231610 68 55 129
-0.430224 0.489596 0.297876 68 1 84
-0.348738 -0.246431 -0.157086 60 77 138
-0.061583 0.560879 -0.252768 68 1 84
-0.184397 0.400374 -0.198937 71 21 103
0.139949 0.674518 -0.100065 72 29 111
0.611873 -0.187447 0.229785 71 40 120
0.591307 0.033654 0.284777 68 1 84
-0.622321 -0.337026 0.187839 72 30 112
0.027893 -0.232716 -0.396972 68 1 84
0.093000 -0.146153 -0.425384 68 1 84
-0.561587 0.166359 0.200667 68 1 84
0.331717 0.474857 -0.017223 68 1 84
0.555791 0.130039 0.171556 68 1 84
-0.664236 -0.144661 0.299426 72 35 116
-0.015516 0.546667 -0.257639 71 15 98
0.546281 0.242962 0.257695 68 1 84
0.466117 0.434818 0.247823 68 1 84
0.539425 0.037447 0.040089 70 47 124
-0.383942 0.205702 -0.092002 68 1 84
-0.638879 -0.009279 0.417691 68 1 84
0.029289 0.480130 -0.238509 68 1 84
-0.490780 -0.440552 -0.077773 68 1 84
0.481792 0.369650 0.462850 68 1 84
0.623169 -0.233284 0.443723 68 1 84
-0.407870 0.524798 0.242573 68 1 84
0.455569 -0.104944 -0.108790 42 118 142
0.109341 0.088256 -0.288945 33 166 133
0.588326 -0.183194 0.118674 71 39 119
-0.594837 0.143260 0.527827 68 1 84
-0.473681 0.377525 0.122999 68 1 84
-0.344808 0.590795 0.170553 68 1 84
0.130158 -0.273057 -0.231408 66 61 132
0.596736 -0.150848 0.151596 71 24 106
-0.513027 0.349713 0.219122 68 1 84
0.174673 -0.181025 -0.228203 50 99 141
-0.087326 0.210908 -0.309525 178 221 44
-0.180843 0.606974 -0.165716 68 1 84
0.483113 0.406359 0.285430 68 1 84
-0.230524 0.587103 -0.120030 68 1 84
0.079400 0.013271 -0.324716 39 124 142
0.604512 -0.447133 0.357715 38 127 142
-0.686107 -0.302376 0.413700 69 8 91
-0.122047 0.108858 -0.262518 112 206 86
-0.152470 0.337435 -0.236217 61 74 137
-0.468912 -0.045253 -0.104007 69 53 128
-0.426084 0.501408 0.259831 68 1 84
-0.149053 0.408068 -0.217985 68 1 84
-0.623401 -0.177938 0.170216 68 1 84
0.584113 -0.443968 0.243040 52 95 141
-0.400963 -0.601976 -0.193873 56 86 139
-0.304471 -0.433416 -0.221174 68 1 84
0.110362 -0.300435 -0.246770 68 3 87
0.510238 -0.488269 -0.025841 39 124 142
0.567747 -0.153370 0.044390 61 75 137
0.560862 0.191861 0.263655 68 1 84
-0.645172 -0.544773 0.300674 43 115 142
0.597705 0.031382 0.414667 68 1 84
-0.243878 -0.240471 -0.174777 41 121 142
-0.217404 0.632471 -0.089513 68 1 84
-0.423867 -0.546423 -0.179471 71 22 105
0.031373 0.684236 -0.145329 47 106 141
0.216884 -0.386458 -0.127556 69 191 111
-0.560409 -0.485870 0.085448 40 123 142
-0.301571 -0.406343 -0.165469 70 45 124
0.340358 0.579483 0.108742 68 1 84
-0.506983 0.375037 0.397738 68 1 84
0.598293 -0.459820 0.323250 49 101 141
-0.646323 -0.221167 0.222516 67 58 131
0.492330 0.383104 0.368734 68 1 84
0.262341 0.074151 -0.189753 30 158 136
-0.492394 0.298614 0.110574 68 1 84
0.245683 0.594621 -0.063714 68 1 84
0.406405 -0.028264 -0.130065 43 116 142
0.033960 -0.283678 -0.364558 68 1 84
0.313391 0.140966 -0.167756 44 113 142
-0.261765 -0.212034 -0.171417 72 33 114
0.022530 -0.551836 -0.286380 60 78 138
-0.564431 -0.127674 -0.002674 68 1 84
-0.290983 0.425510 -0.104956 68 1 84
0.297413 0.510236 -0.041894 68 1 84
0.605948 -0.029100 0.373603 68 1 84
-0.100832 -0.441086 -0.218354 71 22 105
-0.288477 0.427826 -0.106365 68 1 84
0.012922 -0.282359 -0.368436 68 1 84
-0.149372 -0.286412 -0.179278 31 162 134
0.404195 -0.602590 -0.162617 139 213 70
0.139264 -0.119529 -0.333673 71 17 99
-0.506288 -0.343918 -0.025939 72 30 112
0.164993 -0.156629 -0.253115 46 109 142
-0.268312 -0.148935 -0.170710 47 106 141
-0.475541 -0.245051 -0.088991 47 106 141
-0.403647 -0.329955 -0.124485 69 50 127
0.493459 0.365718 0.198408 68 1 84
0.242697 0.481647 -0.117747 41 120 142
0.608258 -0.116294 0.253751 68 1 84
0.222826 -0.181365 -0.181270 81 196 104
-0.510417 0.270704 0.132739 68 1 84
0.502256 0.364536 0.374449 68 1 84
0.480909 -0.301370 -0.039236 54 91 140
0.084472 0.009715 -0.319455 30 153 138
0.209354 0.048366 -0.207329 30 153 138
-0.291847 0.434506 -0.100655 68 1 84
0.407594 0.298237 -0.037032 66 64 133
-0.445712 0.469728 0.303718 68 1 84
0.599838 -0.425397 0.300366 55 89 140
-0.160257 0.662922 -0.117521 68 1 84
0.483183 0.295750 0.094761 68 1 84
0.379819 0.177143 -0.115769 42 117 142
-0.267068 0.427830 -0.124635 68 1 84
-0.249159 0.637594 0.000439 68 1 84
-0.568928 0.253797 0.403167 68 1 84
0.466852 -0.159386 -0.101448 54 91 140
0.184869 -0.051472 -0.256073 54 90 140
-0.597856 -0.293456 0.108251 72 30 112
0.492316 0.369468 0.409696 68 1 84
-0.660857 -0.349857 0.303136 68 1 84
-0.240688 -0.036961 -0.190114 46 178 124
-0.571173 -0.495763 0.112750 50 98 141
-0.141655 0.235507 -0.273512 75 194 108
-0.008995 0.619920 -0.237130 53 92 140
0.621241 -0.127516 0.440353 68 1 84
0.515993 0.214755 0.119407 68 1 84
-0.233949 0.612915 -0.091648 68 1 84
0.149695 0.669360 -0.102750 71 37 117
0.158834 0.553065 -0.192259 72 34 115
0.158775 0.305199 -0.228303 39 125 142
-0.569974 0.105597 0.184618 68 1 84
-0.349087 -0.508017 -0.212504 69 8 91
-0.576999 -0.021224 0.085445 68 1 84
0.340321 -0.176396 -0.148750 37 131 141
0.166846 -0.178757 -0.240077 71 44 123
-0.488551 0.256953 0.078020 68 1 84
0.625694 -0.164066 0.348742 68 1 84
-0.594614 -0.062653 0.125962 68 1 84
-0.215072 0.052739 -0.201078 30 155 137
0.320250 0.096908 -0.165525 40 123 142
0.593606 0.055282 0.520764 68 1 84
0.526109 0.315495 0.383985 68 1 84
-0.389420 0.399854 -0.007993 68 1 84
-0.552180 -0.104888 -0.023662 70 9 92
0.475467 -0.098057 -0.093412 59 80 138
-0.198523 0.582611 -0.159833 68 1 84
0.057194 -0.204791 -0.399465 68 1 84
0.197106 -0.223697 -0.179605 46 109 142
-0.617281 -0.271891 0.154715 72 25 107
0.551739 0.219884 0.438674 68 1 84
0.120363 -0.031016 -0.437183 68 1 84
-0.501615 0.223021 0.085991 68 1 84
0.174790 0.010924 -0.313218 55 88 140
-0.317506 0.340929 -0.121211 68 1 84
0.231042 -0.048348 -0.204779 30 152 138
0.080038 -0.352137 -0.283070 72 28 110
0.369247 -0.076417 -0.149501 45 111 142
0.596972 0.029313 0.363291 68 1 84
0.113116 0.023891 -0.294949 39 126 142
0.131016 0.137200 -0.284955 43 177 125
-0.186230 0.365068 -0.206861 65 65 134
0.197876 -0.331825 -0.144594 30 154 137
0.100478 0.623797 -0.216659 47 105 141
0.618830 -0.344234 0.388452 60 78 138
0.122841 -0.424591 -0.196436 68 57 130
0.122827 -0.158601 -0.333074 70 14 97
-0.673410 -0.133703 0.489423 68 1 84
0.211245 0.633021 -0.076804 68 1 84
-0.278434 0.116436 -0.181822 44 114 142
-0.397606 -0.487403 -0.188780 70 14 97
0.557278 -0.529417 0.175014 30 154 137
0.536804 -0.420377 0.065699 42 119 142
0.055819 -0.334256 -0.322633 68 1 84
-0.388420 0.301660 -0.055460 68 1 84
0.436452 0.458484 0.148553 68 1 84
-0.613080 0.019647 0.309233 68 1 84
-0.144649 0.203769 -0.275706 33 167 132
-0.266583 0.163971 -0.194976 49 102 141
-0.148216 0.148434 -0.262831 62 188 115
-0.395050 0.544442 0.183936 68 1 84
0.615808 -0.271555 0.503600 68 1 84
0.204000 0.420207 -0.167297 30 151 138
0.098623 0.603958 -0.227022 68 1 84
-0.370753 -0.130484 -0.159929 49 101 141
-0.648552 -0.334514 0.251786 68 1 84
-0.348674 -0.442590 -0.215811 68 1 84
0.584396 -0.267613 0.142351 48 103 141
-0.620588 0.072447 0.509207 68 1 84
-0.144939 0.667617 -0.125950 68 1 84
0.350087 0.581148 0.176525 68 1 84
-0.547537 0.288246 0.474322 68 1 84
0.618376 -0.352426 0.380542 55 89 140
0.055335 0.540729 -0.250194 68 1 84
-0.029940 -0.377328 -0.290055 72 35 116
0.344300 0.091880 -0.152567 42 118 142
0.194014 -0.338472 -0.140469 35 168 131
0.605591 0.029267 0.504586 68 1 84
0.392844 0.137232 -0.114950 61 74 137
-0.003797 -0.511891 -0.283691 72 29 111
-0.564851 0.105093 0.164028 68 1 84
0.508133 -0.568734 -0.018871 116 208 84
0.307938 0.540182 -0.006636 68 1 84
0.526373 -0.263454 0.005096 50 98 141
-0.554281 -0.091244 -0.017423 72 34 115
-0.620668 -0.093731 0.231514 70 14 97
-0.359502 0.109450 -0.129843 72 33 114
0.340651 0.411507 -0.047203 64 67 135
0.350821 -0.519594 -0.187081 31 146 140
0.623239 -0.211663 0.296499 68 1 84
-0.540668 0.312068 0.292906 68 1 84
0.117327 -0.343930 -0.191566 47 106 141
-0.395094 0.306286 -0.044209 68 1 84
-0.557747 0.100875 0.137048 68 1 84
0.311654 -0.463551 -0.205053 57 84 139
0.161327 0.478976 -0.185665 46 108 142
0.590114 -0.045004 0.168680 70 14 97
0.596831 -0.400721 0.259139 65 65 134
0.205662 0.174736 -0.239958 157 217 58
-0.077204 -0.042742 -0.454938 68 1 84
0.260298 0.253740 -0.172973 31 163 134
0.185555 -0.017594 -0.262255 51 96 141
-0.685688 -0.243301 0.432936 68 1 84
-0.546252 0.206224 0.183017 68 1 84
0.172703 -0.147405 -0.246291 52 94 141
-0.150360 -0.362822 -0.156012 49 101 141
-0.592762 -0.260106 0.085958 68 1 84
-0.549656 -0.367627 0.034900 71 22 105
-0.398842 0.000165 -0.132433 71 39 119
0.573481 -0.558885 0.246478 31 146 140
-0.362384 0.201383 -0.115134 68 1 84
0.578513 0.009768 0.150551 68 1 84
-0.273303 0.461875 -0.108361 68 1 84
-0.455794 0.463341 0.273823 68 1 84
0.602581 -0.004443 0.413252 68 1 84
0.288713 0.551303 -0.029242 68 1 84
-0.628694 -0.538329 0.260989 44 113 142
-0.685482 -0.232642 0.443281 68 1 84
0.607476 -0.034340 0.381445 68 1 84
-0.665653 -0.122686 0.342304 68 1 84
-0.049365 -0.415891 -0.261061 68 1 84
0.524817 0.242446 0.512281 68 1 84
0.555300 -0.408781 0.121193 38 127 142
0.498401 0.151895 0.024894 66 62 133
-0.030050 0.443486 -0.233500 63 71 136
0.256708 -0.430263 -0.164502 31 148 139
-0.061887 -0.553672 -0.281246 71 21 103
0.117637 -0.121573 -0.410661 68 1 84
-0.154459 0.129823 -0.253424 62 188 115
0.180935 -0.195299 -0.211790 50 99 141
0.224255 0.072616 -0.204492 35 169 130
-0.431952 -0.416169 -0.128732 68 1 84
0.146014 0.672976 -0.094690 69 50 127
-0.375585 0.031417 -0.135395 72 34 115
-0.560173 0.183509 0.210356 68 1 84
0.009000 -0.391577 -0.301354 68 1 84
-0.018896 -0.447957 -0.280002 71 21 103
0.364149 -0.028367 -0.150948 30 152 138
-0.129567 0.619274 -0.205332 68 1 84
-0.382906 0.404306 -0.014379 68 1 84
0.088559 0.597293 -0.234031 71 15 98
0.580034 -0.234106 0.112365 66 62 133
-0.175738 -0.289477 -0.175326 53 93 140
0.224418 0.648847 0.017235 68 1 84
-0.673052 -0.541931 0.370496 64 67 135
-0.692491 -0.407761 0.455320 71 42 121
-0.686855 -0.471010 0.414094 71 42 121
0.224442 -0.293113 -0.154707 30 153 138
0.122104 -0.510130 -0.251378 30 160 135
0.243690 0.320313 -0.149066 32 143 140
0.198853 -0.057366 -0.224702 50 99 141
-0.436275 -0.467304 -0.154753 68 1 84
-0.089234 -0.496040 -0.260320 67 59 131
0.138584 0.580066 -0.206468 71 20 102
0.459654 -0.519571 -0.116018 31 147 139
-0.207167 0.156232 -0.230266 40 122 142
0.596348 0.041838 0.390812 68 1 84
-0.427017 0.496360 0.148219 68 1 84
0.520146 0.261771 0.171634 68 1 84
-0.127660 0.030899 -0.265471 33 141 140
0.589692 -0.311182 0.179018 35 137 141
-0.410933 0.280650 -0.033462 68 1 84
0.193084 0.262345 -0.199696 33 140 141
-0.403437 0.109708 -0.098947 70 14 97
0.016607 -0.272134 -0.374922 68 1 84
0.581272 0.120854 0.393137 68 1 84
-0.678781 -0.548638 0.387757 71 39 119
0.208020 -0.034805 -0.214253 30 153 138
0.142586 0.330099 -0.248067 38 129 142
0.227937 0.007577 -0.201349 31 146 140
0.498495 0.378039 0.332357 68 1 84
0.544835 -0.379990 0.085600 63 69 135
-0.145492 0.105200 -0.249078 39 173 128
0.622850 -0.168467 0.324020 68 1 84
-0.022656 -0.307945 -0.337335 68 1 84
-0.616881 -0.372965 0.184769 72 34 115
0.077348 -0.009000 -0.441852 68 1 84
-0.629505 -0.450543 0.246420 65 66 134
-0.022469 -0.538624 -0.283710 59 81 138
-0.105779 0.052206 -0.263546 37 130 142
0.318855 0.034758 -0.169050 34 137 141
0.483392 -0.390620 -0.031199 63 69 135
0.144162 -0.283709 -0.197355 58 83 139
-0.282620 0.593991 -0.026152 68 1 84
-0.175700 0.663992 -0.082576 68 1 84
-0.619579 -0.174094 0.158879 68 1 84
0.281641 0.574676 -0.017686 68 1 84
-0.682689 -0.310669 0.384482 71 21 103
0.084055 -0.278285 -0.317090 68 1 84
-0.102683 0.357536 -0.268187 33 166 133
0.509762 0.356209 0.292147 68 1 84
-0.667643 -0.267270 0.284288 71 44 123
-0.243568 0.420749 -0.147864 68 1 84
0.050589 0.145050 -0.320873 59 186 117
0.456835 -0.351735 -0.049462 61 75 137
-0.416779 -0.586515 -0.181676 52 95 141
0.587199 -0.214970 0.126290 71 20 102
-0.375571 0.273483 -0.082898 68 1 84
-0.554046 0.277704 0.463259 68 1 84
-0.661557 -0.080598 0.483508 68 1 84
0.164815 -0.087738 -0.296672 65 65 134
0.511423 -0.204721 -0.046886 51 97 141
0.528351 -0.130459 -0.036591 67 60 132
-0.288921 0.395691 -0.119379 68 1 84
0.366183 -0.454330 -0.197081 72 28 110
0.123789 -0.000524 -0.309564 39 124 142
0.465633 -0.471814 -0.103917 30 153 138
-0.433703 0.361019 0.040232 68 1 84
0.614833 -0.390708 0.417062 64 67 135
-0.649862 -0.351507 0.262737 68 1 84
-0.587577 0.102402 0.255683 68 1 84
-0.432789 -0.570666 -0.168333 43 115 142
-0.387766 0.550511 0.216223 68 1 84
-0.477992 0.253357 0.057772 68 1 84
-0.479286 0.374218 0.134319 68 1 84
0.256672 0.594680 -0.041073 68 1 84
-0.282648 -0.378603 -0.161097 65 66 134
-0.372265 0.253303 -0.093072 68 1 84
0.003772 0.024895 -0.396315 44 113 142
-0.173741 -0.256222 -0.179883 42 176 126
-0.644369 -0.017451 0.473657 68 1 84
-0.074837 -0.156169 -0.399070 68 1 84
0.640307 -0.524842 0.482461 38 127 142
0.503404 0.368015 0.345973 68 1 84
0.613268 -0.228110 0.533798 68 1 84
0.109424 0.618607 -0.214278 65 66 134
0.071008 0.190474 -0.329013 228 227 24
0.502644 0.217322 0.083149 68 1 84
0.619529 -0.505849 0.424345 47 106 141
-0.611515 0.021455 0.305337 68 1 84
0.493147 0.005194 -0.051826 71 38 118
-0.087524 -0.558909 -0.280829 63 71 136
-0.043408 -0.021639 -0.466534 68 1 84
0.178210 0.115955 -0.242278 31 162 134
0.581823 -0.202951 0.102436 65 66 134
0.410817 0.218469 -0.072946 46 107 142
-0.697583 -0.502931 0.473296 70 49 126
0.437201 0.481038 0.223420 68 1 84
-0.181781 0.062479 -0.215395 30 153 138
-0.364062 -0.037269 -0.152844 53 92 140
-0.474954 0.419610 0.397956 68 1 84
0.468650 -0.318782 -0.045685 63 69 135
0.588439 0.038340 0.559272 68 1 84
0.210163 0.073184 -0.211022 62 188 115
0.566979 -0.029647 0.072781 57 85 139
0.142198 -0.006667 -0.341644 44 112 142
-0.392351 0.431660 0.014329 68 1 84
-0.313850 0.355340 -0.117601 68 1 84
-0.657205 -0.088664 0.324003 72 29 111
-0.607560 -0.159919 0.118460 68 1 84
0.116345 -0.015252 -0.405165 72 33 114
-0.412814 -0.478673 -0.176184 71 15 98
-0.173340 0.153808 -0.249917 30 152 138
-0.533830 0.319034 0.455715 68 1 84
-0.505077 -0.470136 -0.051938 66 64 133
0.612001 -0.184295 0.544821 68 1 84
0.546127 0.206453 0.489394 68 1 84
0.608890 0.011218 0.488637 68 1 84
0.371467 -0.051603 -0.148416 31 146 140
-0.496304 0.387571 0.415852 68 1 84
0.390921 -0.191822 -0.134944 43 115 142
-0.005997 0.287440 -0.275206 48 180 122
-0.585115 0.072161 0.221643 68 1 84
0.115525 0.406569 -0.231025 40 123 142
0.620564 -0.218609 0.277236 71 38 118
-0.256193 0.496982 -0.117006 68 1 84
-0.569894 -0.215746 0.022777 68 1 84
0.183346 -0.101182 -0.242649 47 106 141
0.091472 -0.072004 -0.485707 68 1 84
-0.239908 -0.055743 -0.189971 50 181 122
0.110881 0.048250 -0.290181 32 145 140
-0.607480 -0.514390 0.204759 53 93 140
0.402172 -0.056151 -0.135065 33 142 140
0.441357 -0.420301 -0.097843 36 134 141
0.378311 0.551527 0.239781 68 1 84
-0.541528 0.303752 0.278187 68 1 84
-0.072833 -0.070100 -0.470335 68 1 84
0.402414 0.316368 -0.034204 70 47 124
-0.310641 0.611332 0.097815 68 1 84
0.242137 0.636621 0.013333 68 1 84
0.382922 0.543551 0.147139 68 1 84
0.155822 -0.313947 -0.169129 49 100 141
0.403580 0.132214 -0.107263 53 93 140
-0.595418 0.022441 0.230072 68 1 84
0.157474 -0.077330 -0.350076 68 1 84
-0.611477 -0.199457 0.128583 68 1 84
0.524386 0.153909 0.086726 68 1 84
-0.479306 -0.564486 -0.103334 53 92 140
0.555715 -0.016892 0.047357 63 69 135
-0.183997 0.562907 -0.178074 68 1 84
0.470215 0.401553 0.417585 68 1 84
0.537551 0.149473 0.121423 68 1 84
-0.248855 -0.432115 -0.203193 68 1 84
-0.062764 0.500874 -0.239940 71 42 121
-0.313831 -0.333133 -0.167591 71 24 106
0.429809 0.488872 0.195235 68 1 84
-0.073641 -0.180990 -0.359638 61 75 137
-0.537052 0.076312 0.058125 68 1 84
-0.090733 0.671937 -0.167643 68 1 84
0.316178 0.544162 0.009448 68 1 84
-0.126705 0.085261 -0.248674 31 146 140
-0.597985 -0.260831 0.098650 68 1 84
-0.422360 0.492492 0.120023 68 1 84
0.406797 0.497452 0.125712 68 1 84
0.513045 -0.063924 -0.048228 56 86 139
-0.058514 -0.433305 -0.254507 68 1 84
-0.610989 -0.535220 0.212599 52 95 141
-0.127604 -0.058813 -0.340222 68 1 84
0.557353 0.095666 0.142612 68 1 84
0.072528 -0.034936 -0.488802 68 1 84
-0.043210 0.387570 -0.270741 134 212 73
0.318943 0.571866 0.044625 68 1 84
0.480467 -0.221994 -0.075086 43 115 142
-0.640489 -0.385885 0.247371 70 14 97
-0.164533 0.599550 -0.185542 68 1 84
-0.649192 -0.344814 0.258133 68 1 84
0.496438 -0.467180 -0.057600 42 117 142
0.615092 -0.266409 0.511800 68 1 84
-0.652441 -0.360584 0.274521 71 15 98
0.051273 0.090293 -0.323581 37 171 129
0.569403 -0.512458 0.221860 36 134 141
0.210422 0.259701 -0.187255 31 162 134
-0.352857 -0.224564 -0.159218 62 72 136
-0.663062 -0.098570 0.390387 68 1 84
-0.381831 0.557825 0.153130 68 1 84
-0.308588 -0.030214 -0.168065 43 115 142
0.234476 0.043096 -0.197198 30 159 136
0.566321 -0.054634 0.057153 60 78 138
0.022543 -0.003481 -0.475687 68 1 84
0.044088 -0.033070 -0.501104 68 1 84
0.278288 0.482855 -0.078058 66 61 132
0.630296 -0.201092 0.400775 68 1 84
0.605147 -0.095229 0.250620 68 1 84
-0.500408 0.160164 0.043655 68 1 84
-0.694243 -0.472128 0.450148 65 65 134
0.340132 0.150579 -0.149654 53 93 140
0.543273 0.197852 0.191452 68 1 84
-0.281965 -0.289899 -0.174971 56 86 139
-0.590199 0.127599 0.289838 68 1 84
-0.053774 -0.304384 -0.298957 53 92 140
0.590028 -0.013115 0.214741 68 1 84
-0.468045 0.406902 0.137740 68 1 84
0.191939 0.322178 -0.199455 40 122 142
0.619990 -0.237235 0.280111 70 12 95
0.080407 0.015348 -0.323461 33 167 132
0.523356 -0.399853 0.031663 64 67 135
0.104622 -0.062667 -0.472535 68 1 84
0.528132 -0.384500 0.046796 60 78 138
-0.290643 0.491993 -0.082548 68 1 84
0.088388 -0.294757 -0.302097 68 2 85
0.301355 -0.246293 -0.150585 32 145 140
0.617598 -0.348179 0.445730 48 104 141
0.600506 0.027082 0.461424 68 1 84
0.607389 -0.110643 0.252324 68 1 84
0.077415 0.416325 -0.236803 58 82 139
0.522851 -0.377246 0.036443 52 95 141
-0.417915 -0.368724 -0.107338 71 15 98
-0.337264 0.338040 -0.104442 68 1 84
0.539113 0.173788 0.550126 68 1 84
-0.054149 0.126064 -0.312963 87 198 101
-0.668431 -0.108565 0.512141 68 1 84
-0.593629 0.165851 0.489534 68 1 84
-0.673480 -0.365046 0.353169 61 76 137
-0.005763 0.432505 -0.235935 58 82 139
-0.092280 -0.007550 -0.391955 71 21 103
-0.518283 0.361825 0.375195 68 1 84
0.518966 0.077468 0.020267 68 55 129
0.457193 0.071413 -0.068674 55 88 140
0.493741 0.375920 0.385469 68 1 84
0.600360 -0.162496 0.169689 72 28 110
0.458128 0.436182 0.343176 68 1 84
0.488321 0.092189 -0.022452 71 43 122
-0.474745 0.427629 0.339692 68 1 84
-0.685504 -0.305629 0.407673 68 1 84
-0.190021 -0.439360 -0.196471 72 28 110
0.525278 -0.119479 -0.040238 64 68 135
0.586619 0.076333 0.487953 68 1 84
-0.188451 0.262682 -0.218492 61 75 137
-0.412410 0.163142 -0.074165 68 1 84
-0.320241 0.605265 0.103383 68 1 84
-0.146479 0.267724 -0.236549 50 99 141
-0.181223 0.507367 -0.180621 68 1 84
0.441352 0.323571 0.030986 68 1 84
0.504968 0.249142 0.116991 68 1 84
0.387765 -0.353103 -0.125649 31 147 139
-0.599452 0.158196 0.419572 68 1 84
-0.377825 0.357334 -0.046014 68 1 84
0.293171 -0.547979 -0.211469 94 201 97
-0.603813 0.134893 0.374470 68 1 84
0.522352 0.329067 0.353385 68 1 84
0.621628 -0.241714 0.292342 70 12 95
0.139064 -0.009427 -0.352100 60 78 138
0.408332 0.072279 -0.113520 51 97 141
-0.051003 -0.154430 -0.441142 68 1 84
0.230689 -0.511663 -0.207310 35 135 141
-0.388723 0.337848 -0.039790 68 1 84
-0.426913 -0.071526 -0.134376 57 84 139
0.394278 0.151979 -0.110631 55 88 140
0.161064 0.057491 -0.233440 31 163 134
-0.341737 -0.449068 -0.224211 68 1 84
0.089326 -0.156809 -0.414969 68 1 84
0.011409 0.023605 -0.412394 60 78 138
0.161229 0.483359 -0.185903 46 107 142
-0.069651 0.038305 -0.297705 42 119 142
-0.024750 0.419762 -0.242329 57 85 139
0.534332 -0.371468 0.060145 61 76 137
0.197736 -0.194499 -0.193990 44 113 142
-0.507051 -0.395347 -0.036004 68 1 84
0.090254 -0.136524 -0.443128 68 1 84
0.435099 -0.156112 -0.121360 37 130 142
0.126015 -0.070848 -0.440745 68 1 84
0.360983 -0.238735 -0.136818 32 145 140
-0.301398 -0.282775 -0.170890 66 62 133
-0.213745 -0.161942 -0.183867 33 141 140
0.393981 -0.194101 -0.133606 42 117 142
-0.391858 -0.563261 -0.203598 70 47 124
0.352441 0.367278 -0.063856 70 49 126
0.495363 0.339785 0.481611 68 1 84
-0.513856 -0.359024 -0.017880 72 26 108
-0.300013 0.616918 0.083951 68 1 84
0.560500 0.148547 0.508303 68 1 84
0.175291 -0.013202 -0.343212 72 32 113
-0.444697 0.377643 0.067890 68 1 84
-0.048972 -0.093547 -0.491272 68 1 84
0.571607 0.080965 0.191215 68 1 84
0.620514 -0.268771 0.454775 68 2 85
-0.153182 -0.109749 -0.232440 34 137 141
0.176901 -0.552243 -0.251324 30 156 137
0.172284 0.019602 -0.283808 46 107 142
0.064873 -0.004431 -0.425404 68 1 84
0.530269 0.284623 0.243549 68 1 84
0.409994 0.501188 0.311081 68 1 84
-0.649998 -0.220432 0.231677 57 84 139
-0.365820 0.055929 -0.134529 71 18 101
-0.135182 0.018732 -0.256658 32 143 140
-0.690816 -0.256003 0.504931 68 1 84
0.053672 0.324871 -0.286730 202 224 30
0.103928 -0.042742 -0.465011 68 1 84
-0.200584 0.253012 -0.222719 58 82 139
0.069647 0.298987 -0.273415 131 211 75
-0.125925 -0.079501 -0.308242 71 21 103
-0.256288 0.483306 -0.119909 68 1 84
0.602572 -0.570493 0.360398 42 117 142
0.615141 -0.152818 0.502584 68 1 84
0.383691 -0.046674 -0.143038 30 152 138
0.557589 -0.247184 0.057563 46 109 142
0.300094 0.172863 -0.176225 30 155 137
0.139440 -0.104735 -0.361920 68 1 84
-0.576720 -0.423255 0.100309 57 84 139
-0.655483 -0.349852 0.282690 71 20 102
-0.021962 0.218993 -0.329141 253 231 36
0.518774 -0.460400 0.005144 44 113 142
0.336969 -0.292854 -0.142420 34 137 141
0.401092 -0.312717 -0.119220 49 102 141
0.118010 0.133689 -0.293457 37 171 129
0.009557 0.324264 -0.290923 183 221 41
0.468276 0.332106 0.089716 68 1 84
0.502009 -0.314463 -0.002309 70 49 126
-0.631886 0.010885 0.400675 68 1 84
0.436124 -0.396157 -0.077296 43 116 142
0.504424 0.268256 0.130497 68 1 84
0.187700 0.609069 -0.144542 34 137 141
-0.103548 0.256941 -0.269743 42 176 126
-0.232899 0.231095 -0.215256 55 88 140
0.536524 -0.312349 0.053504 46 107 142
-0.159005 0.500386 -0.195546 68 1 84
-0.515242 0.276395 0.149014 68 1 84
-0.137199 0.463263 -0.205698 68 1 84
0.188742 -0.078812 -0.237656 44 113 142
0.426076 0.345278 0.022188 68 1 84
-0.286176 0.259562 -0.174446 59 81 138
0.244454 -0.328356 -0.147310 51 182 121
-0.562737 -0.028683 0.028198 68 1 84
-0.022513 -0.137912 -0.476304 68 1 84
0.282541 0.108690 -0.183894 30 159 136
-0.456523 -0.455287 -0.131336 69 5 88
-0.592558 -0.135405 0.069999 68 1 84
-0.315448 -0.108278 -0.167134 45 111 142
0.392836 0.506931 0.106445 68 1 84
-0.384578 0.250586 -0.078588 68 1 84
-0.066402 -0.291773 -0.282993 61 75 137
-0.395452 -0.275155 -0.134668 72 25 107
-0.687069 -0.285976 0.428272 68 1 84
-0.521975 -0.395127 -0.009383 68 1 84
0.291937 -0.319751 -0.147982 32 164 133
0.596281 -0.081422 0.176640 68 1 84
0.314878 -0.140485 -0.159823 38 172 129
-0.603027 -0.248183 0.109331 68 1 84
-0.617329 -0.255965 0.152288 68 1 84
-0.605495 -0.002240 0.264060 68 1 84
0.125411 0.065528 -0.267645 32 164 133
-0.541369 -0.551120 0.052858 47 105 141
-0.634315 -0.219882 0.195540 68 1 84
0.540225 -0.449187 0.080131 38 129 142
-0.618598 -0.047823 0.264530 68 1 84
-0.030659 0.030359 -0.331921 70 14 97
-0.526498 -0.401379 -0.002196 68 1 84
0.223997 0.020562 -0.201602 30 155 137
-0.361426 -0.413884 -0.195860 68 1 84
-0.420569 0.496987 0.121930 68 1 84
-0.254642 -0.031692 -0.185126 38 128 142
-0.552318 0.258221 0.255126 68 1 84
-0.679608 -0.170527 0.470387 68 1 84
0.538465 -0.560823 0.105010 71 192 110
0.000259 0.134041 -0.323676 59 186 117
0.202318 -0.210031 -0.182282 30 152 138
-0.684108 -0.198053 0.495449 68 1 84
0.561320 -0.552587 0.195897 33 167 132
0.622024 -0.173108 0.311343 68 1 84
-0.002917 0.668414 -0.185887 50 98 141
0.306799 0.161936 -0.172030 38 129 142
-0.455348 -0.472250 -0.139277 68 3 87
0.615865 -0.180105 0.256033 70 14 97
-0.165674 0.131237 -0.247705 119 208 82
-0.338861 0.317381 -0.112193 68 2 85
0.201904 -0.243505 -0.169350 49 102 141
-0.319084 -0.303251 -0.170546 60 78 138
0.104218 -0.349217 -0.215215 70 45 124
-0.682192 -0.200437 0.425810 68 1 84
-0.624032 -0.261358 0.172850 70 9 92
-0.598697 -0.155390 0.087141 68 1 84
0.496459 -0.282285 -0.029770 41 121 142
0.400368 -0.130105 -0.137588 44 114 142
-0.599796 0.147984 0.478701 68 1 84
-0.365137 -0.262353 -0.150006 65 65 134
0.436868 0.479454 0.267297 68 1 84
0.411984 -0.008272 -0.124343 44 113 142
0.353163 -0.595975 -0.200870 66 190 113
-0.332654 0.446084 -0.054406 68 1 84
0.363079 -0.223282 -0.138823 38 127 142
0.577128 0.050269 0.188059 68 1 84
-0.565390 -0.424708 0.075779 58 82 139
0.426604 -0.238033 -0.109683 42 117 142
-0.291809 -0.185849 -0.168617 61 74 137
0.154198 -0.165862 -0.265069 68 55 129
-0.252506 -0.532901 -0.242592 68 1 84
-0.525311 0.293991 0.192019 68 1 84
-0.138585 0.432319 -0.212708 68 1 84
0.622061 -0.214842 0.453671 68 1 84
-0.669409 -0.320348 0.320523 72 33 114
-0.147799 0.589800 -0.203096 68 1 84
0.078060 -0.116548 -0.476596 68 1 84
0.506214 -0.348341 0.011479 63 69 135
0.112338 0.144813 -0.302044 30 153 138
-0.615856 -0.487855 0.220150 52 95 141
-0.095970 -0.024430 -0.416218 71 17 99
-0.260769 0.086393 -0.187511 36 132 141
-0.498872 -0.362374 -0.037880 68 1 84
-0.423511 -0.341628 -0.102723 72 26 108
0.345273 0.584077 0.153333 68 1 84
0.287592 -0.513059 -0.197054 30 155 137
-0.215703 0.542005 -0.151661 68 1 84
0.195062 -0.001251 -0.216128 31 162 134
-0.639196 -0.188956 0.212264 69 6 90
-0.365547 -0.474845 -0.207003 68 1 84
0.037905 -0.216095 -0.404713 68 1 84
-0.525075 0.190127 0.113223 68 1 84
0.320192 0.066115 -0.167040 44 114 142
-0.587725 0.165087 0.325319 68 1 84
-0.546489 0.017399 0.024891 68 1 84
-0.508542 -0.412637 -0.037455 68 1 84
0.094065 -0.350171 -0.249365 72 32 113
0.073104 0.045886 -0.327169 30 155 137
0.442386 -0.172436 -0.115723 42 117 142
0.553437 -0.072263 0.017094 67 58 131
0.573093 0.122067 0.486285 68 1 84
0.512154 -0.371565 0.015933 60 77 138
