ply
format ascii 1.0
element vertex 1261
property float x
property float y
property float z
property uchar red
property uchar green
property uchar blue
end_header
0.550360 -0.447172 0.061453 32 145 140
0.047671 0.635214 -0.163845 68 1 84
0.182893 0.163722 -0.239002 46 107 142
-0.388659 0.428757 0.213343 68 1 84
-0.246366 -0.121975 -0.186102 68 1 84
-0.404066 0.393592 0.159895 68 1 84
-0.646982 -0.374071 0.289745 96 201 96
0.324332 0.140213 -0.111132 51 96 141
-0.134667 -0.064190 -0.238554 70 12 95
0.241187 0.552184 -0.082586 68 1 84
0.105546 -0.027841 -0.394160 68 1 84
-0.079670 -0.033853 -0.446702 68 1 84
-0.581220 -0.126064 0.145393 71 40 120
-0.044446 0.286398 -0.253399 40 123 142
0.558969 -0.002343 0.195941 63 69 135
-0.196247 0.280659 -0.158112 68 57 130
0.485823 -0.113752 -0.010529 50 99 141
-0.566847 -0.096982 0.122883 66 64 133
-0.117788 0.383768 -0.227321 71 44 123
0.527573 0.227358 0.347038 68 1 84
0.175772 -0.465123 -0.325223 71 24 106
0.127285 0.370375 -0.228838 52 95 141
-0.361197 0.461245 0.284660 68 1 84
0.569277 0.021218 0.540890 67 60 132
-0.081116 -0.164147 -0.327092 68 1 84
-0.599271 -0.238802 0.149597 35 136 141
-0.480574 0.223532 0.135148 68 1 84
0.570977 -0.556760 0.103320 53 92 140
-0.638023 -0.391340 0.242098 33 166 133
0.500706 -0.517775 -0.080288 71 37 117
-0.505267 -0.485493 -0.094642 63 71 136
-0.112472 0.537269 -0.178368 68 1 84
-0.586833 -0.044056 0.200781 65 66 134
-0.595803 -0.028332 0.259248 68 57 130
0.049154 0.113487 -0.325837 57 185 118
-0.229648 -0.448841 -0.275842 68 1 84
0.579748 0.020783 0.480465 70 49 126
0.359827 0.484967 0.243821 68 1 84
0.387802 0.264157 -0.020493 65 66 134
0.048791 0.459115 -0.221924 68 1 84
0.470560 -0.448725 -0.120442 64 68 135
0.211063 0.166813 -0.220139 51 96 141
0.581368 0.034201 0.396474 68 1 84
-0.628877 -0.286716 0.414105 30 157 136
-0.208974 0.100980 -0.183847 45 111 142
0.100726 0.600280 -0.173809 68 1 84
0.364662 0.395264 0.020350 68 1 84
0.396072 -0.187284 -0.104189 68 2 85
-0.605673 -0.152359 0.205856 42 117 142
0.604533 -0.328169 0.439785 31 147 139
0.685578 -0.519202 0.278321 43 116 142
0.598420 -0.162533 0.252480 35 169 130
0.355447 0.488601 0.248585 68 1 84
0.287422 -0.104129 -0.155404 68 1 84
-0.290978 -0.478078 -0.304512 68 1 84
-0.570362 -0.208276 0.091001 49 100 141
-0.115674 0.044042 -0.329618 49 101 141
-0.045046 0.127097 -0.334221 45 111 142
-0.544556 0.114674 0.207705 68 1 84
0.089437 -0.255994 -0.274001 68 1 84
-0.337674 -0.371136 -0.186219 68 1 84
-0.523314 0.135740 0.163391 72 28 110
0.083043 -0.281623 -0.273652 68 1 84
-0.626911 -0.248236 0.410853 66 190 113
0.558435 0.132355 0.334649 68 1 84
-0.194516 -0.098662 -0.203855 68 1 84
-0.497595 -0.342599 -0.038299 39 125 142
-0.409662 0.337151 0.087299 68 1 84
-0.576583 -0.171689 0.117808 67 58 131
-0.254731 0.564854 -0.033054 68 1 84
-0.523985 0.209712 0.296829 68 1 84
-0.289774 -0.362098 -0.190232 72 35 116
0.182054 -0.329780 -0.172110 68 1 84
-0.598214 -0.107217 0.201563 62 72 136
0.711439 -0.442495 0.394599 30 157 136
0.078268 0.250598 -0.251397 59 186 117
0.395183 0.428949 0.145010 68 1 84
-0.094888 -0.062395 -0.345967 68 1 84
0.474633 0.231146 0.110719 71 40 120
0.607638 -0.190516 0.457889 41 121 142
0.515989 0.252974 0.350583 68 1 84
0.373997 -0.184207 -0.117776 68 1 84
0.325586 -0.425488 -0.199927 48 104 141
-0.463883 0.178075 0.056247 68 1 84
0.346743 -0.075443 -0.128109 62 73 137
-0.197006 0.560282 -0.110689 68 1 84
-0.331732 0.135266 -0.113560 68 1 84
0.483686 0.299382 0.220201 68 1 84
0.128205 -0.205386 -0.244452 71 15 98
-0.234272 0.607893 -0.028066 68 1 84
0.208823 0.222443 -0.205517 50 181 122
0.194330 -0.472640 -0.322753 68 1 84
-0.453009 -0.191873 -0.082751 71 43 122
-0.295852 0.542179 0.171914 68 1 84
-0.416772 0.393879 0.313629 68 1 84
0.050570 0.399931 -0.234715 35 136 141
-0.305489 -0.012269 -0.158270 72 35 116
-0.369749 -0.147180 -0.140807 69 52 127
0.480216 0.287602 0.184577 68 1 84
-0.234375 0.453694 -0.099197 68 1 84
0.180483 0.108698 -0.213108 52 95 141
0.564779 0.058780 0.516586 68 1 84
-0.637827 -0.312343 0.257615 103 204 92
0.065930 -0.077375 -0.431346 68 1 84
0.604399 -0.137229 0.454507 38 128 142
-0.572329 0.122340 0.410679 66 61 132
-0.429686 0.367849 0.401305 68 1 84
-0.379771 0.404771 0.101653 68 1 84
-0.220537 -0.428923 -0.238329 68 1 84
-0.011281 0.676550 -0.105378 68 1 84
0.307062 0.074147 -0.131049 71 39 119
0.508661 0.239655 0.467234 68 1 84
0.337864 0.163401 -0.096880 57 84 139
0.421934 0.084022 -0.028009 71 38 118
-0.397519 -0.338859 -0.114684 60 78 138
0.108224 0.447395 -0.195188 70 9 92
0.384689 0.047707 -0.077284 61 75 137
0.607844 -0.440866 0.237484 149 215 63
0.314784 0.006910 -0.138129 69 52 127
-0.060599 -0.181718 -0.369910 68 1 84
0.561742 -0.535611 0.085205 47 106 141
0.108326 0.201479 -0.275765 41 175 127
0.363695 -0.400956 -0.169334 30 158 136
0.296767 0.589675 0.108337 68 1 84
-0.654238 -0.314274 0.368247 36 170 130
0.312056 0.545938 0.162858 68 1 84
0.502419 0.051172 0.080574 46 108 142
0.260863 -0.154573 -0.164202 70 12 95
-0.272724 -0.460743 -0.288281 68 1 84
-0.646983 -0.494280 0.302634 162 218 55
-0.263099 0.441285 -0.086883 68 1 84
-0.616409 -0.103261 0.407636 47 106 141
-0.427993 -0.385945 -0.127690 71 37 117
0.304781 -0.162470 -0.149405 68 1 84
0.071083 -0.194958 -0.345364 68 1 84
-0.475888 0.315380 0.419879 68 1 84
0.230992 -0.439713 -0.223899 58 82 139
-0.559092 0.164977 0.448816 68 1 84
0.722366 -0.565154 0.389434 43 116 142
-0.485986 -0.417395 -0.097895 67 60 132
-0.163395 -0.425503 -0.256304 68 1 84
-0.465037 -0.234010 -0.065378 72 33 114
-0.332659 0.456869 0.051093 68 1 84
-0.561222 0.150261 0.397723 68 1 84
-0.058109 -0.361386 -0.293447 68 1 84
0.038774 -0.348002 -0.321825 68 1 84
-0.629838 -0.097991 0.520532 69 191 111
-0.603632 -0.447964 0.144773 144 214 67
0.434469 0.369056 0.160534 68 1 84
0.320990 0.242165 -0.121461 65 66 134
-0.230045 0.314157 -0.141610 62 73 137
-0.162066 0.168947 -0.259735 46 107 142
0.440355 0.206493 0.034199 68 1 84
0.143811 0.218315 -0.243840 46 178 124
0.142229 -0.229185 -0.216416 72 28 110
0.581905 -0.057040 0.263570 66 64 133
-0.556805 -0.359726 0.034336 61 187 116
0.307304 0.362613 -0.098670 56 87 140
0.449040 -0.501232 -0.190979 68 1 84
-0.562097 -0.220557 0.069365 60 78 138
0.650124 -0.431650 0.325468 68 190 112
0.476367 -0.456468 -0.121123 53 93 140
-0.577525 0.109386 0.422875 70 14 97
-0.380531 0.053840 -0.097180 68 1 84
-0.125634 0.681841 -0.053291 68 1 84
-0.642406 -0.437187 0.273763 35 169 130
0.175301 0.666233 -0.015003 68 1 84
-0.577783 -0.536206 0.057814 85 198 102
-0.662673 -0.542128 0.384466 38 172 129
-0.243524 -0.025837 -0.183114 72 35 116
-0.032610 0.063098 -0.341465 58 83 139
-0.589728 0.060087 0.487908 61 75 137
-0.108789 -0.428335 -0.317391 68 1 84
0.645064 -0.442477 0.307018 105 204 91
-0.625676 -0.123506 0.510474 57 185 118
0.463564 -0.135870 -0.043873 69 52 127
-0.499968 0.266876 0.386811 68 1 84
-0.083092 0.100571 -0.296099 33 140 141
-0.513786 -0.017459 0.045555 68 57 130
-0.193410 0.650353 -0.017823 68 1 84
0.618684 -0.315490 0.373375 30 155 137
-0.248078 -0.085995 -0.184612 68 1 84
-0.118678 0.077635 -0.249793 54 90 140
0.338965 -0.522521 -0.279918 68 1 84
0.224177 0.110615 -0.180733 54 91 140
0.572648 0.069534 0.336290 68 3 87
-0.152783 -0.182139 -0.225030 68 1 84
0.672660 -0.417579 0.428358 30 155 137
-0.313783 0.521827 0.179260 68 1 84
0.527262 0.080592 0.153264 39 124 142
-0.035440 0.364494 -0.262245 52 94 141
0.617093 -0.285642 0.354948 30 158 136
-0.448493 -0.448508 -0.186984 68 1 84
0.605530 -0.168546 0.428582 32 144 140
-0.480459 -0.471318 -0.148707 69 6 90
-0.626706 -0.232098 0.413457 64 189 114
-0.550981 -0.125639 0.077563 66 62 133
-0.087357 -0.290258 -0.242379 68 1 84
0.341598 0.431305 -0.003260 70 11 94
0.241877 0.234660 -0.181230 36 132 141
0.327645 0.440276 -0.025917 72 29 111
0.107797 0.607805 -0.162648 68 1 84
-0.209598 0.043474 -0.182186 44 113 142
-0.309536 0.368359 -0.080786 68 1 84
-0.612755 -0.052683 0.394490 41 120 142
-0.391279 0.416365 0.170638 68 1 84
-0.214013 -0.073976 -0.195954 68 1 84
-0.654896 -0.419425 0.349724 207 225 28
0.467376 -0.178302 -0.043999 69 54 129
0.093075 0.412132 -0.220165 61 75 137
-0.041763 -0.215196 -0.380130 68 1 84
-0.311622 0.521190 0.122933 68 1 84
0.088508 0.303389 -0.251742 36 133 141
-0.583790 -0.192260 0.127404 63 71 136
-0.420133 0.227633 0.015284 68 1 84
0.415575 0.112584 -0.027378 71 24 106
0.495048 0.206594 0.145452 71 15 98
-0.281842 0.269948 -0.148352 68 1 84
-0.529754 -0.208023 0.010916 38 129 142
0.256977 0.605916 -0.019043 68 1 84
-0.330400 0.349247 -0.059628 68 1 84
0.504699 0.213841 0.183457 68 1 84
-0.084696 -0.376305 -0.256597 68 1 84
0.675613 -0.433725 0.341136 79 195 105
-0.599900 -0.067129 0.241615 61 75 137
0.349660 0.207702 -0.079781 52 94 141
0.554755 0.122019 0.289206 68 1 84
-0.634402 -0.259457 0.466545 32 165 133
0.312630 -0.020872 -0.142788 66 64 133
0.574011 0.059959 0.450118 70 9 92
0.366306 -0.512218 -0.260903 68 1 84
-0.592481 -0.498456 0.109870 57 185 118
-0.036002 -0.249400 -0.364660 68 1 84
-0.594122 0.031906 0.512118 43 115 142
0.495019 -0.510470 -0.103585 71 42 121
0.466711 0.346111 0.279303 68 1 84
0.397215 0.382567 0.076788 70 9 92
-0.606167 0.006600 0.449024 39 125 142
-0.305755 0.531550 0.151506 68 1 84
-0.609791 -0.032299 0.369559 50 99 141
-0.584132 0.088125 0.416467 55 88 140
0.296564 0.289984 -0.128639 37 131 141
-0.458881 0.033752 -0.021193 68 1 84
0.531914 0.173989 0.521565 68 1 84
0.358733 0.055376 -0.098220 57 85 139
0.372273 0.444903 0.096896 68 1 84
0.544491 -0.217689 0.073694 43 116 142
0.592453 -0.081528 0.334167 58 82 139
0.426268 0.042140 -0.035751 53 92 140
0.089543 0.655826 -0.127910 68 1 84
-0.240585 0.100413 -0.169575 66 61 132
0.208567 -0.447219 -0.247878 68 1 84
0.081304 0.025126 -0.382969 68 1 84
-0.474811 -0.554159 -0.161771 68 1 84
-0.137889 -0.097140 -0.242269 72 26 108
-0.378368 -0.122387 -0.132998 69 5 88
0.380760 0.388712 0.047980 70 14 97
-0.509758 0.218268 0.231638 68 1 84
0.520563 -0.376410 0.017736 40 123 142
0.131855 -0.287308 -0.199380 68 1 84
-0.281368 0.536848 0.003762 68 1 84
-0.502048 0.046947 0.052445 72 34 115
-0.628836 -0.254880 0.343765 30 153 138
-0.480151 0.044160 0.013152 68 1 84
-0.279459 0.051938 -0.160073 67 59 131
0.173073 -0.234476 -0.190591 72 34 115
0.488574 -0.367182 -0.015486 53 92 140
0.480906 -0.550658 -0.139310 68 1 84
0.420688 0.118327 -0.020001 71 42 121
-0.402393 0.222540 -0.014971 68 1 84
0.576661 0.058375 0.367554 71 24 106
-0.522641 -0.441727 -0.043359 32 144 140
-0.241723 -0.446041 -0.264957 68 1 84
-0.095044 -0.189057 -0.292282 68 1 84
0.610020 -0.277845 0.231892 36 133 141
0.322790 0.530449 0.189178 68 1 84
-0.276812 0.562754 0.149253 68 1 84
-0.367729 -0.048015 -0.127859 71 20 102
-0.484510 -0.525703 -0.141109 68 1 84
-0.550896 -0.035723 0.113771 63 69 135
-0.368924 -0.396626 -0.189829 68 1 84
0.597870 -0.481657 0.189794 83 197 103
-0.645326 -0.420295 0.295918 75 194 108
0.479847 -0.278484 -0.017899 70 48 125
-0.584809 -0.010432 0.222242 69 52 127
-0.639945 -0.356362 0.251702 43 177 125
-0.196273 -0.091830 -0.202875 68 1 84
0.211322 -0.247956 -0.173157 69 8 91
0.224421 0.417158 -0.135340 68 1 84
-0.528451 -0.326104 -0.002672 38 127 142
0.608133 -0.344854 0.212951 31 163 134
0.025417 0.315575 -0.270067 37 131 141
0.132346 0.498542 -0.175134 68 1 84
0.551105 -0.224857 0.086059 40 122 142
0.497799 -0.185115 -0.004250 62 72 136
-0.424600 0.208415 0.010814 68 1 84
0.606675 -0.189338 0.328150 31 147 139
0.309063 0.566439 0.056408 68 1 84
0.602919 -0.303522 0.457234 36 134 141
0.275748 0.427192 -0.096472 71 18 101
0.503979 0.129106 0.121350 59 81 138
-0.617216 -0.544265 0.174049 151 216 62
0.193283 -0.024241 -0.188335 71 37 117
0.446909 -0.483669 -0.182063 71 18 101
0.101505 -0.078834 -0.323304 68 1 84
0.080470 0.632531 -0.157694 68 1 84
0.456391 0.327131 0.451725 68 1 84
0.054852 0.035988 -0.457605 68 1 84
-0.620312 -0.161280 0.404647 33 167 132
0.101934 -0.419869 -0.307999 70 49 126
-0.528781 -0.292111 0.000606 52 95 141
0.607916 -0.293264 0.506671 42 118 142
0.243861 -0.420828 -0.210534 49 102 141
0.019258 0.396448 -0.237381 57 84 139
-0.405295 -0.404365 -0.169357 68 1 84
-0.080966 -0.333167 -0.239598 68 1 84
0.565343 -0.101319 0.167163 32 144 140
0.479945 -0.551116 -0.141410 68 1 84
0.115832 -0.222543 -0.252877 68 1 84
0.539680 -0.023059 0.129480 42 119 142
-0.584757 -0.035583 0.199930 65 66 134
0.484655 0.102914 0.067545 43 115 142
0.550182 0.143903 0.453363 68 1 84
-0.089001 -0.483195 -0.359126 68 1 84
0.355540 0.493970 0.192802 68 1 84
0.039759 0.237129 -0.289161 109 206 88
-0.465894 -0.252715 -0.061172 70 45 124
0.608265 -0.376691 0.219192 68 190 112
0.478422 -0.054888 -0.000293 61 74 137
0.417604 0.001741 -0.058414 62 72 136
-0.614496 -0.121402 0.293342 42 119 142
0.469927 0.245150 0.109829 70 49 126
0.527996 0.192996 0.497016 68 1 84
0.603742 -0.164525 0.329547 48 103 141
0.721358 -0.531769 0.362423 32 165 133
-0.042218 -0.353625 -0.312562 68 1 84
0.459187 -0.373235 -0.046643 70 47 124
-0.097904 -0.056980 -0.338857 68 1 84
-0.557135 0.012108 0.151956 57 84 139
-0.465083 0.332906 0.425377 68 1 84
0.593420 -0.046712 0.416326 57 85 139
-0.082249 -0.388943 -0.274958 68 1 84
-0.606183 -0.222425 0.170846 37 130 142
0.068519 0.658238 -0.131978 68 1 84
-0.099524 -0.007204 -0.413477 68 1 84
-0.158504 -0.429283 -0.271314 68 1 84
0.226596 -0.454804 -0.252604 69 54 129
-0.613707 -0.113607 0.294735 46 109 142
0.032884 0.613772 -0.184845 68 1 84
-0.685733 -0.339020 0.387012 191 223 36
0.010088 0.518878 -0.223849 68 1 84
0.416437 0.210957 0.003188 68 1 84
-0.142715 0.126260 -0.251722 194 223 34
0.159420 -0.315805 -0.179872 68 1 84
-0.404372 -0.436883 -0.208963 68 1 84
-0.509879 0.028709 0.059078 71 40 120
0.403112 0.383800 0.092264 68 1 84
0.469647 0.158463 0.062591 72 32 113
0.158803 -0.298690 -0.183436 68 1 84
0.492832 -0.071517 0.015802 60 77 138
0.542976 -0.469875 0.041861 30 156 137
0.137190 -0.387737 -0.211454 68 1 84
0.606808 -0.212262 0.406377 34 138 141
0.502714 -0.210013 0.001570 61 75 137
-0.424531 -0.255115 -0.093161 69 8 91
-0.142787 0.015024 -0.208354 54 91 140
-0.011838 0.054752 -0.447518 56 87 140
0.072691 0.033833 -0.415613 72 35 116
-0.600982 -0.036769 0.281672 63 69 135
0.007209 0.475201 -0.226940 68 1 84
0.595442 -0.103419 0.333758 61 76 137
0.594068 -0.303218 0.175795 30 157 136
-0.626682 -0.249581 0.405662 40 174 127
0.127403 -0.262738 -0.214729 68 1 84
-0.353101 -0.055735 -0.137791 71 17 99
-0.616957 -0.000122 0.543724 51 182 121
0.479751 0.267817 0.156130 71 15 98
0.412093 0.170765 -0.014648 56 87 140
-0.354549 0.475086 0.240557 68 1 84
-0.628756 -0.232416 0.432893 31 162 134
0.349255 0.169876 -0.084154 62 73 137
-0.612292 -0.143089 0.249306 39 126 142
-0.079028 -0.094906 -0.391765 68 1 84
-0.572193 -0.130951 0.123040 66 61 132
-0.627694 -0.242390 0.347051 43 177 125
0.287193 -0.279467 -0.154961 70 11 94
0.422425 -0.247320 -0.074582 71 22 105
-0.449362 0.160228 0.019848 68 1 84
0.035352 -0.186365 -0.393755 68 1 84
-0.446363 0.347439 0.246930 68 1 84
-0.061662 -0.321178 -0.287150 68 1 84
0.113823 -0.493554 -0.355143 68 1 84
-0.657664 -0.418143 0.357828 233 228 25
0.041558 0.587639 -0.201073 68 1 84
-0.370279 0.446114 0.169566 68 1 84
0.386089 -0.325630 -0.099283 44 114 142
-0.623729 -0.355109 0.185126 119 208 82
-0.427730 0.117565 -0.029400 68 1 84
0.471258 0.295669 0.163445 70 14 97
-0.545591 0.152130 0.277345 68 1 84
-0.038545 0.622861 -0.175419 68 1 84
-0.302575 0.161616 -0.137896 70 14 97
-0.134495 -0.113421 -0.248386 68 1 84
-0.161911 0.666564 -0.062549 68 1 84
0.285633 0.541344 -0.024021 68 1 84
-0.466048 0.236176 0.111021 68 1 84
0.477411 -0.303213 -0.017137 56 86 139
-0.012863 -0.488898 -0.361864 68 1 84
-0.329910 0.499266 0.143847 68 1 84
0.464873 0.349137 0.284792 68 1 84
0.614060 -0.343677 0.456021 33 166 133
-0.516066 0.240365 0.390970 68 1 84
0.298568 0.213791 -0.152282 48 103 141
-0.088120 0.049070 -0.294000 69 6 90
0.123455 0.234595 -0.243326 39 124 142
-0.060895 0.218222 -0.295785 31 163 134
0.606397 -0.260434 0.456071 48 103 141
0.287190 0.190750 -0.161630 54 90 140
-0.082764 0.365784 -0.253841 51 97 141
-0.190151 0.458465 -0.127841 68 1 84
0.478066 0.301562 0.198182 68 1 84
0.427449 -0.213295 -0.078846 68 1 84
-0.581529 -0.114390 0.150115 69 54 129
-0.623875 -0.231717 0.225831 40 174 127
0.476341 0.255924 0.134584 69 8 91
-0.095121 -0.480074 -0.358259 68 1 84
-0.545317 -0.375615 0.012984 31 148 139
-0.502309 -0.326636 -0.030757 50 98 141
-0.181831 0.623253 -0.096097 68 1 84
-0.424986 0.335512 0.124667 68 1 84
0.690971 -0.492427 0.293087 31 162 134
-0.582321 -0.059552 0.174927 62 72 136
-0.112401 -0.422142 -0.299201 68 1 84
0.003156 0.193245 -0.310593 225 227 24
0.458462 -0.176528 -0.053434 72 33 114
0.431308 -0.195070 -0.078155 69 6 90
-0.385770 -0.294832 -0.120985 68 1 84
0.501611 0.214866 0.173653 68 1 84
-0.148217 -0.210791 -0.221499 68 1 84
0.726569 -0.515503 0.393419 33 166 133
-0.080503 0.509808 -0.200119 68 1 84
-0.613084 -0.189687 0.210127 31 148 139
0.401922 0.134461 -0.036763 71 37 117
0.166802 -0.349901 -0.168494 68 1 84
-0.358969 -0.035997 -0.131474 68 1 84
-0.100363 0.616563 -0.148132 68 1 84
0.617431 -0.278785 0.348176 30 151 138
-0.422893 0.078589 -0.048641 68 1 84
-0.600499 -0.085007 0.227768 64 67 135
0.610084 -0.202475 0.471630 41 121 142
0.133611 -0.017694 -0.315091 68 1 84
0.104480 -0.471534 -0.353852 68 1 84
0.099678 -0.080508 -0.329003 68 1 84
0.588201 -0.229074 0.181581 32 144 140
0.170493 0.262935 -0.181635 36 134 141
-0.250745 0.508942 -0.065451 68 1 84
0.093786 -0.182856 -0.301337 68 1 84
-0.552449 -0.268763 0.039168 30 160 135
0.269344 -0.154204 -0.161144 72 25 107
0.557384 -0.222587 0.101115 35 135 141
-0.581907 -0.362823 0.085404 116 208 84
-0.396909 0.286896 0.013700 68 1 84
0.444253 -0.434224 -0.127502 66 61 132
0.584771 -0.012348 0.339044 72 34 115
0.489465 -0.226283 -0.014663 63 69 135
-0.547761 0.111039 0.214492 71 17 99
0.188935 0.123431 -0.214736 48 103 141
0.024365 0.232114 -0.297397 109 206 88
0.061356 -0.123664 -0.395856 68 1 84
0.024714 0.207400 -0.306940 139 213 70
-0.605948 0.002623 0.439358 42 117 142
-0.340906 0.421093 0.028583 68 1 84
0.077331 0.679043 -0.083778 68 1 84
0.118203 -0.077392 -0.277361 68 1 84
0.069801 0.020951 -0.326033 71 22 105
0.026833 -0.190047 -0.396496 68 1 84
-0.241225 -0.167756 -0.190114 68 1 84
-0.624096 -0.188306 0.432632 32 143 140
-0.091823 -0.157713 -0.306595 68 1 84
-0.192848 0.651627 -0.010643 68 1 84
-0.053475 0.683810 -0.074740 68 1 84
-0.480034 -0.554964 -0.151795 68 1 84
0.401916 -0.138871 -0.098688 72 25 107
0.687061 -0.500197 0.284727 30 157 136
0.608908 -0.227689 0.367080 35 168 131
-0.623398 -0.210272 0.313132 81 196 104
0.587556 -0.424706 0.151922 38 172 129
-0.450194 0.343549 0.355110 68 1 84
-0.192224 0.142817 -0.225848 60 78 138
-0.359356 0.425353 0.077582 68 1 84
0.480846 -0.164861 -0.026340 69 52 127
0.431609 -0.359687 -0.061949 59 81 138
0.600323 -0.101722 0.443880 49 102 141
-0.149779 -0.418632 -0.253500 68 1 84
-0.139782 0.674912 -0.084662 68 1 84
-0.032497 -0.015749 -0.494177 68 1 84
0.509880 -0.527975 -0.051842 55 89 140
0.141780 0.006413 -0.314111 71 22 105
0.249941 0.443133 -0.107713 68 1 84
-0.455028 0.315354 0.188237 68 1 84
-0.237037 0.524258 -0.077080 68 1 84
0.224164 -0.015251 -0.176741 46 109 142
-0.561577 -0.113085 0.105726 67 59 131
0.341273 0.306023 -0.080068 46 107 142
-0.426742 0.378761 0.273161 68 1 84
0.590144 -0.456389 0.167084 30 156 137
0.258604 0.550899 -0.058780 68 1 84
-0.367446 0.370592 0.031247 68 1 84
0.543195 -0.248271 0.064336 39 124 142
0.608081 -0.198423 0.313306 36 170 130
0.547547 0.167107 0.324448 68 1 84
0.449011 0.372100 0.248009 68 1 84
-0.576459 -0.372633 0.072043 124 210 79
-0.272837 0.471350 -0.061212 68 1 84
-0.065375 0.605344 -0.176152 68 1 84
0.041032 0.651280 -0.147367 68 1 84
-0.376597 0.003033 -0.112127 68 1 84
0.233549 0.339028 -0.149908 33 142 140
0.115380 -0.094894 -0.279866 68 1 84
0.126309 0.242387 -0.230644 54 90 140
-0.317430 0.122234 -0.126332 69 8 91
-0.092194 0.448819 -0.192649 72 34 115
-0.151586 -0.188622 -0.225386 68 1 84
-0.562842 -0.077072 0.122627 66 62 133
0.433166 0.389738 0.340016 68 1 84
-0.400683 0.128165 -0.055832 68 1 84
-0.462088 0.166611 0.045172 68 1 84
0.206589 0.637089 -0.065530 68 1 84
0.501266 0.273647 0.261746 68 1 84
0.419017 0.329405 0.070916 68 1 84
-0.580039 0.030814 0.246166 71 44 123
0.185045 0.654998 -0.056658 68 1 84
-0.087083 0.034771 -0.347476 68 1 84
0.169711 0.481793 -0.146945 68 1 84
-0.558659 -0.081240 0.111912 69 52 127
0.587385 -0.173246 0.204752 32 143 140
0.303828 0.563809 0.137514 68 1 84
0.350424 0.301683 -0.066430 56 87 140
0.613851 -0.271148 0.249614 33 142 140
-0.176615 0.314283 -0.180804 68 57 130
0.427559 0.158355 0.000055 68 1 84
-0.012674 0.227904 -0.299731 44 177 125
0.536773 0.077566 0.177358 39 126 142
0.576256 0.041066 0.328212 72 28 110
-0.547302 0.179587 0.381970 68 1 84
0.318425 0.446352 -0.036348 71 20 102
-0.652798 -0.312649 0.467009 38 129 142
-0.249956 0.598591 -0.006757 68 1 84
-0.522084 -0.368248 -0.018201 41 120 142
0.434269 -0.527951 -0.213059 68 1 84
0.585422 -0.056379 0.291213 61 74 137
-0.052084 0.257755 -0.256602 30 151 138
0.135045 0.443253 -0.178017 68 1 84
0.620942 -0.273471 0.319669 47 179 123
0.236267 -0.448356 -0.233973 65 65 134
-0.308845 -0.354334 -0.186062 71 39 119
-0.349600 0.074307 -0.116764 68 1 84
0.000356 0.005247 -0.497739 68 1 84
-0.453479 -0.453467 -0.185521 68 1 84
0.432270 0.394126 0.223931 68 1 84
-0.641935 -0.424385 0.262251 38 172 129
0.590550 -0.103884 0.265582 56 86 139
-0.446969 0.347908 0.261407 68 1 84
0.338365 0.512616 0.137619 68 1 84
-0.184696 0.656324 -0.015720 68 1 84
0.233756 0.171207 -0.202975 48 103 141
0.517898 -0.456932 -0.016166 54 90 140
0.407028 0.369145 0.084207 68 1 84
0.252379 0.096346 -0.161675 58 82 139
0.269339 0.481514 -0.073676 68 1 84
-0.457193 -0.043017 -0.049460 71 22 105
0.187358 -0.077770 -0.195738 71 39 119
-0.413649 0.380948 0.167535 68 1 84
0.159887 -0.346887 -0.171727 68 1 84
-0.439447 0.338236 0.172715 68 1 84
0.413055 0.412411 0.177154 68 1 84
-0.409848 0.193513 -0.017823 68 1 84
-0.493203 0.003088 0.017200 68 2 85
0.553417 0.156862 0.359712 68 1 84
-0.281636 -0.449982 -0.265355 68 1 84
0.263913 -0.464192 -0.249540 64 67 135
0.149065 0.375175 -0.210606 59 80 138
-0.060429 -0.261467 -0.323601 68 1 84
-0.005380 -0.350767 -0.332571 68 1 84
0.001100 -0.225939 -0.386081 68 1 84
0.503865 -0.326382 0.006172 48 103 141
-0.305954 0.307435 -0.114842 68 1 84
-0.336377 -0.231053 -0.154341 68 3 87
-0.622681 -0.010861 0.543880 43 177 125
-0.606580 -0.448612 0.151812 119 208 82
-0.614824 -0.083026 0.415739 43 116 142
0.382742 -0.442598 -0.179941 72 35 116
-0.150388 -0.227895 -0.212340 68 1 84
0.255609 0.598827 -0.032230 68 1 84
-0.027417 0.051224 -0.446307 66 62 133
0.082969 0.010315 -0.442389 68 1 84
-0.475812 0.156244 0.064108 68 1 84
-0.271626 -0.049496 -0.175525 68 1 84
-0.599864 -0.346201 0.129157 136 213 71
-0.058151 -0.174738 -0.377122 68 1 84
0.470665 0.091935 0.039468 70 49 126
-0.609733 -0.042642 0.347422 36 132 141
0.320042 -0.488961 -0.269174 72 29 111
0.260445 0.283486 -0.142905 30 160 135
0.461300 -0.136391 -0.046550 69 53 128
0.594840 -0.242567 0.196208 49 101 141
0.173728 -0.465359 -0.326503 72 28 110
-0.005377 0.037772 -0.477308 68 1 84
-0.540662 0.190941 0.369029 68 1 84
-0.573347 -0.229017 0.091750 41 121 142
0.454756 -0.030197 -0.024143 57 84 139
0.176286 0.451474 -0.151536 68 1 84
0.523248 -0.275745 0.028758 55 89 140
-0.043055 -0.107010 -0.441373 68 1 84
-0.422202 0.277133 0.052882 68 1 84
0.510762 -0.405421 -0.006403 51 97 141
-0.251981 0.050617 -0.170086 46 107 142
0.151862 0.130978 -0.254186 46 107 142
0.169595 -0.187380 -0.203528 72 34 115
0.516308 -0.136103 0.034794 47 106 141
0.514004 -0.525457 -0.039700 49 100 141
-0.382058 -0.044211 -0.117949 68 1 84
-0.334403 0.364447 -0.041994 68 1 84
0.564501 -0.345319 0.089858 32 144 140
-0.407504 -0.029119 -0.094975 70 14 97
-0.185073 -0.003299 -0.195649 69 6 90
-0.382049 0.281854 -0.014882 68 1 84
-0.105755 -0.079349 -0.290348 68 1 84
0.240910 -0.056943 -0.175074 72 25 107
-0.034220 -0.224295 -0.380313 68 1 84
0.541466 0.007483 0.148790 44 113 142
-0.401317 0.417139 0.291256 68 1 84
0.145048 0.201996 -0.252957 35 168 131
-0.535441 -0.228865 0.016586 34 138 141
0.507515 -0.456973 -0.044028 51 96 141
0.419693 0.201612 0.004489 68 1 84
-0.247377 0.212759 -0.194260 61 74 137
-0.640793 -0.306670 0.400755 30 153 138
0.459166 0.192693 0.058136 70 14 97
-0.052928 -0.214620 -0.369308 68 1 84
-0.011731 -0.364404 -0.332017 68 1 84
0.635548 -0.368511 0.471573 30 157 136
-0.477860 0.299513 0.301634 68 1 84
0.725472 -0.540504 0.426080 33 140 141
-0.456248 -0.027951 -0.045233 72 32 113
0.518081 0.248081 0.359473 68 1 84
0.173583 -0.098914 -0.205152 61 74 137
-0.498592 0.261725 0.298203 68 1 84
-0.571549 -0.419136 0.057950 96 201 96
-0.330616 -0.491688 -0.296384 68 1 84
-0.488917 -0.115001 -0.032118 59 81 138
-0.496823 0.238564 0.214214 68 1 84
-0.284895 0.341215 -0.114260 68 1 84
-0.311273 0.194531 -0.127671 72 33 114
0.251679 0.621089 -0.000373 68 1 84
0.463691 -0.390661 -0.055240 67 59 131
0.547486 -0.414004 0.057139 41 120 142
-0.087555 0.607022 -0.163282 68 1 84
0.151537 0.430382 -0.176100 69 5 88
0.603548 -0.126501 0.468900 44 113 142
-0.606783 -0.122430 0.231259 43 116 142
0.433817 0.077638 -0.016150 67 58 131
0.297484 -0.096607 -0.151702 68 1 84
-0.231162 -0.382276 -0.203288 68 1 84
-0.624215 -0.232738 0.226989 32 165 133
0.008137 0.037712 -0.479116 68 1 84
0.557410 -0.146782 0.129617 30 157 136
0.588850 -0.129343 0.232499 36 133 141
-0.043552 0.209935 -0.306214 114 207 85
-0.023463 0.645998 -0.161952 68 1 84
0.544855 -0.155628 0.093275 61 187 116
-0.469204 -0.430373 -0.139501 70 12 95
0.356343 0.160343 -0.078055 65 66 134
0.366674 0.470643 0.134228 68 1 84
-0.371695 0.451822 0.275840 68 1 84
0.571462 -0.007530 0.249924 48 104 141
0.263935 0.055450 -0.154889 52 95 141
0.287644 0.443574 -0.075453 69 8 91
-0.146111 0.327983 -0.213238 70 45 124
-0.508733 0.071106 0.077395 72 28 110
-0.617960 -0.099483 0.365357 36 133 141
0.010790 0.446187 -0.227025 71 38 118
0.604968 -0.422929 0.233550 136 213 71
-0.130732 -0.205186 -0.239863 68 1 84
0.031867 0.440228 -0.224910 58 83 139
-0.614857 -0.101524 0.425043 33 141 140
-0.366947 0.133579 -0.087248 68 1 84
0.038145 0.027914 -0.478995 68 1 84
-0.400934 -0.389077 -0.154671 71 22 105
0.018243 0.564864 -0.212008 68 1 84
0.238680 0.372662 -0.142185 65 65 134
-0.614995 -0.546908 0.164752 107 205 89
-0.073091 -0.403248 -0.306710 68 1 84
-0.419134 -0.119873 -0.105630 71 18 101
-0.529154 0.123777 0.167890 72 32 113
-0.393146 0.423329 0.324262 68 1 84
-0.631278 -0.225094 0.451861 44 177 125
-0.044045 0.038958 -0.392019 68 1 84
0.512605 0.221967 0.506807 68 1 84
-0.154558 -0.039280 -0.214594 72 35 116
-0.584940 -0.479367 0.091598 91 200 98
0.362687 -0.463249 -0.221579 60 77 138
0.426058 0.129808 -0.010451 68 1 84
0.477515 -0.354437 -0.020843 57 84 139
0.619256 -0.479753 0.217521 41 175 127
-0.411890 -0.070703 -0.100990 71 42 121
0.238606 0.613088 -0.047645 68 1 84
-0.382704 -0.408006 -0.188503 68 1 84
-0.565316 0.146892 0.435950 71 15 98
-0.348837 0.148564 -0.097728 68 1 84
0.428531 -0.567752 -0.215676 68 1 84
0.428883 0.152021 -0.000434 68 1 84
-0.454496 -0.345003 -0.074938 44 114 142
-0.167524 -0.235532 -0.201629 68 1 84
0.263346 0.616466 0.030891 68 1 84
-0.271206 0.299898 -0.138361 72 25 107
0.308819 0.564787 0.110877 68 1 84
-0.293319 0.403300 -0.082773 68 1 84
0.687157 -0.436203 0.352358 75 194 108
0.368435 0.006658 -0.101587 71 44 123
-0.621130 -0.167936 0.383378 53 183 120
0.027707 0.109692 -0.326778 59 186 117
0.592844 -0.541231 0.162879 44 114 142
0.020886 -0.225516 -0.382319 68 1 84
0.362761 0.397220 0.017893 68 1 84
-0.427253 -0.403547 -0.151141 72 29 111
0.606818 -0.204727 0.402018 35 136 141
-0.618005 -0.130301 0.321887 30 153 138
-0.416609 0.173763 -0.018283 68 1 84
0.284303 0.030472 -0.150296 69 54 129
0.164223 0.272929 -0.182805 36 133 141
-0.136595 -0.422588 -0.273697 68 1 84
-0.418303 0.171327 -0.017265 68 1 84
-0.506193 -0.008244 0.035268 69 52 127
-0.539438 0.178487 0.307116 68 1 84
0.483967 -0.260389 -0.017115 66 64 133
0.146167 0.535549 -0.165286 68 1 84
-0.355141 -0.234066 -0.143821 68 1 84
0.254315 0.547113 -0.066433 68 1 84
-0.079342 -0.063766 -0.428015 68 1 84
-0.455994 0.155529 0.027412 68 1 84
-0.632033 -0.329860 0.221070 43 177 125
0.605925 -0.259883 0.450246 44 114 142
0.195199 -0.483222 -0.329478 68 1 84
0.318104 -0.118852 -0.142368 62 73 137
0.033438 0.623790 -0.177442 68 1 84
-0.197944 -0.112622 -0.202961 68 1 84
0.070355 0.174087 -0.310517 79 195 105
0.240351 0.073315 -0.161563 60 78 138
0.113764 0.060395 -0.269239 30 159 136
0.243680 0.040874 -0.163403 65 66 134
-0.545416 0.190141 0.419660 68 1 84
0.016866 0.685620 -0.079376 68 1 84
-0.665015 -0.521128 0.401746 48 180 122
0.078465 -0.132688 -0.350198 68 1 84
-0.258151 0.069533 -0.165073 65 66 134
0.566825 -0.179938 0.141208 30 158 136
0.117731 0.358046 -0.240258 44 112 142
-0.245301 0.216000 -0.195127 65 65 134
-0.323160 0.506083 0.237709 68 1 84
-0.039078 -0.458873 -0.359522 68 1 84
0.429392 -0.171355 -0.080304 63 69 135
0.064333 0.009126 -0.469273 68 1 84
-0.276204 -0.006591 -0.169825 54 90 140
0.072698 -0.185602 -0.342567 68 1 84
-0.035393 0.454088 -0.222736 68 1 84
-0.229128 -0.031662 -0.188015 71 24 106
-0.563189 -0.116494 0.107888 68 57 130
-0.403451 -0.490440 -0.260558 68 1 84
-0.319928 0.405136 -0.036385 68 1 84
0.459458 0.228187 0.077054 71 42 121
0.104177 0.335299 -0.253537 42 117 142
-0.450436 0.116605 -0.000684 68 1 84
0.662670 -0.403711 0.431764 31 148 139
0.471618 -0.416074 -0.073491 72 29 111
0.161377 0.293355 -0.195826 70 45 124
-0.195269 -0.118016 -0.204230 68 1 84
-0.462973 0.280203 0.157004 68 1 84
-0.410749 0.242720 0.009251 68 1 84
0.619130 -0.289205 0.349905 35 137 141
0.628170 -0.391741 0.290659 146 215 65
-0.420656 0.385553 0.229563 68 1 84
0.425518 0.143685 -0.007113 71 20 102
-0.560805 -0.266395 0.055590 30 156 137
-0.037024 0.072899 -0.331337 44 114 142
0.479995 -0.061539 -0.000430 63 69 135
0.478094 -0.141558 -0.027035 68 55 129
0.223783 0.220083 -0.199067 32 164 133
-0.454142 0.336695 0.335477 68 1 84
-0.150778 0.276646 -0.193649 40 122 142
0.521391 -0.220061 0.029768 46 109 142
-0.627067 -0.247179 0.380790 30 151 138
0.465721 0.014445 0.006326 49 101 141
0.380390 0.457468 0.288332 68 1 84
-0.579530 -0.362330 0.079863 119 208 82
0.402634 0.291802 0.014560 68 57 130
0.211749 0.311964 -0.162818 31 149 139
-0.010737 -0.190472 -0.406052 68 1 84
0.574688 -0.156529 0.171766 33 166 133
-0.505157 -0.217092 -0.026120 70 47 124
0.142405 -0.018932 -0.272020 71 17 99
0.508184 -0.004718 0.068376 49 101 141
0.187777 -0.019594 -0.189855 68 1 84
0.603529 -0.141887 0.390232 35 135 141
0.150016 0.059207 -0.214964 44 113 142
0.628430 -0.342599 0.380069 30 154 137
-0.620464 -0.153528 0.377599 42 176 126
0.043236 0.641472 -0.158509 68 1 84
0.117752 -0.416948 -0.279667 68 1 84
0.698557 -0.520667 0.306210 33 140 141
0.067489 -0.040581 -0.454375 68 1 84
0.033939 -0.284181 -0.345857 68 1 84
-0.647917 -0.308265 0.385094 30 151 138
0.295933 0.426318 -0.077069 70 48 125
-0.290006 0.536148 0.035300 68 1 84
-0.575502 -0.544116 0.052452 62 188 115
0.307777 0.572381 0.066795 68 1 84
0.706770 -0.442935 0.372464 41 175 127
0.607137 -0.245540 0.398600 42 119 142
-0.620343 -0.257452 0.197768 33 141 140
0.151420 0.582110 -0.146204 68 1 84
-0.187891 0.531627 -0.124406 68 1 84
-0.057394 0.029102 -0.344716 68 1 84
-0.381082 -0.458319 -0.249522 68 1 84
-0.294903 0.050928 -0.153636 53 93 140
-0.013667 0.682985 -0.083802 68 1 84
0.383049 0.376248 0.040943 72 28 110
0.349862 0.496146 0.134990 68 1 84
0.293554 -0.434800 -0.213738 70 48 125
-0.051552 -0.091903 -0.446095 68 1 84
-0.635367 -0.338716 0.235726 126 210 78
-0.295099 0.522199 0.031256 68 1 84
0.367708 0.452748 0.095542 68 1 84
-0.094007 -0.078753 -0.321137 68 1 84
-0.000489 0.048330 -0.464072 72 29 111
0.581350 -0.005349 0.530608 69 50 127
-0.038906 -0.154456 -0.413791 68 1 84
0.280595 0.421694 -0.094679 72 28 110
0.326378 0.529098 0.137659 68 1 84
-0.651497 -0.476564 0.323069 191 223 36
0.542554 -0.012486 0.141490 55 89 140
0.095471 -0.274764 -0.254181 68 1 84
0.528929 0.200448 0.267343 68 1 84
0.215565 0.386767 -0.153517 43 116 142
-0.626519 -0.161037 0.516363 41 175 127
-0.524455 -0.234317 -0.001112 44 112 142
0.211995 0.561936 -0.109191 68 1 84
0.302047 0.582367 0.100269 68 1 84
0.351962 0.089793 -0.096114 68 55 129
-0.508040 0.175298 0.159681 68 1 84
-0.463594 0.149264 0.036391 68 1 84
-0.581776 -0.039720 0.186591 60 77 138
0.211626 0.427387 -0.140561 68 1 84
0.257597 0.573919 -0.049545 68 1 84
0.606483 -0.189244 0.352651 37 131 141
-0.517253 0.229276 0.320426 68 1 84
0.598979 -0.094043 0.460941 38 128 142
-0.435767 -0.094791 -0.086083 72 33 114
-0.557281 -0.081663 0.108816 66 64 133
0.656801 -0.403297 0.469492 42 117 142
0.611529 -0.237018 0.498584 34 137 141
0.563981 0.118660 0.384485 68 1 84
0.630779 -0.361724 0.277342 87 198 101
0.424462 -0.075759 -0.070621 59 80 138
-0.287099 0.532516 0.015944 68 1 84
0.020130 -0.297283 -0.345870 68 1 84
0.077341 0.015410 -0.448013 68 1 84
-0.620330 -0.172104 0.322849 33 166 133
-0.370768 -0.319981 -0.134384 62 72 136
0.256554 0.544309 -0.064022 68 1 84
-0.090218 0.252931 -0.249746 49 101 141
-0.377078 0.133838 -0.077668 68 1 84
-0.157367 0.306288 -0.194597 53 93 140
-0.088123 0.081518 -0.282241 40 122 142
0.299599 0.108072 -0.132904 62 73 137
-0.518624 -0.427269 -0.045101 38 128 142
0.423901 0.087306 -0.024859 70 47 124
-0.573619 -0.417955 0.062604 109 206 88
-0.423443 0.383818 0.302179 68 1 84
0.265939 0.604121 0.000928 68 1 84
0.580713 -0.431384 0.132042 30 158 136
-0.601643 0.018143 0.419687 37 130 142
-0.619606 -0.161327 0.317713 43 177 125
0.581030 -0.243608 0.152571 53 93 140
-0.417208 -0.316565 -0.094714 52 94 141
-0.201312 -0.445775 -0.286969 68 1 84
0.613328 -0.201717 0.513981 42 118 142
0.604695 -0.451455 0.224949 119 208 82
0.269062 0.134009 -0.162210 54 90 140
-0.240279 -0.249278 -0.184837 68 1 84
0.550509 0.142521 0.454312 68 1 84
-0.573238 -0.051118 0.156071 70 49 126
0.608091 -0.200475 0.325820 33 141 140
-0.430396 -0.500967 -0.237248 68 1 84
0.216014 0.484224 -0.118224 68 1 84
0.326473 0.380727 -0.070127 70 9 92
-0.313149 -0.301597 -0.173258 68 1 84
0.401083 0.424205 0.346685 68 1 84
-0.498123 -0.545721 -0.112181 68 3 87
-0.449239 0.327489 0.190713 68 1 84
-0.602048 -0.372255 0.135411 121 209 81
-0.169404 -0.437758 -0.288642 68 1 84
0.311961 -0.013692 -0.142390 68 57 130
-0.606363 -0.051784 0.304576 56 86 139
-0.036630 -0.475630 -0.360889 68 1 84
0.111015 0.668048 -0.096681 68 1 84
0.507809 0.040659 0.086414 43 115 142
-0.246031 -0.383131 -0.202230 68 1 84
0.400440 0.430548 0.320909 68 1 84
-0.653496 -0.526587 0.328720 189 222 38
-0.386528 0.024213 -0.099106 68 1 84
-0.004855 0.120790 -0.326145 36 132 141
0.177965 0.380691 -0.186034 44 114 142
0.379232 0.451591 0.136486 68 1 84
0.038974 0.499291 -0.223600 68 1 84
0.395903 0.091411 -0.054390 70 47 124
-0.258159 -0.330308 -0.185144 70 12 95
-0.108087 -0.343502 -0.205827 68 1 84
0.247340 -0.266499 -0.164756 68 1 84
0.201529 -0.325686 -0.172577 68 1 84
-0.400864 0.215264 -0.020409 68 1 84
0.250548 -0.028596 -0.170068 71 40 120
-0.502366 0.235134 0.233227 68 1 84
0.332008 0.488561 0.024100 68 1 84
-0.613627 -0.069562 0.419809 38 128 142
0.721633 -0.493037 0.413960 30 155 137
-0.131924 0.102895 -0.238389 41 175 127
0.057577 0.332621 -0.270714 39 124 142
-0.309247 -0.481188 -0.300098 68 1 84
0.627044 -0.297793 0.302856 37 171 129
0.086923 -0.132857 -0.329457 68 1 84
-0.555541 -0.449746 0.019908 126 210 78
0.088355 0.016069 -0.426758 68 1 84
0.551904 0.011360 0.180395 35 135 141
0.200926 0.000929 -0.182477 71 38 118
0.585520 -0.067601 0.276170 53 92 140
0.552126 0.083637 0.236760 53 92 140
-0.297004 0.359167 -0.098108 68 1 84
0.261525 0.185882 -0.181127 51 96 141
-0.051305 -0.307847 -0.313105 68 1 84
-0.591636 -0.110309 0.178627 62 73 137
0.607943 -0.227239 0.383249 30 156 137
-0.308633 0.357513 -0.087011 68 1 84
-0.004180 0.666425 -0.133002 68 1 84
-0.191699 0.245108 -0.201591 42 119 142
0.434917 -0.209797 -0.073430 68 1 84
0.436087 -0.130512 -0.070110 60 78 138
0.724747 -0.548362 0.381404 31 149 139
-0.290883 0.136048 -0.148201 69 52 127
-0.629110 -0.331707 0.207230 94 201 97
-0.543305 0.207232 0.503577 70 9 92
0.480505 0.300484 0.419087 68 1 84
-0.600926 -0.073361 0.241660 62 72 136
0.495513 -0.525157 -0.098794 70 47 124
-0.125971 0.417219 -0.190339 61 76 137
0.446062 0.006982 -0.022481 52 94 141
-0.454391 0.267814 0.115707 68 1 84
-0.461362 0.316802 0.224542 68 1 84
0.189411 0.136783 -0.223850 31 150 139
0.533690 -0.199640 0.055420 42 117 142
-0.188436 -0.411578 -0.221861 68 1 84
0.123359 0.049428 -0.275251 39 125 142
-0.382333 0.234018 -0.039064 68 1 84
-0.383522 0.367372 0.063231 68 1 84
-0.153305 0.313689 -0.202196 58 83 139
0.367330 0.322177 -0.029287 50 99 141
0.213843 -0.302125 -0.173159 68 1 84
0.531872 0.145368 0.211149 71 40 120
-0.446050 0.341563 0.213877 68 1 84
0.172462 0.646809 -0.089314 68 1 84
0.092091 0.029268 -0.306899 42 119 142
0.261984 -0.298041 -0.165997 72 34 115
-0.487716 0.233466 0.170421 68 1 84
0.152002 0.613840 -0.129756 68 1 84
-0.067775 -0.031799 -0.465662 68 1 84
-0.196035 -0.005084 -0.192965 69 6 90
-0.230370 -0.396081 -0.214380 68 1 84
-0.278726 0.554671 0.189039 68 1 84
-0.173842 0.453865 -0.139666 68 1 84
-0.485039 0.288525 0.320192 68 1 84
0.348210 0.168914 -0.085419 56 86 139
-0.040331 -0.161282 -0.408618 68 1 84
-0.295264 0.499036 0.005949 68 1 84
-0.212182 0.334423 -0.152880 67 58 131
-0.356721 0.297684 -0.047695 68 1 84
-0.601043 -0.504643 0.129833 112 206 86
-0.532363 -0.298502 0.004639 51 97 141
0.622371 -0.349541 0.469064 31 163 134
0.395309 -0.328842 -0.090097 43 115 142
0.352849 0.412519 0.008244 72 32 113
0.543874 0.183809 0.390204 68 1 84
0.200987 0.428856 -0.147652 68 1 84
0.547990 -0.537058 0.049944 51 96 141
0.343888 0.086277 -0.103266 68 55 129
-0.622929 -0.092838 0.484215 34 139 141
0.566530 -0.428862 0.099151 30 153 138
-0.672398 -0.360870 0.371918 109 206 88
-0.098731 0.349720 -0.252213 47 105 141
0.536273 0.186619 0.442850 68 1 84
0.392305 0.262981 -0.014110 70 47 124
0.569305 0.046905 0.290790 61 76 137
-0.345633 0.485225 0.222352 68 1 84
0.298245 -0.079021 -0.152129 72 33 114
-0.421384 0.201112 0.001749 68 1 84
-0.613764 -0.504116 0.166985 77 194 107
-0.341792 0.489568 0.218475 68 1 84
0.242163 0.259848 -0.159764 35 137 141
0.562153 0.120162 0.338879 68 1 84
0.399219 -0.004608 -0.078685 69 52 127
0.555040 0.119395 0.485454 68 1 84
0.096976 0.024572 -0.329945 61 76 137
-0.017646 -0.085087 -0.470863 68 1 84
-0.622180 -0.204834 0.269598 47 179 123
-0.437755 0.036187 -0.045307 68 1 84
-0.627124 -0.245091 0.415108 75 194 108
0.042854 0.633315 -0.166689 68 1 84
-0.211390 -0.311315 -0.187286 68 1 84
-0.631494 -0.239708 0.448474 50 181 122
-0.559310 0.125395 0.302447 68 1 84
-0.595957 -0.004149 0.291817 63 69 135
0.683189 -0.488118 0.289766 37 171 129
0.552869 -0.007564 0.172070 43 116 142
0.298416 -0.123804 -0.150028 68 1 84
0.267723 -0.534062 -0.317249 68 1 84
-0.330726 0.464306 0.055985 68 1 84
0.014109 0.080155 -0.349258 30 156 137
-0.530853 0.166046 0.229044 68 1 84
-0.430543 0.368733 0.218076 68 1 84
0.048491 0.392618 -0.239622 30 154 137
0.119200 -0.287331 -0.212498 68 1 84
-0.126162 -0.200205 -0.247185 68 1 84
-0.629330 -0.247731 0.252154 30 160 135
0.352083 -0.014834 -0.117341 67 58 131
0.303067 0.493371 -0.030452 68 1 84
-0.076447 0.004857 -0.452864 68 1 84
0.131805 0.082770 -0.249415 51 97 141
-0.131421 0.058548 -0.285368 37 130 142
0.373866 -0.086931 -0.111938 61 75 137
0.705267 -0.442831 0.368850 47 179 123
0.684212 -0.436830 0.448875 31 150 139
-0.404730 -0.234951 -0.111824 70 9 92
-0.530258 -0.292462 0.002470 51 96 141
0.419293 0.415422 0.258337 68 1 84
0.004380 0.376426 -0.251714 36 132 141
0.696147 -0.446415 0.429964 41 175 127
0.179657 0.115923 -0.219325 51 96 141
0.212518 0.456019 -0.127894 68 3 87
0.238501 -0.035537 -0.174437 69 54 129
-0.496027 -0.153198 -0.030560 68 57 130
0.120491 0.516321 -0.188364 68 1 84
-0.418811 0.006272 -0.074134 69 5 88
0.608197 -0.254501 0.236867 32 164 133
-0.243876 0.593552 0.132426 68 1 84
0.314889 0.514597 0.003857 68 1 84
-0.559382 0.036124 0.175082 54 91 140
0.494225 -0.208862 -0.009432 55 88 140
0.597837 -0.151854 0.258394 36 170 130
-0.128932 -0.277577 -0.199916 68 1 84
-0.040814 0.112801 -0.331300 30 154 137
-0.291846 -0.308809 -0.181711 72 30 112
0.069603 0.340462 -0.267722 41 120 142
-0.524006 -0.120886 0.021725 47 105 141
-0.232803 0.201538 -0.205130 42 119 142
-0.585773 -0.206481 0.127420 43 115 142
0.302993 0.525658 -0.009556 68 1 84
-0.036941 0.666150 -0.124916 68 1 84
-0.475444 -0.166168 -0.059127 61 74 137
-0.359656 0.399293 0.045645 68 1 84
0.132889 0.280870 -0.213075 61 74 137
0.304684 -0.482324 -0.266898 71 18 101
-0.094089 0.561280 -0.184150 68 1 84
-0.594198 -0.165522 0.164480 59 80 138
-0.585832 -0.546752 0.077355 30 153 138
0.689227 -0.430520 0.393021 38 172 129
0.119366 0.538876 -0.187209 68 1 84
-0.238376 -0.125924 -0.188743 68 1 84
0.590510 -0.233279 0.186898 36 134 141
0.407442 -0.142266 -0.094997 66 61 132
-0.469739 -0.048308 -0.036101 71 20 102
-0.448701 0.336097 0.211800 68 1 84
0.002583 0.635549 -0.172729 68 1 84
0.358507 -0.350795 -0.126251 66 64 133
0.116100 -0.079738 -0.280480 68 1 84
-0.535012 0.204970 0.380594 68 1 84
0.138690 0.107613 -0.256510 59 81 138
0.048651 0.682367 -0.077672 68 1 84
0.472401 -0.471497 -0.144451 70 9 92
-0.620941 -0.163662 0.378455 50 181 122
-0.122975 0.642012 -0.121594 68 1 84
-0.525446 -0.418760 -0.030293 31 150 139
-0.137734 0.010889 -0.216950 65 65 134
0.292063 0.016471 -0.148756 60 77 138
0.207324 0.343887 -0.170488 42 119 142
0.274680 0.605440 0.101530 68 1 84
0.008632 -0.285933 -0.353100 68 1 84
0.502502 -0.550270 -0.074407 68 3 87
0.364090 -0.449676 -0.200299 54 90 140
0.486706 -0.068421 0.007465 60 78 138
-0.570568 -0.099090 0.130279 70 49 126
-0.448020 -0.210215 -0.084644 71 18 101
0.613326 -0.300831 0.234185 46 108 142
0.407169 0.420122 0.337161 68 1 84
-0.244274 0.234951 -0.189524 68 1 84
-0.579994 -0.512723 0.068704 47 179 123
-0.408670 -0.467206 -0.245198 68 1 84
0.506541 0.242848 0.469902 68 1 84
-0.212452 -0.376371 -0.198595 68 1 84
0.227292 0.172134 -0.208493 38 129 142
0.119825 -0.417355 -0.277095 68 1 84
0.016654 0.561335 -0.213403 68 1 84
0.615437 -0.246195 0.284898 32 164 133
0.124164 0.315515 -0.239359 56 87 140
0.717585 -0.482168 0.413983 30 156 137
-0.163854 -0.111789 -0.219758 68 1 84
0.333372 -0.437133 -0.203604 56 87 140
0.343078 -0.351800 -0.139313 55 89 140
0.108271 0.328219 -0.251109 50 99 141
0.597961 -0.053784 0.498336 58 82 139
0.289028 -0.385353 -0.171989 55 88 140
0.097669 -0.440529 -0.337992 68 1 84
0.027952 0.287740 -0.256519 30 156 137
-0.352046 -0.313380 -0.148891 72 28 110
-0.446393 -0.182003 -0.089327 72 26 108
0.599103 -0.048392 0.512114 67 60 132
-0.597609 -0.253466 0.142018 39 124 142
-0.024269 -0.445657 -0.354421 68 1 84
-0.583974 0.088759 0.499418 49 102 141
-0.655756 -0.459329 0.344634 141 214 68
-0.018453 -0.296775 -0.346584 68 1 84
-0.679387 -0.346853 0.458711 96 201 96
-0.138402 0.429374 -0.171977 69 8 91
0.182925 -0.079162 -0.198221 68 57 130
0.055990 0.034120 -0.390471 71 37 117
0.406230 -0.326013 -0.079147 35 136 141
0.107542 -0.069046 -0.305072 68 1 84
0.293228 0.582405 0.126163 68 1 84
0.604210 -0.234189 0.234866 43 177 125
-0.543052 -0.124746 0.060543 69 53 128
-0.615979 -0.542314 0.169235 199 224 31
-0.014600 -0.337785 -0.332894 68 1 84
0.490776 -0.029681 0.028655 60 78 138
0.143098 -0.008630 -0.292022 68 1 84
-0.218426 -0.274091 -0.186093 68 1 84
-0.245133 -0.452902 -0.279995 68 1 84
-0.528411 0.164528 0.216748 68 1 84
-0.035074 -0.460929 -0.359983 68 1 84
-0.107256 -0.243414 -0.244697 68 1 84
0.231149 -0.381375 -0.182515 68 3 87
0.550600 0.152415 0.314559 68 1 84
0.035860 0.276407 -0.253439 34 137 141
-0.507341 0.106240 0.096905 71 15 98
-0.251357 -0.511128 -0.333810 68 1 84
0.085222 -0.355992 -0.260210 68 1 84
-0.377008 0.127575 -0.079711 68 1 84
0.017295 0.330038 -0.275689 35 137 141
0.712243 -0.493312 0.328117 30 160 135
0.076239 0.022198 -0.365764 68 1 84
0.563716 -0.285848 0.098424 52 94 141
-0.276104 0.366813 -0.110560 68 1 84
0.297810 0.591191 0.083558 68 1 84
-0.267357 -0.446085 -0.261191 68 1 84
-0.239490 0.020805 -0.178584 69 53 128
0.546817 -0.284093 0.065541 61 75 137
0.215259 0.036928 -0.173509 55 89 140
-0.467091 0.309499 0.237324 68 1 84
0.362352 0.368251 -0.009862 64 67 135
-0.533972 0.202404 0.356268 68 1 84
0.305546 0.576761 0.097316 68 1 84
-0.174239 0.540586 -0.135741 68 1 84
-0.618800 -0.161145 0.303884 98 202 95
0.332699 -0.184240 -0.139005 68 1 84
0.227298 0.464008 -0.115697 68 1 84
-0.266016 0.166510 -0.180124 70 48 125
0.105147 -0.110762 -0.297861 68 1 84
0.699669 -0.449482 0.342986 34 167 132
0.141803 -0.258913 -0.202004 68 1 84
0.499313 -0.425642 -0.039423 67 60 132
-0.418368 0.305221 0.070816 68 1 84
-0.125205 -0.140782 -0.260137 68 1 84
0.018276 0.079325 -0.348141 35 135 141
-0.293274 0.505749 0.006712 68 1 84
0.340658 -0.095974 -0.131907 70 45 124
0.131801 0.574171 -0.165085 68 1 84
-0.092408 -0.436454 -0.339193 68 1 84
-0.465778 -0.397911 -0.107509 67 60 132
0.604513 -0.163844 0.366765 30 152 138
0.088559 0.024177 -0.404292 68 1 84
-0.112057 0.593139 -0.158327 68 1 84
-0.382301 -0.443285 -0.228277 68 1 84
0.601442 -0.299442 0.200606 43 116 142
0.429162 0.261109 0.042495 68 1 84
-0.069279 -0.220758 -0.333651 68 1 84
0.177384 0.187639 -0.239065 40 122 142
0.141248 0.035571 -0.276267 35 136 141
0.579844 -0.156976 0.186755 33 141 140
0.383801 0.094721 -0.065730 69 54 129
0.492247 -0.553660 -0.107666 70 14 97
-0.256174 0.296638 -0.142733 68 57 130
-0.247072 0.361202 -0.127100 68 1 84
-0.087256 0.464958 -0.194077 71 18 101
-0.212749 0.643729 0.047641 68 1 84
0.207956 0.453195 -0.131986 68 1 84
0.590929 -0.056619 0.354967 49 102 141
-0.085735 -0.081293 -0.384577 68 1 84
0.555313 -0.453696 0.073524 39 173 128
-0.510777 0.201027 0.205183 68 1 84
-0.030481 0.528734 -0.217869 68 1 84
0.553786 0.154390 0.353012 68 1 84
0.102392 -0.225384 -0.269939 68 1 84
0.185729 0.097729 -0.201379 48 104 141
0.533100 -0.235459 0.048252 58 83 139
0.575507 -0.388280 0.117131 35 169 130
0.022103 -0.267728 -0.359356 68 1 84
-0.005753 -0.483644 -0.361525 68 1 84
-0.046993 0.661731 -0.128491 68 1 84
-0.397472 0.415501 0.207081 68 1 84
0.408876 0.305116 0.032303 68 3 87
0.138087 0.258360 -0.205705 32 144 140
0.395297 0.413432 0.113137 68 1 84
0.241582 0.090647 -0.164454 53 93 140
-0.576994 -0.132414 0.133258 69 50 127
0.146146 0.332335 -0.224391 55 89 140
0.612144 -0.313062 0.393264 38 129 142
-0.366609 0.390782 0.051519 68 1 84
0.339484 -0.135702 -0.133881 71 22 105
0.530853 -0.272384 0.039760 57 85 139
0.063921 0.074111 -0.314894 35 135 141
-0.398089 -0.370997 -0.133880 72 34 115
-0.580254 0.071290 0.322104 71 37 117
0.396662 -0.170969 -0.104345 70 9 92
-0.040871 0.645561 -0.155791 68 1 84
-0.630049 -0.290348 0.432601 36 170 130
-0.157051 -0.417291 -0.243820 68 1 84
0.075639 0.003068 -0.457443 68 1 84
0.423851 -0.248878 -0.073132 68 1 84
-0.205801 0.616642 -0.071322 68 1 84
0.049322 0.101542 -0.325445 31 162 134
-0.602638 -0.202803 0.169886 47 105 141
-0.615589 -0.108549 0.451215 39 126 142
0.329596 -0.449369 -0.213953 70 49 126
-0.419638 -0.415036 -0.171438 68 1 84
-0.308719 -0.407131 -0.226450 68 1 84
-0.117469 -0.017426 -0.337124 68 1 84
0.548208 -0.525619 0.049689 43 115 142
-0.623969 -0.188811 0.430228 32 143 140
-0.436274 0.364039 0.323072 68 1 84
-0.615713 -0.060081 0.447135 31 163 134
-0.242408 -0.409322 -0.226429 68 1 84
-0.386069 -0.307246 -0.121453 69 54 129
0.511033 0.244761 0.253305 68 1 84
0.112496 0.159429 -0.283214 38 172 129
0.090348 -0.046832 -0.411836 68 1 84
-0.103953 0.577115 -0.172573 68 1 84
-0.350677 0.430731 0.062241 68 1 84
-0.598859 -0.036384 0.268194 67 60 132
0.302977 0.202473 -0.146683 58 83 139
-0.458179 -0.439255 -0.165325 68 1 84
-0.019274 0.578911 -0.201395 68 1 84
0.493550 -0.385937 -0.019189 60 78 138
-0.590549 -0.544287 0.090058 31 162 134
-0.353822 0.400581 0.034414 68 1 84
