ply
format ascii 1.0
element vertex 1254
property float x
property float y
property float z
property uchar red
property uchar green
property uchar blue
end_header
-0.013749 -0.099126 -0.414756 49 102 141
0.108248 -0.093596 -0.335458 32 145 140
0.491296 0.140234 0.007085 55 89 140
-0.648193 -0.282323 0.339507 68 1 84
0.075388 0.219942 -0.256702 35 169 130
-0.429488 -0.474396 -0.194379 72 33 114
-0.119139 0.604171 -0.116215 70 11 94
0.422399 0.224245 -0.054678 47 105 141
-0.108476 -0.020668 -0.287230 30 157 136
0.042508 -0.214158 -0.332966 69 54 129
-0.462538 0.368096 0.356621 69 52 127
0.453674 -0.370223 -0.082498 72 34 115
-0.264436 0.502979 -0.014090 61 74 137
0.432314 0.323266 0.047730 65 66 134
0.552729 -0.228941 0.068115 68 2 85
0.585847 -0.080647 0.204735 68 1 84
-0.271865 0.539418 0.069754 36 134 141
-0.460176 0.264631 0.047095 64 68 135
-0.578959 -0.417621 0.085244 60 77 138
-0.299090 0.233211 -0.138089 68 55 129
-0.128407 -0.102100 -0.300913 61 76 137
-0.484505 0.017105 -0.074414 71 44 123
0.286911 -0.399461 -0.199466 66 64 133
-0.106298 -0.169006 -0.296542 58 82 139
-0.056016 0.570306 -0.188809 70 47 124
0.231999 0.115574 -0.201044 48 104 141
0.554585 0.114558 0.373154 68 1 84
-0.188248 -0.110969 -0.211792 72 35 116
0.302978 -0.191546 -0.155397 72 34 115
-0.526685 0.191783 0.470955 68 1 84
0.145137 -0.106869 -0.231297 65 65 134
0.566015 0.053253 0.348079 68 1 84
-0.215914 -0.383124 -0.170547 68 3 87
0.527104 -0.143534 -0.006186 72 28 110
0.037237 0.026613 -0.289586 71 192 110
-0.513053 0.024442 -0.029763 72 30 112
-0.231551 0.216723 -0.183439 46 107 142
0.094823 -0.480384 -0.283821 56 86 139
0.328131 -0.407453 -0.192462 71 42 121
-0.251799 -0.175922 -0.175026 71 15 98
-0.477811 0.342297 0.340673 72 33 114
-0.339372 0.517623 0.161059 71 42 121
0.060724 0.099373 -0.282932 31 161 135
0.232153 -0.112101 -0.207489 58 83 139
0.154273 -0.086208 -0.235109 71 39 119
0.140670 0.322016 -0.212880 30 151 138
-0.181538 0.041648 -0.206776 59 80 138
0.052717 -0.385424 -0.256643 71 42 121
-0.618803 -0.119932 0.279685 69 53 128
-0.510601 -0.167196 -0.034317 71 42 121
-0.562331 -0.066232 0.030619 70 48 125
0.303978 0.431020 -0.069545 67 59 131
-0.538767 -0.457658 -0.036160 57 84 139
-0.363202 -0.060925 -0.173565 72 25 107
-0.458350 0.377717 0.341779 62 73 137
0.059042 0.125258 -0.286873 51 182 121
0.428635 0.397498 0.125936 61 74 137
-0.403077 0.150785 -0.118674 70 49 126
0.141903 -0.096092 -0.261591 64 67 135
0.048087 0.198844 -0.295177 157 217 58
0.598081 -0.098488 0.510783 68 1 84
-0.158968 0.076873 -0.223807 52 95 141
-0.383721 0.310040 -0.039509 48 103 141
0.391824 0.374642 0.023381 68 57 130
-0.609977 -0.089005 0.237977 69 52 127
0.521074 -0.384816 0.007872 70 9 92
-0.439249 0.193557 -0.050534 69 54 129
-0.562566 0.097939 0.452320 68 1 84
0.262603 0.421535 -0.119995 61 75 137
0.491607 -0.061320 -0.066674 63 71 136
0.129284 0.260633 -0.231178 30 156 137
-0.440395 -0.169809 -0.100151 71 42 121
-0.347339 0.513442 0.174002 71 38 118
-0.532444 -0.120398 -0.020982 71 39 119
-0.076014 0.382621 -0.206506 65 65 134
0.308257 0.326544 -0.102747 35 135 141
-0.012233 -0.220489 -0.353584 69 54 129
0.568559 0.038173 0.350624 68 1 84
0.403156 -0.375457 -0.118196 71 17 99
-0.591186 0.013952 0.361044 68 1 84
-0.213411 0.150672 -0.207762 47 105 141
0.504656 -0.327461 0.008155 68 1 84
-0.369457 -0.085708 -0.163508 68 1 84
-0.615108 -0.408383 0.199310 71 37 117
-0.108673 -0.425167 -0.265053 70 47 124
-0.689859 -0.416167 0.358255 68 1 84
0.621948 -0.255391 0.351451 68 1 84
0.087866 0.514236 -0.207722 68 1 84
0.649933 -0.273254 0.407565 68 1 84
-0.638938 -0.418268 0.280985 68 1 84
-0.158117 -0.426551 -0.249359 70 48 125
0.237934 0.061954 -0.203693 61 76 137
0.460304 0.380619 0.192068 68 57 130
0.144686 -0.086012 -0.287439 39 126 142
-0.287659 -0.124509 -0.183461 69 6 90
-0.366041 -0.416524 -0.196490 67 58 131
0.569353 -0.473848 0.159769 69 8 91
0.266118 0.092293 -0.196685 64 68 135
-0.652217 -0.307460 0.353407 68 1 84
0.077113 0.477540 -0.211458 68 1 84
-0.080945 0.558266 -0.190765 72 34 115
0.329514 -0.410761 -0.192498 67 59 131
0.060192 0.101240 -0.283379 30 157 136
-0.594528 -0.116347 0.120750 70 14 97
0.574185 -0.265903 0.127651 71 37 117
0.408992 0.190417 -0.092027 38 128 142
0.461058 -0.048233 -0.106147 66 64 133
0.585082 -0.149377 0.153141 71 20 102
0.422659 -0.199722 -0.099897 68 1 84
0.646535 -0.516174 0.362345 68 1 84
0.449701 -0.093191 -0.111835 64 67 135
0.594521 -0.099802 0.299836 69 6 90
0.001466 0.641540 -0.076154 44 114 142
-0.608068 -0.271538 0.163290 71 43 122
0.225257 -0.106441 -0.209940 69 54 129
0.095872 -0.267589 -0.224449 70 49 126
-0.262411 0.124095 -0.188326 53 93 140
-0.320614 0.126508 -0.176373 62 73 137
-0.097081 0.359204 -0.210910 44 114 142
0.407173 0.160002 -0.111414 33 140 141
0.578233 -0.369371 0.174968 71 44 123
0.265302 0.176766 -0.182509 46 107 142
0.509262 -0.365814 -0.004716 68 1 84
-0.159084 0.257595 -0.188829 60 77 138
0.598048 -0.147458 0.382393 68 1 84
0.588145 -0.033723 0.472636 68 1 84
0.239500 0.121721 -0.197780 46 107 142
-0.486965 -0.221270 -0.032179 60 78 138
0.634389 -0.340073 0.395057 68 1 84
-0.171046 0.143024 -0.233920 42 119 142
0.023183 -0.066364 -0.409911 107 205 89
-0.592816 -0.325939 0.121152 66 64 133
0.481640 -0.215933 -0.035822 68 1 84
-0.450821 0.256459 0.020707 67 60 132
-0.506136 0.263731 0.198588 68 1 84
-0.416061 0.435360 0.335972 46 109 142
-0.476086 0.346271 0.334865 72 30 112
-0.575143 -0.477901 0.068169 58 82 139
-0.324241 0.086798 -0.188683 56 87 140
-0.149973 0.536699 -0.146908 68 1 84
0.508909 0.152424 0.063968 58 83 139
-0.589811 -0.080879 0.112519 71 21 103
-0.543457 -0.144137 0.003788 71 43 122
-0.423995 0.433643 0.217837 59 81 138
0.646244 -0.502036 0.358794 68 1 84
0.587641 -0.098774 0.402645 68 1 84
-0.530033 -0.035637 -0.021504 72 29 111
0.519663 0.250768 0.387005 66 62 133
0.445510 0.017993 -0.124057 60 77 138
0.119371 -0.123187 -0.268681 65 65 134
0.177584 0.164170 -0.235296 57 185 118
0.491558 -0.313367 -0.000140 68 1 84
0.224806 0.551339 -0.088992 68 1 84
0.364046 0.360945 -0.030707 66 62 133
0.213037 0.505172 -0.134377 68 57 130
0.081575 0.305849 -0.249116 36 170 130
-0.581878 -0.192189 0.085188 72 25 107
0.651468 -0.311195 0.424677 68 1 84
-0.501741 0.288744 0.246724 68 1 84
-0.554073 0.118625 0.456881 68 1 84
0.137753 0.628378 -0.073943 59 81 138
0.069098 -0.155927 -0.347642 42 118 142
-0.498527 -0.512147 -0.118149 66 64 133
-0.382104 -0.513910 -0.229335 68 1 84
-0.567418 -0.106825 0.040066 71 37 117
-0.077420 0.387877 -0.204428 63 71 136
-0.421218 -0.191854 -0.103024 72 33 114
-0.593093 -0.133067 0.111739 71 15 98
0.292036 -0.311104 -0.159387 71 37 117
-0.339372 -0.105750 -0.169589 71 38 118
0.451542 0.385809 0.170775 69 52 127
-0.068911 0.573397 -0.184821 71 39 119
-0.078611 -0.406421 -0.266784 72 35 116
0.569298 0.029581 0.418785 68 1 84
-0.634194 -0.323758 0.289614 68 3 87
0.563539 -0.516374 0.146724 68 1 84
-0.547580 -0.267668 0.041132 65 66 134
0.471213 0.187882 -0.000607 62 73 137
-0.521006 0.175622 0.107611 71 15 98
0.004840 0.123732 -0.289624 30 155 137
-0.537282 0.191019 0.290172 72 26 108
-0.293547 -0.342859 -0.144670 70 48 125
-0.678268 -0.372948 0.403766 68 1 84
-0.564333 0.110410 0.351655 71 24 106
-0.301490 -0.341819 -0.143265 66 61 132
-0.109579 -0.221887 -0.267646 62 73 137
0.094170 -0.137403 -0.306081 49 102 141
-0.489077 0.212529 0.061185 72 30 112
0.147564 0.579978 -0.159638 59 81 138
-0.379206 0.175357 -0.126216 71 42 121
0.093345 0.037897 -0.251334 35 136 141
-0.471735 -0.486181 -0.160265 71 40 120
-0.028613 -0.173499 -0.383044 71 17 99
0.355561 0.138650 -0.157634 47 105 141
-0.445433 -0.263197 -0.059969 62 72 136
-0.516155 0.252512 0.377227 69 54 129
-0.317177 0.449555 -0.001073 68 1 84
0.411488 0.461144 0.206402 62 73 137
-0.025025 0.559944 -0.189026 68 1 84
-0.076538 -0.258848 -0.299265 72 32 113
0.337242 0.456694 0.010811 49 102 141
0.051987 -0.235224 -0.308009 49 102 141
0.542855 0.104831 0.144244 55 88 140
-0.607652 -0.207283 0.154192 70 14 97
0.088951 0.535756 -0.202931 68 1 84
-0.292279 -0.169061 -0.161224 68 1 84
-0.145727 0.192733 -0.254770 39 173 128
0.379472 -0.494206 -0.206312 68 1 84
-0.365826 0.324250 -0.050194 50 99 141
-0.311169 -0.162948 -0.156599 72 28 110
0.208404 0.434316 -0.150466 70 45 124
0.152082 -0.050619 -0.303900 32 145 140
0.169972 -0.044885 -0.256492 48 103 141
0.518052 0.269033 0.319031 67 58 131
0.323644 0.309997 -0.100224 39 124 142
-0.619816 -0.449194 0.202375 68 55 129
0.393069 0.297454 -0.041707 47 106 141
0.472505 0.372542 0.341989 62 72 136
-0.409324 0.264673 -0.040036 52 94 141
-0.582336 -0.340104 0.091739 63 71 136
-0.491779 0.243904 0.103691 70 49 126
-0.519026 -0.401076 -0.073595 69 50 127
0.350375 0.511110 0.187191 59 81 138
0.313446 0.385935 -0.075929 68 1 84
-0.624310 -0.134949 0.501124 68 1 84
-0.103905 0.509706 -0.192994 68 1 84
-0.331479 -0.080321 -0.182595 71 40 120
0.204645 0.106493 -0.212747 38 128 142
-0.493849 0.286807 0.176891 72 33 114
-0.518008 0.240802 0.417154 72 33 114
0.359708 0.360492 -0.036794 69 54 129
-0.579677 -0.181170 0.079229 71 38 118
-0.599090 -0.257019 0.129080 72 34 115
0.473212 -0.089094 -0.088063 70 49 126
0.547161 -0.238540 0.060917 69 5 88
-0.176866 -0.314925 -0.158551 71 17 99
0.638711 -0.311789 0.363529 68 1 84
0.214457 -0.468533 -0.240592 66 61 132
0.480124 0.293747 0.122933 53 93 140
0.365352 0.397357 0.000793 70 45 124
-0.015947 0.462991 -0.218479 71 43 122
-0.420634 -0.365686 -0.130643 60 77 138
0.657994 -0.346035 0.460364 68 1 84
-0.333930 0.523549 0.194538 66 61 132
-0.346619 0.464796 0.060981 55 89 140
0.083253 -0.197911 -0.286207 50 99 141
-0.342950 0.505143 0.130421 66 64 133
0.472945 0.373402 0.305361 64 68 135
-0.299173 0.542945 0.161289 55 88 140
-0.238237 0.465373 -0.077692 68 1 84
-0.574715 0.066871 0.288642 68 1 84
0.043118 0.253186 -0.262652 33 167 132
-0.612995 -0.072184 0.419898 68 1 84
0.555494 0.113995 0.359811 68 3 87
0.364221 -0.354163 -0.123006 72 25 107
0.343715 0.050362 -0.193925 59 80 138
-0.208419 0.436285 -0.117195 68 1 84
0.151942 -0.019369 -0.280738 51 182 121
-0.635476 -0.301865 0.294565 68 3 87
-0.051934 0.062005 -0.277928 30 157 136
0.123732 -0.272149 -0.189892 68 3 87
0.283509 0.117860 -0.186946 61 76 137
0.545897 0.142693 0.240056 70 12 95
-0.632867 -0.367259 0.266351 72 29 111
-0.165540 -0.006613 -0.263553 32 143 140
0.414252 -0.247151 -0.091392 71 43 122
-0.253743 -0.435209 -0.223654 70 48 125
0.230016 -0.505811 -0.264443 72 35 116
-0.289806 -0.335074 -0.144543 71 40 120
-0.119222 -0.079000 -0.343821 40 122 142
-0.109649 -0.176906 -0.287156 51 96 141
-0.211382 0.288122 -0.157086 71 38 118
-0.042127 -0.348560 -0.283137 71 20 102
0.541137 -0.421002 0.059841 68 1 84
0.525054 0.248179 0.307694 70 48 125
0.226219 0.080301 -0.203154 65 66 134
-0.266465 0.129778 -0.186023 51 96 141
-0.428471 0.382031 0.111143 54 90 140
-0.102496 0.133105 -0.271917 34 167 132
-0.096902 0.357209 -0.211804 44 114 142
0.569897 -0.001458 0.197758 68 1 84
-0.275374 -0.075254 -0.201209 68 57 130
0.082463 0.406460 -0.204807 69 52 127
0.630774 -0.294632 0.326417 68 1 84
-0.219599 -0.157468 -0.194245 71 20 102
-0.095171 0.523410 -0.196277 68 1 84
-0.220139 0.469181 -0.095807 68 1 84
0.605149 -0.224504 0.464013 68 1 84
-0.064551 0.218763 -0.266969 53 183 120
0.289565 0.061928 -0.203692 52 94 141
-0.497105 0.246585 0.124247 71 38 118
-0.162835 -0.028077 -0.293073 30 155 137
0.483285 0.342155 0.220044 72 32 113
0.492748 0.014091 -0.057963 61 76 137
0.355057 -0.012862 -0.194739 46 109 142
-0.596260 -0.090673 0.137921 70 14 97
0.215648 -0.469852 -0.241643 67 59 131
-0.135396 -0.197879 -0.239397 52 94 141
-0.644045 -0.247496 0.322609 69 8 91
-0.609261 -0.494304 0.162248 70 47 124
-0.005107 -0.200332 -0.366928 69 53 128
-0.112822 -0.232005 -0.256296 67 58 131
0.154943 -0.242050 -0.184924 68 1 84
-0.112634 -0.495391 -0.290404 68 1 84
-0.620557 -0.482388 0.199706 71 24 106
-0.110019 0.099249 -0.257186 41 121 142
-0.317275 0.014652 -0.201989 61 75 137
0.163396 0.237440 -0.204306 42 119 142
-0.622175 -0.426709 0.213950 72 35 116
0.380680 0.387108 0.016558 66 64 133
0.252976 0.562160 0.019679 68 1 84
0.075610 0.154120 -0.288638 68 190 112
0.476892 -0.039253 -0.087214 66 64 133
0.027326 -0.177110 -0.373228 53 93 140
0.295650 -0.384187 -0.176442 71 24 106
0.152955 -0.494379 -0.277589 62 73 137
-0.746538 -0.458400 0.399735 68 1 84
-0.037118 -0.047036 -0.400437 116 208 84
0.578667 0.000850 0.448339 68 1 84
0.625325 -0.261955 0.351348 68 1 84
0.057139 -0.047415 -0.383139 124 210 79
-0.085831 -0.300270 -0.263016 71 15 98
0.104361 -0.117425 -0.311177 39 126 142
0.291088 0.516187 0.004112 68 1 84
0.513961 0.228198 0.155823 55 89 140
0.259882 0.557221 0.026375 68 1 84
0.452248 0.395264 0.357935 62 73 137
-0.032202 -0.172923 -0.382027 70 14 97
-0.590196 -0.152916 0.100972 71 24 106
-0.204645 0.187518 -0.211944 45 111 142
-0.204470 0.498539 -0.101845 68 1 84
-0.555087 -0.105080 0.014451 72 28 110
0.239197 -0.380941 -0.154010 70 12 95
-0.413131 -0.365170 -0.134267 61 74 137
-0.427626 0.197867 -0.063354 64 67 135
0.415602 0.440152 0.165642 61 75 137
-0.598712 -0.121778 0.135633 71 20 102
0.118111 -0.400632 -0.207592 72 34 115
-0.504717 0.251286 0.162883 72 26 108
-0.042628 -0.127850 -0.403143 54 90 140
-0.546265 0.145371 0.413568 68 1 84
-0.085418 -0.028496 -0.322380 32 165 133
-0.212706 0.550546 -0.023868 71 18 101
-0.448671 -0.184946 -0.088161 69 50 127
-0.442238 -0.400122 -0.154916 72 35 116
0.604932 -0.156373 0.301400 68 1 84
-0.117466 -0.322341 -0.200115 72 34 115
0.566736 0.033936 0.482472 68 1 84
0.541661 -0.070352 0.017384 66 61 132
0.499369 -0.326146 0.002783 68 1 84
-0.508113 0.046224 -0.028959 72 29 111
0.546636 0.071917 0.120415 70 47 124
0.387316 -0.357217 -0.111214 69 5 88
0.328622 -0.487673 -0.225289 68 1 84
0.568844 -0.244317 0.106509 71 18 101
0.361752 0.406532 0.003812 72 35 116
-0.569091 -0.352314 0.054497 58 83 139
0.395459 -0.373341 -0.120650 69 5 88
-0.256579 -0.387167 -0.182826 72 25 107
-0.191884 -0.420982 -0.225309 64 67 135
0.157176 -0.073699 -0.278462 48 104 141
0.460439 -0.050327 -0.106701 69 54 129
-0.663272 -0.303350 0.387889 68 1 84
0.339358 0.448436 0.005638 59 80 138
0.016172 -0.448907 -0.283544 71 21 103
-0.366380 0.480244 0.129929 63 69 135
-0.312186 0.536192 0.164615 66 61 132
-0.111844 -0.176649 -0.283209 50 98 141
0.289077 -0.388366 -0.182782 71 42 121
-0.536583 -0.181765 0.010434 69 54 129
-0.727228 -0.417170 0.427977 68 1 84
0.304151 0.084537 -0.195699 60 78 138
-0.611829 -0.079667 0.378159 71 24 106
0.161208 0.554550 -0.162553 65 65 134
0.559528 0.062201 0.234579 68 1 84
-0.133218 -0.187111 -0.246681 65 66 134
0.083673 0.057783 -0.259522 33 141 140
0.479570 0.345753 0.206183 71 15 98
-0.229592 -0.403379 -0.195389 71 38 118
-0.602784 -0.054735 0.516208 68 1 84
-0.205997 0.079608 -0.206046 57 85 139
-0.146566 -0.347025 -0.177822 71 43 122
-0.337669 0.515578 0.146951 72 35 116
0.490806 0.308596 0.177416 65 65 134
0.535294 0.064844 0.069746 62 72 136
0.331073 0.264685 -0.116698 39 173 128
0.593390 -0.102927 0.249386 71 15 98
-0.514119 -0.338624 -0.035508 63 71 136
0.507880 -0.165426 -0.028262 68 1 84
0.296212 -0.522995 -0.252987 68 3 87
0.630232 -0.285388 0.330453 68 1 84
0.025616 0.518829 -0.209474 68 1 84
-0.220203 -0.339561 -0.146066 71 22 105
0.100036 0.619755 -0.142510 65 65 134
0.476744 -0.295162 -0.010701 68 1 84
0.500106 -0.459793 -0.053060 70 14 97
0.665594 -0.493698 0.458354 68 1 84
-0.518573 0.224689 0.449594 72 30 112
0.518509 0.193802 0.494051 70 12 95
0.448051 0.239110 -0.001893 54 90 140
0.418533 0.446136 0.188166 71 38 118
-0.452576 0.251071 0.018872 67 59 131
-0.435998 0.374469 0.119305 53 92 140
-0.019888 -0.037040 -0.399879 173 220 48
-0.144392 0.059120 -0.222591 53 92 140
-0.409988 -0.308632 -0.085638 60 78 138
0.447161 0.077423 -0.109272 54 90 140
0.290727 0.484471 -0.050796 70 47 124
-0.487097 0.078057 -0.050177 69 54 129
0.395021 -0.520209 -0.197290 68 1 84
-0.377250 -0.495778 -0.229823 68 1 84
0.406358 0.453262 0.167099 59 81 138
-0.514103 -0.364652 -0.056788 61 75 137
-0.394012 0.362423 0.021140 48 103 141
-0.522098 0.239661 0.367625 70 47 124
-0.136895 -0.083095 -0.311150 36 132 141
-0.093272 -0.305916 -0.247101 68 1 84
-0.590808 -0.035467 0.159993 71 24 106
0.153888 0.203746 -0.249848 124 210 79
0.460108 0.396402 0.266009 49 100 141
-0.608023 -0.381399 0.180143 71 39 119
0.587284 -0.071327 0.238391 68 1 84
0.181445 -0.247649 -0.169424 68 1 84
-0.052701 0.583215 -0.177701 64 68 135
-0.532337 0.214137 0.378142 69 50 127
0.273235 0.027938 -0.211982 49 100 141
0.358132 -0.508462 -0.221585 68 1 84
0.161212 0.007802 -0.218497 39 125 142
0.578665 -0.037151 0.215846 68 1 84
-0.572178 -0.294200 0.068291 66 62 133
0.570317 -0.017640 0.169574 68 1 84
0.043105 0.080634 -0.285717 43 177 125
-0.499466 0.180009 0.052414 71 42 121
0.284511 0.046741 -0.207983 58 83 139
0.018928 -0.181932 -0.373562 54 91 140
-0.204393 -0.023683 -0.206939 50 98 141
-0.631337 -0.158629 0.474308 68 1 84
-0.618006 -0.101517 0.292434 64 67 135
-0.116334 -0.255510 -0.237401 70 12 95
0.009936 -0.485154 -0.291604 72 30 112
-0.576458 -0.454706 0.075151 65 66 134
-0.292598 0.407583 -0.056193 68 1 84
-0.604753 -0.068381 0.223274 71 38 118
-0.719144 -0.472561 0.363179 68 1 84
-0.326644 -0.302302 -0.143931 55 88 140
-0.202873 -0.470134 -0.276358 68 55 129
0.345488 0.372759 -0.044760 71 17 99
-0.492904 -0.263755 -0.010811 64 67 135
0.608165 -0.471422 0.289130 68 1 84
-0.535686 0.000070 -0.000479 68 1 84
-0.589849 0.007728 0.248130 68 57 130
-0.335782 -0.512786 -0.251311 68 1 84
-0.596457 -0.034104 0.492155 68 1 84
0.283097 -0.304066 -0.162279 72 28 110
-0.370735 0.217087 -0.110978 62 72 136
-0.443714 -0.293391 -0.059629 50 98 141
0.001765 -0.363544 -0.281055 70 9 92
0.012713 0.477543 -0.220918 69 5 88
0.558655 0.088301 0.284315 68 1 84
-0.132306 0.191604 -0.263613 46 178 124
0.580795 -0.012428 0.505279 68 1 84
-0.712572 -0.396812 0.450308 68 1 84
0.551455 0.103302 0.222334 72 28 110
-0.365838 0.497385 0.179342 68 57 130
0.289967 0.170117 -0.170547 50 99 141
-0.528064 -0.418820 -0.060370 65 65 134
0.521511 0.062199 0.027645 59 81 138
-0.509672 -0.420752 -0.099171 68 57 130
-0.474047 0.349415 0.341103 72 29 111
-0.442305 0.103013 -0.099402 71 42 121
-0.294998 0.375784 -0.073288 70 47 124
0.350408 0.396086 -0.021449 72 28 110
0.547827 -0.090794 0.028560 63 71 136
0.550514 0.138408 0.310851 72 32 113
0.535085 -0.385354 0.039083 68 1 84
-0.133830 0.313918 -0.211949 38 128 142
-0.436661 -0.175285 -0.100169 71 44 123
-0.594237 -0.002861 0.378855 68 1 84
-0.096203 -0.424798 -0.267938 69 50 127
-0.563195 0.006031 0.064836 70 49 126
-0.297006 -0.352377 -0.144947 70 49 126
0.596497 -0.357069 0.239884 68 1 84
0.130046 -0.032988 -0.298798 35 168 131
-0.560609 -0.055183 0.028953 71 38 118
-0.202661 0.334024 -0.155834 71 22 105
0.539134 0.120202 0.489412 68 2 85
-0.373617 0.355247 -0.016368 72 33 114
-0.242638 0.035570 -0.208337 51 97 141
0.524848 -0.172159 -0.000331 70 9 92
0.099858 -0.112439 -0.329647 34 139 141
-0.637582 -0.184428 0.379072 68 1 84
-0.495847 0.300467 0.367900 71 20 102
0.551485 0.085221 0.180588 68 3 87
-0.163415 0.221369 -0.227882 32 144 140
0.129592 -0.375371 -0.175072 70 14 97
-0.646658 -0.338336 0.326286 68 1 84
0.430654 -0.440015 -0.159146 68 1 84
-0.706885 -0.408203 0.403832 68 1 84
0.471972 0.296641 0.105135 61 76 137
0.341773 -0.334708 -0.126781 68 1 84
-0.201216 0.246795 -0.167823 72 28 110
0.193774 0.401036 -0.167133 71 24 106
0.630035 -0.343878 0.376130 68 1 84
0.062591 -0.340527 -0.239099 68 57 130
-0.640961 -0.282063 0.315773 68 1 84
-0.428568 0.429508 0.300614 61 75 137
-0.560887 0.083232 0.486337 68 1 84
0.136661 -0.232352 -0.204209 71 37 117
0.312950 0.170579 -0.159502 63 71 136
0.135995 0.114406 -0.249138 42 176 126
-0.545157 0.162467 0.264602 69 6 90
-0.030506 -0.221327 -0.350140 72 30 112
-0.549072 0.156836 0.368980 70 12 95
-0.342842 0.153246 -0.156453 64 68 135
0.078533 -0.077355 -0.375928 56 185 118
-0.157049 0.468603 -0.156253 68 1 84
0.341351 -0.274669 -0.141214 72 25 107
0.172896 0.521987 -0.163679 58 82 139
0.435960 0.393381 0.138689 61 76 137
0.285352 -0.063987 -0.209806 38 128 142
0.626542 -0.266343 0.346866 68 1 84
0.594461 -0.212917 0.191197 70 11 94
0.454217 0.061650 -0.105040 55 89 140
-0.070902 -0.285863 -0.289375 71 18 101
0.360806 -0.526191 -0.223659 68 1 84
0.057848 0.219368 -0.264106 62 188 115
-0.426470 0.196230 -0.066002 60 77 138
-0.028570 0.587386 -0.167530 69 52 127
-0.507549 0.221151 0.124230 71 44 123
0.595259 -0.142391 0.369086 68 1 84
-0.163689 0.579236 -0.073049 72 30 112
0.278538 -0.100131 -0.202536 54 90 140
0.157878 -0.345683 -0.147517 68 1 84
-0.626325 -0.160526 0.294710 68 1 84
-0.583668 -0.350173 0.097290 65 65 134
-0.552243 -0.315970 0.032329 60 78 138
-0.489120 0.047929 -0.059482 70 47 124
-0.441492 0.390169 0.165182 70 11 94
0.340813 -0.380341 -0.165358 71 18 101
0.122078 -0.117209 -0.269886 63 71 136
0.659475 -0.345803 0.493294 68 1 84
0.128087 -0.215311 -0.220179 64 68 135
-0.629244 -0.145639 0.433404 68 1 84
0.205326 -0.205919 -0.181017 69 54 129
-0.623276 -0.475078 0.208746 72 33 114
-0.300205 0.368223 -0.073955 64 68 135
-0.618358 -0.112806 0.499025 68 1 84
0.540083 0.005282 0.043868 62 72 136
0.178769 -0.213493 -0.187836 70 49 126
-0.287932 0.544418 0.123760 36 132 141
-0.503627 0.283829 0.353460 69 6 90
-0.088343 -0.264584 -0.278739 71 15 98
-0.607277 -0.395212 0.177323 71 38 118
-0.451441 -0.387859 -0.138864 71 44 123
0.105995 -0.013493 -0.261249 42 118 142
-0.086520 -0.028253 -0.315990 32 164 133
0.547140 0.138439 0.420716 72 32 113
-0.490864 -0.076487 -0.075153 61 75 137
-0.226572 -0.160685 -0.191226 71 38 118
-0.506576 0.246237 0.162342 71 20 102
0.548811 0.147211 0.317145 71 21 103
0.229925 0.372532 -0.154648 45 110 142
-0.395573 0.443695 0.129989 70 14 97
0.478232 -0.247662 -0.021547 68 1 84
0.024028 0.266913 -0.269034 47 179 123
0.517560 0.230494 0.177394 55 88 140
0.085258 0.500479 -0.209701 68 1 84
0.645790 -0.262536 0.458102 68 1 84
-0.574768 -0.297863 0.072542 65 66 134
0.062138 0.556804 -0.191468 68 1 84
0.571387 -0.089304 0.107143 60 78 138
0.662320 -0.486324 0.407678 68 1 84
0.207273 0.159300 -0.216274 33 142 140
0.593469 -0.127780 0.218901 68 2 85
-0.048778 0.214566 -0.278636 94 201 97
0.515131 -0.236469 0.016140 68 1 84
0.564686 0.048587 0.405730 68 1 84
0.548073 0.139323 0.265633 72 28 110
0.243199 0.397391 -0.140859 47 105 141
0.367872 0.494307 0.159243 67 60 132
0.454424 -0.448234 -0.138029 68 1 84
-0.114826 -0.407814 -0.252009 57 85 139
0.345826 0.507192 0.127854 67 59 131
-0.181392 0.559054 -0.077665 68 1 84
0.596742 -0.329233 0.237746 68 1 84
0.146726 0.178798 -0.256941 131 211 75
0.296444 0.500922 -0.013259 69 8 91
-0.458978 -0.369117 -0.116043 62 72 136
-0.229418 -0.409704 -0.202282 72 34 115
0.391378 0.467802 0.157511 62 72 136
0.659365 -0.343754 0.490956 68 1 84
0.182214 0.292206 -0.191752 34 137 141
0.588756 -0.099690 0.348077 68 1 84
-0.286189 0.180516 -0.163510 57 85 139
0.398507 -0.555441 -0.189268 68 1 84
0.233231 0.564685 -0.044021 68 1 84
-0.577507 0.017407 0.156409 69 50 127
0.492725 0.236252 0.095306 51 97 141
0.600714 -0.126294 0.492379 68 1 84
-0.587449 -0.315583 0.102886 66 61 132
0.042277 0.088020 -0.287063 47 179 123
0.499600 -0.044403 -0.054857 72 35 116
0.453572 0.346886 0.120327 64 68 135
-0.611561 -0.068540 0.292398 71 39 119
0.599729 -0.143785 0.419843 68 1 84
0.411688 -0.073392 -0.148368 57 85 139
0.561656 0.083170 0.320602 68 1 84
0.105832 -0.029268 -0.275180 47 105 141
-0.191445 0.217179 -0.208688 43 116 142
0.079011 -0.118892 -0.362662 43 177 125
-0.602866 -0.265760 0.142331 70 48 125
-0.694509 -0.406730 0.380512 68 1 84
-0.167384 -0.383028 -0.188911 72 35 116
0.653167 -0.291343 0.411391 68 1 84
-0.646981 -0.342593 0.324762 68 1 84
-0.589154 -0.031332 0.154528 72 25 107
0.095438 0.340562 -0.225135 44 177 125
-0.014329 0.393880 -0.209630 71 15 98
-0.126180 0.458331 -0.178844 71 15 98
0.560626 0.069952 0.267685 71 15 98
-0.609975 -0.061059 0.293012 68 55 129
0.150763 0.095749 -0.236106 30 158 136
-0.576892 0.061781 0.306764 68 3 87
-0.216672 0.559150 0.013388 47 105 141
0.062193 0.537756 -0.202743 68 1 84
-0.471908 0.347495 0.208291 71 15 98
0.265603 0.527474 -0.041432 68 1 84
-0.320645 0.449593 0.003064 69 5 88
-0.651851 -0.297607 0.352517 68 1 84
0.260378 -0.051960 -0.215186 38 127 142
0.036118 0.605127 -0.143559 58 83 139
0.174630 -0.277281 -0.163068 68 1 84
0.263862 0.518360 -0.060441 68 1 84
0.461064 0.092000 -0.085874 56 87 140
0.006155 -0.368213 -0.279097 69 5 88
0.481602 0.356035 0.303581 68 57 130
0.667590 -0.439932 0.457330 68 1 84
-0.591242 -0.399078 0.125566 65 66 134
-0.587708 0.027413 0.352609 68 1 84
-0.409705 -0.207511 -0.105633 71 38 118
0.424289 0.215108 -0.058725 46 109 142
-0.232034 0.228814 -0.176022 57 84 139
-0.558682 -0.386668 0.020931 51 97 141
0.185302 0.142056 -0.228110 35 136 141
0.092678 0.102499 -0.270054 32 145 140
-0.482108 0.325208 0.204747 68 2 85
0.568297 -0.235610 0.103273 71 18 101
-0.277647 -0.150612 -0.175995 69 8 91
-0.572682 0.040658 0.520650 68 1 84
0.555518 0.003082 0.096527 72 34 115
0.439744 0.140465 -0.088832 56 87 140
-0.385116 0.480850 0.197087 69 52 127
-0.018831 0.220609 -0.273157 61 187 116
0.589763 -0.212873 0.170467 69 5 88
-0.469893 0.353466 0.367653 67 59 131
-0.151181 -0.471629 -0.285511 70 47 124
-0.500736 0.186673 0.062698 72 33 114
-0.452765 0.069817 -0.099804 71 38 118
0.526924 -0.478752 0.031714 69 8 91
0.136085 0.419238 -0.188941 68 1 84
-0.633628 -0.308645 0.285119 70 9 92
0.258563 -0.318067 -0.159264 71 44 123
-0.007092 0.381773 -0.212731 69 54 129
-0.204046 -0.385962 -0.174508 71 24 106
0.581985 -0.021497 0.331911 68 1 84
-0.616555 -0.361894 0.208538 70 48 125
0.306242 0.446596 -0.055197 70 45 124
-0.050859 -0.486086 -0.291320 68 1 84
0.492460 0.293198 0.159236 71 43 122
-0.624791 -0.129537 0.439712 68 1 84
-0.426915 -0.093925 -0.129073 71 40 120
0.464413 0.384140 0.233718 71 38 118
-0.190733 0.033224 -0.205283 60 78 138
-0.511659 -0.250771 0.006284 66 61 132
-0.326980 0.155249 -0.161599 61 74 137
-0.258357 -0.139157 -0.187673 68 1 84
-0.292388 0.525487 0.073980 43 116 142
0.244041 0.289076 -0.153684 32 145 140
-0.362487 0.357302 -0.029024 72 25 107
0.481578 0.353084 0.259595 67 58 131
-0.055168 -0.114379 -0.401838 49 100 141
-0.373651 0.085702 -0.164301 71 38 118
0.574138 0.012232 0.350668 68 1 84
0.393499 -0.539714 -0.196317 68 1 84
-0.111355 0.589425 -0.149930 70 12 95
0.566636 -0.035859 0.119926 68 1 84
-0.566275 0.089093 0.458829 68 1 84
0.333336 0.038896 -0.199873 53 92 140
-0.497585 0.304497 0.279400 71 17 99
0.131401 0.035474 -0.231765 34 137 141
0.189223 0.319003 -0.184378 55 88 140
-0.329516 0.503637 0.097554 68 55 129
-0.623144 -0.154858 0.278250 71 42 121
0.553811 0.088970 0.463919 68 1 84
0.313822 0.443490 -0.044714 68 1 84
-0.323620 0.432106 -0.009762 64 67 135
-0.045612 0.274506 -0.268643 54 184 119
0.141349 -0.492441 -0.279151 57 84 139
-0.588882 -0.004178 0.423638 68 1 84
-0.572633 0.064881 0.249652 71 17 99
-0.012251 0.329194 -0.241729 46 109 142
-0.560953 0.097347 0.424906 68 1 84
-0.643223 -0.192975 0.437214 68 1 84
0.406692 0.387701 0.064466 65 65 134
-0.639973 -0.186394 0.393659 68 1 84
-0.083144 -0.428600 -0.272709 72 33 114
-0.203801 0.142461 -0.213147 49 101 141
0.618530 -0.374416 0.343228 68 1 84
0.086475 -0.039912 -0.332869 41 175 127
-0.345321 -0.167074 -0.142222 68 1 84
0.564090 -0.500902 0.147618 68 1 84
-0.185507 0.098441 -0.216301 45 111 142
0.179455 0.231178 -0.196226 38 129 142
-0.210384 -0.105713 -0.207360 72 32 113
-0.168417 0.560211 -0.100574 68 1 84
0.479303 0.337071 0.185148 70 49 126
0.550885 0.131526 0.287567 68 2 85
-0.553916 -0.137282 0.020085 72 26 108
-0.582055 -0.430860 0.094594 62 72 136
0.124203 -0.094249 -0.311093 42 118 142
-0.488255 0.032448 -0.065563 69 54 129
-0.636906 -0.227164 0.299437 71 15 98
0.520706 -0.364669 0.014298 68 1 84
0.339144 -0.016098 -0.201390 46 107 142
0.332969 0.382211 -0.053444 71 40 120
0.546993 0.145224 0.264300 72 29 111
0.038331 0.127755 -0.289903 40 174 127
0.216540 -0.132387 -0.206031 56 86 139
-0.107765 0.004807 -0.258112 33 141 140
0.259053 -0.452382 -0.214930 69 53 128
-0.448847 0.276062 0.035781 65 66 134
0.667191 -0.432227 0.450071 68 1 84
0.628372 -0.348008 0.371945 68 1 84
-0.478253 0.319103 0.168357 72 33 114
-0.108926 0.442089 -0.186829 68 1 84
0.043554 -0.191297 -0.349920 46 108 142
0.181220 0.605472 -0.056125 68 1 84
0.415242 0.274901 -0.025982 50 99 141
-0.422028 0.431252 0.192300 64 67 135
0.602559 -0.159921 0.449345 68 1 84
0.498375 -0.397811 -0.040896 71 18 101
0.445961 0.284730 0.035041 67 59 131
0.083002 0.638320 -0.093104 71 18 101
-0.399586 0.365277 0.033788 46 107 142
-0.561484 -0.101310 0.026515 72 28 110
0.549030 0.105127 0.196385 72 34 115
0.644457 -0.271616 0.493637 68 1 84
0.244368 -0.132280 -0.199856 55 88 140
0.265982 -0.319036 -0.158755 72 29 111
-0.475692 0.348956 0.317387 71 42 121
-0.080577 -0.482625 -0.290291 68 1 84
-0.564778 0.101594 0.278738 71 20 102
-0.006079 0.192234 -0.300840 144 214 67
-0.454325 0.364982 0.416572 57 84 139
-0.619107 -0.110062 0.455917 68 1 84
0.316766 -0.194422 -0.149366 68 1 84
0.091095 0.333354 -0.229786 44 177 125
0.368546 -0.422957 -0.176049 68 1 84
-0.561102 0.109198 0.262271 68 1 84
0.648804 -0.411778 0.396202 68 1 84
-0.229269 -0.425435 -0.217209 71 38 118
-0.104650 -0.412072 -0.259606 69 50 127
-0.285833 0.169253 -0.168107 58 83 139
0.571514 -0.213292 0.107577 68 1 84
0.064802 -0.139742 -0.368950 31 149 139
0.542057 -0.173896 0.029606 72 28 110
-0.086485 -0.197533 -0.318538 71 40 120
-0.489217 0.046411 -0.059841 71 44 123
-0.273921 -0.083845 -0.199454 71 43 122
0.221121 0.134064 -0.207480 46 109 142
0.578971 -0.017279 0.267036 68 3 87
0.305746 0.228719 -0.144428 81 196 104
-0.612512 -0.085858 0.471952 68 1 84
-0.043092 -0.165793 -0.382868 72 29 111
0.398191 -0.089407 -0.153560 50 99 141
-0.282178 0.503968 0.014310 69 52 127
0.584256 -0.164319 0.147805 71 15 98
-0.272525 0.245977 -0.147217 69 54 129
0.048544 0.559160 -0.185199 68 1 84
0.171440 0.407134 -0.176186 64 68 135
-0.179958 0.286446 -0.178398 67 60 132
0.136544 0.164302 -0.260743 107 205 89
0.438952 0.362205 0.103118 53 92 140
0.441926 -0.280306 -0.050585 71 22 105
0.068952 0.312584 -0.249032 48 180 122
-0.091989 -0.035076 -0.349382 34 167 132
-0.111815 -0.368694 -0.225919 71 37 117
-0.187530 0.242355 -0.177119 60 77 138
0.642486 -0.369920 0.419065 68 1 84
-0.416203 0.022870 -0.144434 59 80 138
0.537701 -0.411554 0.047902 68 1 84
0.381368 -0.258329 -0.115140 70 45 124
0.259440 0.543759 -0.021355 68 1 84
-0.616196 -0.285030 0.202890 68 57 130
-0.517853 0.221382 0.176225 68 1 84
-0.246090 -0.176431 -0.177567 72 26 108
-0.414204 0.324832 0.019324 71 18 101
0.014429 0.008371 -0.348832 253 231 36
-0.435245 0.135761 -0.092456 71 37 117
-0.511920 -0.458502 -0.099406 62 72 136
0.576733 -0.197254 0.121312 68 1 84
0.444902 0.373527 0.133249 59 80 138
0.351731 0.189327 -0.135005 55 89 140
-0.437100 -0.032834 -0.127848 66 62 133
0.018242 0.189787 -0.300795 194 223 34
-0.028121 0.054320 -0.289946 57 185 118
0.113503 0.072922 -0.246974 33 140 141
-0.458198 -0.105550 -0.105063 66 64 133
0.209095 0.284465 -0.173454 54 91 140
0.075513 -0.123297 -0.365317 34 167 132
0.472370 0.362609 0.210213 66 64 133
0.106952 0.141771 -0.271538 53 183 120
-0.171195 0.283824 -0.184747 54 90 140
0.599655 -0.132533 0.261517 68 1 84
-0.005621 0.093196 -0.292668 30 153 138
0.600164 -0.106347 0.483301 68 1 84
0.552258 0.075882 0.487391 68 1 84
-0.646272 -0.266621 0.329743 68 2 85
0.281254 0.452319 -0.089618 63 69 135
-0.391873 0.476449 0.215956 63 69 135
-0.117358 -0.025546 -0.311398 31 161 135
-0.019595 -0.127305 -0.408392 54 90 140
0.253883 -0.483055 -0.241362 72 34 115
0.502497 0.290773 0.419120 69 5 88
-0.546953 0.140896 0.418888 68 1 84
0.286680 0.495984 -0.044450 64 68 135
0.611001 -0.243616 0.297886 68 1 84
0.045472 -0.015702 -0.355588 191 223 36
-0.423732 -0.384096 -0.148185 67 59 131
-0.354487 0.204234 -0.127090 70 49 126
-0.138173 0.034634 -0.227281 49 102 141
-0.236387 -0.244834 -0.161686 63 71 136
0.082290 -0.105653 -0.365446 64 189 114
-0.580214 -0.350287 0.086572 66 61 132
0.285588 -0.489830 -0.238290 71 20 102
-0.686492 -0.439678 0.339898 68 1 84
0.540389 0.137415 0.469815 68 1 84
-0.168569 0.233174 -0.204595 56 86 139
0.376461 -0.385469 -0.141780 69 6 90
0.558618 -0.015775 0.095184 71 24 106
0.651797 -0.294058 0.407986 68 1 84
0.103367 0.213224 -0.260982 48 180 122
0.589635 -0.382025 0.218750 65 65 134
-0.485003 0.324907 0.230398 72 25 107
0.124883 -0.102695 -0.296441 41 120 142
-0.549148 0.117552 0.169352 70 14 97
0.549892 0.137167 0.290271 71 17 99
-0.506526 -0.247121 0.000718 63 69 135
0.517889 0.265763 0.269173 62 73 137
-0.528244 -0.094497 -0.029654 70 45 124
-0.289769 0.337908 -0.096196 69 54 129
0.452422 -0.167346 -0.091845 71 22 105
-0.516647 -0.256010 0.011705 68 55 129
0.200288 0.405137 -0.163032 58 82 139
0.339182 0.025656 -0.199333 54 90 140
0.005112 0.504930 -0.215170 68 1 84
-0.465878 0.368838 0.301620 67 59 131
-0.011862 -0.259755 -0.328959 68 1 84
0.168287 0.601148 -0.110156 68 1 84
-0.049166 0.176538 -0.299266 181 221 43
-0.498312 -0.318248 -0.035798 63 71 136
-0.576445 0.027807 0.521319 68 1 84
-0.610296 -0.382733 0.187450 72 25 107
-0.524778 -0.087698 -0.034516 72 34 115
0.583681 -0.025978 0.379641 68 1 84
-0.148131 -0.093755 -0.248095 57 85 139
0.300544 0.203132 -0.155624 32 145 140
-0.425848 -0.224144 -0.092243 70 47 124
0.325265 0.490042 0.036419 39 126 142
-0.489075 0.232232 0.082470 70 11 94
-0.392391 0.172754 -0.117033 72 30 112
-0.419135 0.437358 0.199328 67 58 131
-0.226854 -0.338979 -0.147627 71 15 98
0.242725 0.293194 -0.154395 31 150 139
-0.559427 0.102440 0.411405 68 1 84
0.369298 0.462653 0.087883 37 131 141
0.106123 -0.042253 -0.326452 46 178 124
0.557838 -0.378193 0.105525 72 29 111
0.186043 0.263290 -0.183911 39 125 142
0.493639 0.013901 -0.056387 60 77 138
-0.466103 -0.051296 -0.100348 71 17 99
-0.183671 0.060878 -0.210647 52 95 141
-0.153688 0.071461 -0.223378 51 96 141
0.535096 0.154611 0.170852 64 67 135
0.187145 -0.372926 -0.152260 69 8 91
0.115354 -0.019468 -0.270102 38 127 142
-0.076508 -0.172278 -0.352308 66 64 133
-0.548687 -0.437004 -0.009382 61 74 137
0.232272 -0.109491 -0.208094 71 37 117
-0.049014 0.298444 -0.262739 33 166 133
0.155369 -0.078809 -0.268661 56 86 139
0.316637 -0.259291 -0.147871 68 1 84
0.587783 -0.235420 0.164750 71 20 102
0.113307 -0.216291 -0.234900 70 48 125
-0.402715 -0.142802 -0.129463 68 2 85
-0.289458 0.356930 -0.086373 64 68 135
0.648093 -0.277840 0.494014 68 1 84
-0.347023 0.083220 -0.179710 58 82 139
-0.115372 0.500625 -0.186448 68 1 84
-0.104717 -0.023798 -0.294403 31 161 135
-0.641222 -0.187610 0.429422 68 1 84
0.535738 -0.480769 0.061545 69 6 90
-0.456134 0.044726 -0.102463 71 37 117
0.298637 -0.406588 -0.203902 67 60 132
-0.294763 0.542589 0.134406 40 122 142
0.422969 0.246728 -0.036572 53 92 140
-0.109678 0.326828 -0.221610 40 122 142
0.428706 -0.312220 -0.065558 68 1 84
0.131338 -0.253149 -0.195532 72 25 107
-0.266088 0.371712 -0.093291 70 9 92
-0.635508 -0.171859 0.462173 68 1 84
0.465620 0.101650 -0.073987 60 78 138
-0.519330 0.182539 0.111687 72 29 111
-0.420570 0.145394 -0.103862 70 11 94
0.050060 0.592646 -0.157951 67 58 131
-0.545262 0.053177 0.052173 70 48 125
0.659286 -0.335177 0.497064 68 1 84
-0.675560 -0.279863 0.411011 68 1 84
0.338151 -0.484375 -0.220546 69 8 91
0.460598 -0.324208 -0.035490 68 1 84
-0.195697 0.413356 -0.134686 68 1 84
-0.506819 0.007131 -0.045675 69 50 127
-0.054038 -0.017032 -0.360420 81 196 104
-0.044606 -0.485460 -0.291445 68 1 84
-0.062495 0.310479 -0.251390 30 160 135
-0.148524 0.430505 -0.167022 68 2 85
-0.499070 -0.348943 -0.062767 59 81 138
0.359229 0.504990 0.193849 63 69 135
0.651514 -0.478066 0.365835 68 1 84
0.293122 -0.126180 -0.190274 66 61 132
-0.613750 -0.255597 0.185745 70 47 124
0.589447 -0.077900 0.418999 68 1 84
0.554825 0.063165 0.169551 68 1 84
-0.182912 0.541992 -0.099108 68 1 84
0.623280 -0.344981 0.326364 68 1 84
0.381091 0.473968 0.142024 66 64 133
-0.445548 -0.436081 -0.175811 72 35 116
-0.160922 0.527621 -0.138871 68 1 84
0.465997 -0.104841 -0.094281 71 39 119
0.461734 0.386916 0.220723 65 65 134
0.428941 0.332169 0.050258 71 37 117
-0.523900 0.051088 0.003017 71 43 122
-0.194518 0.568103 -0.019458 55 88 140
0.404201 0.367280 0.038758 66 62 133
-0.284895 -0.181577 -0.158434 71 22 105
0.390028 0.170529 -0.120564 34 138 141
0.120178 -0.245916 -0.210949 61 74 137
-0.388435 0.480411 0.244918 44 113 142
0.593586 -0.121853 0.226452 68 1 84
0.344446 0.312418 -0.084220 61 75 137
0.574395 0.011748 0.308661 71 22 105
-0.173588 -0.050899 -0.212554 46 108 142
-0.596420 -0.360682 0.138774 65 65 134
-0.450093 0.369053 0.423651 53 92 140
0.425026 0.379295 0.092015 59 81 138
0.380502 0.402085 0.031777 65 65 134
-0.191684 0.156100 -0.221960 45 110 142
0.483446 0.319871 0.169913 71 44 123
-0.391425 0.383931 0.039161 54 91 140
-0.063901 0.046950 -0.267863 35 168 131
0.119872 -0.130757 -0.257420 68 55 129
-0.103927 -0.311133 -0.225405 71 22 105
0.253677 0.526261 -0.069082 68 1 84
0.606966 -0.406944 0.303856 68 1 84
-0.040392 -0.006124 -0.317645 141 214 68
-0.338124 0.519324 0.164075 70 47 124
-0.133170 0.158457 -0.260349 75 194 108
-0.545092 -0.098688 -0.003887 72 30 112
-0.356225 0.047176 -0.181823 59 81 138
-0.147008 0.356139 -0.186423 68 57 130
-0.562086 -0.454759 0.030523 57 85 139
0.563191 0.069607 0.354503 68 1 84
-0.254341 0.173275 -0.181592 54 91 140
-0.065966 0.632508 -0.105376 49 100 141
0.201258 0.235585 -0.175885 49 102 141
0.478919 0.358198 0.360671 63 71 136
0.540424 -0.148337 0.018188 71 42 121
0.514037 -0.130357 -0.029750 71 20 102
-0.562618 0.097025 0.396130 68 1 84
0.105893 -0.373162 -0.192216 72 26 108
-0.416920 -0.363188 -0.129950 61 76 137
-0.231413 0.507487 -0.058735 68 1 84
-0.373121 -0.424129 -0.198676 72 34 115
0.241963 0.401769 -0.140623 45 111 142
0.601087 -0.138759 0.264474 68 1 84
-0.600737 -0.034539 0.453955 70 11 94
-0.246403 -0.307485 -0.157015 72 33 114
0.533602 0.212460 0.274546 71 39 119
-0.303856 0.277057 -0.117880 55 88 140
0.062634 0.105026 -0.283175 30 158 136
-0.035910 -0.500972 -0.292440 68 1 84
0.058981 -0.031555 -0.296816 36 133 141
0.478566 -0.107052 -0.080370 71 44 123
-0.493674 0.307404 0.361195 71 20 102
0.393491 0.116981 -0.144912 49 102 141
0.591099 -0.091893 0.243583 68 1 84
0.006140 -0.259066 -0.325834 71 15 98
0.292836 0.111442 -0.187369 54 90 140
-0.445698 -0.357080 -0.109874 58 82 139
0.471513 0.288488 0.095262 72 34 115
-0.479043 0.323108 0.415967 72 34 115
-0.526892 0.167846 0.497163 68 1 84
0.591693 -0.104735 0.429214 68 1 84
0.549623 -0.163030 0.040708 71 38 118
-0.074766 -0.408641 -0.268796 71 15 98
-0.526928 0.169357 0.495131 68 1 84
-0.620417 -0.234723 0.213695 70 49 126
-0.410652 0.283639 -0.022882 48 104 141
-0.008921 -0.423766 -0.280553 68 3 87
0.084389 -0.036418 -0.276878 46 109 142
-0.483649 -0.275952 -0.019985 61 74 137
0.158426 0.318766 -0.203228 35 169 130
-0.246739 -0.117753 -0.196733 71 17 99
-0.354958 -0.420408 -0.201712 71 40 120
-0.389019 -0.239260 -0.116629 71 44 123
0.495167 0.224644 0.090444 49 101 141
0.050770 -0.310331 -0.266351 64 68 135
0.550856 -0.352133 0.078815 68 1 84
0.398864 0.192018 -0.101115 42 119 142
-0.290693 0.424265 -0.047365 68 1 84
0.108802 0.136173 -0.269097 38 172 129
0.081087 0.400195 -0.205727 65 65 134
0.488792 0.111493 -0.020760 63 69 135
0.564620 0.051076 0.457973 68 1 84
-0.523597 0.174476 0.500359 69 8 91
0.159442 -0.072002 -0.272278 45 111 142
-0.397233 0.470838 0.221780 56 87 140
0.091313 0.113733 -0.273414 30 156 137
-0.246373 0.443341 -0.078889 68 1 84
0.467008 0.263484 0.058643 57 85 139
0.125526 -0.102977 -0.294742 41 121 142
-0.164855 0.374232 -0.169776 69 8 91
-0.190320 0.577099 0.011813 55 89 140
-0.525461 0.230206 0.386487 70 47 124
0.030167 -0.002120 -0.344210 191 223 36
0.408724 -0.171379 -0.121589 72 25 107
-0.064118 0.075031 -0.274575 41 175 127
0.499816 0.309218 0.243983 65 66 134
-0.284927 -0.075359 -0.198580 65 66 134
-0.269282 -0.036904 -0.209060 63 69 135
-0.595815 -0.000433 0.352574 68 1 84
-0.047161 -0.315943 -0.292311 71 42 121
-0.125828 0.011168 -0.258470 31 149 139
0.605671 -0.174721 0.349230 68 1 84
0.572850 0.011565 0.515101 68 1 84
-0.213142 0.542810 -0.041388 69 6 90
0.642042 -0.263898 0.477974 68 1 84
0.564229 0.030919 0.209595 68 1 84
0.571386 -0.021348 0.173544 68 1 84
-0.745331 -0.464314 0.386810 68 1 84
-0.321163 -0.414571 -0.211150 65 66 134
-0.572796 -0.000819 0.096078 71 44 123
0.492748 0.325818 0.240082 71 38 118
0.305674 0.399143 -0.081412 69 8 91
-0.718209 -0.435308 0.373594 68 1 84
0.179893 -0.297314 -0.160624 68 2 85
-0.587384 -0.036877 0.134641 70 48 125
-0.423770 -0.011820 -0.140386 66 62 133
0.401574 0.461548 0.171868 57 84 139
0.569706 0.029745 0.470280 68 1 84
0.547576 -0.280956 0.068953 68 1 84
-0.553220 -0.016924 0.025099 72 29 111
-0.570816 -0.118059 0.049644 72 29 111
0.450962 0.410406 0.244804 71 17 99
-0.517416 0.252442 0.312290 68 1 84
0.511674 -0.508331 -0.014388 69 8 91
0.100088 0.636826 -0.097675 66 62 133
-0.489236 0.307098 0.199593 69 5 88
0.558894 0.093559 0.364395 68 2 85
0.444407 0.402162 0.177605 71 22 105
-0.253905 0.073969 -0.200638 49 102 141
0.565825 0.018871 0.197202 68 1 84
-0.642347 -0.190294 0.490620 68 1 84
0.410739 -0.147695 -0.129454 72 30 112
0.613290 -0.527138 0.295602 68 1 84
0.648055 -0.288694 0.392125 68 1 84
0.207757 0.217487 -0.194776 38 127 142
0.161136 0.611542 -0.095071 68 1 84
0.562639 0.061045 0.451805 68 1 84
-0.141351 -0.393727 -0.221366 68 57 130
0.304228 -0.412071 -0.204223 69 52 127
0.079872 0.561529 -0.191538 68 3 87
0.450537 -0.128638 -0.105837 69 50 127
0.608442 -0.184784 0.310406 68 1 84
0.519041 0.063320 0.022447 57 84 139
-0.137753 0.344560 -0.195758 55 89 140
0.554039 0.115669 0.379797 68 1 84
-0.243855 0.244682 -0.160483 53 92 140
-0.628151 -0.136923 0.345048 71 22 105
0.616935 -0.371312 0.332400 68 1 84
0.508259 0.080903 0.007386 53 93 140
0.647614 -0.436338 0.362191 68 1 84
-0.371063 0.231757 -0.103093 58 82 139
0.038500 -0.372912 -0.265255 71 42 121
-0.641714 -0.318182 0.321697 68 1 84
-0.544223 0.171111 0.313258 72 28 110
-0.560662 0.118490 0.367649 72 33 114
-0.523886 0.216919 0.219972 68 1 84
-0.443070 0.382435 0.413180 60 77 138
0.396483 0.352827 0.011306 71 37 117
0.406857 0.233316 -0.067605 33 140 141
0.141680 -0.306055 -0.164046 68 1 84
-0.578086 0.051802 0.267282 68 1 84
-0.482334 0.284370 0.491619 60 78 138
-0.558215 0.027997 0.066981 67 59 131
0.235668 0.035572 -0.208161 57 84 139
-0.239788 -0.118761 -0.198401 68 2 85
0.185203 0.599962 -0.072288 71 24 106
0.659738 -0.369878 0.469740 68 1 84
-0.593666 -0.022290 0.463938 68 1 84
0.126703 0.446694 -0.190482 68 1 84
0.100074 0.156296 -0.278756 50 181 122
-0.626365 -0.306910 0.247030 70 11 94
0.382019 0.152635 -0.136094 44 113 142
0.176820 -0.348773 -0.144010 68 1 84
0.519866 0.101671 0.051698 48 104 141
0.452148 0.064230 -0.106977 55 89 140
-0.571301 0.084486 0.317940 68 2 85
-0.550394 0.110316 0.154192 66 61 132
0.404809 0.437634 0.132030 69 52 127
0.608730 -0.206345 0.281173 68 1 84
0.499752 -0.234795 -0.003544 71 22 105
-0.549375 -0.063693 0.005385 72 35 116
-0.480087 0.169885 0.001196 71 17 99
-0.111047 -0.070778 -0.355134 38 127 142
0.046718 0.281619 -0.270469 30 153 138
0.314174 -0.453954 -0.211902 71 18 101
0.605143 -0.194156 0.254294 68 1 84
-0.503460 0.289417 0.283757 70 14 97
0.558885 0.100176 0.343163 69 8 91
-0.617232 -0.348478 0.211029 70 45 124
-0.460618 -0.103682 -0.103218 67 60 132
0.259714 -0.400970 -0.190185 71 38 118
0.563769 -0.006196 0.130397 68 1 84
0.122636 0.182208 -0.271027 98 202 95
0.457039 0.169965 -0.044256 59 80 138
0.576175 -0.310622 0.147214 71 43 122
-0.054749 -0.055221 -0.394619 34 167 132
0.036298 -0.322335 -0.276228 72 25 107
0.560044 0.032401 0.156007 68 1 84
-0.651815 -0.204317 0.426692 68 1 84
-0.536916 -0.350770 -0.010760 67 58 131
0.161716 0.316822 -0.201724 34 167 132
-0.245305 -0.384376 -0.174815 71 24 106
-0.413223 0.139266 -0.114370 72 34 115
-0.607492 -0.421953 0.174869 70 47 124
-0.287468 0.449814 -0.034575 72 34 115
0.587806 -0.043495 0.413435 68 1 84
-0.344317 0.444870 0.031268 52 95 141
0.332324 0.257553 -0.119009 32 164 133
-0.586648 -0.353024 0.106951 64 67 135
-0.432535 0.425086 0.274148 57 85 139
0.055674 0.222811 -0.260986 53 183 120
0.567925 -0.415086 0.143796 71 18 101
-0.581302 -0.187659 0.083403 68 57 130
-0.646470 -0.198815 0.435777 68 1 84
0.466083 0.223570 0.019077 52 95 141
-0.392661 0.471250 0.193750 71 44 123
-0.649534 -0.202968 0.442533 68 1 84
0.344894 -0.187187 -0.142198 68 3 87
0.542398 0.081779 0.111721 59 81 138
0.473248 0.168551 -0.012161 62 72 136
-0.286611 -0.249599 -0.154786 72 34 115
0.234501 0.563320 -0.043933 68 1 84
-0.109838 -0.465510 -0.284893 71 21 103
0.048086 -0.471351 -0.287548 71 37 117
-0.170869 0.109562 -0.226728 53 93 140
0.037999 0.237735 -0.257330 32 164 133
0.520014 -0.145561 -0.016921 71 21 103
-0.373600 -0.315760 -0.110458 49 102 141
0.363692 0.489451 0.130455 64 67 135
-0.476308 0.187323 0.009210 70 48 125
-0.548283 0.143489 0.237773 70 49 126
-0.296077 0.403442 -0.055657 72 26 108
-0.189880 0.543060 -0.086753 68 1 84
0.199198 0.400917 -0.164597 71 43 122
-0.606173 -0.476589 0.159121 69 54 129
-0.602403 -0.028119 0.355772 70 14 97
0.281854 0.362886 -0.115223 58 82 139
0.587766 -0.039497 0.513619 68 1 84
-0.387394 -0.400567 -0.179435 69 53 128
0.432079 0.439099 0.242406 66 62 133
-0.377661 0.139017 -0.144067 69 52 127
-0.026031 0.639494 -0.083286 38 129 142
-0.518820 0.147250 0.065846 70 48 125
0.527374 -0.204415 0.017511 69 8 91
0.627778 -0.250605 0.394341 68 1 84
0.097375 0.520353 -0.204447 68 1 84
0.218365 0.104112 -0.206639 58 83 139
-0.355471 -0.350913 -0.135693 63 71 136
-0.086494 -0.321672 -0.254288 69 5 88
0.340241 0.466976 0.031786 56 86 139
0.450579 -0.475789 -0.142941 68 1 84
-0.220739 0.136215 -0.202233 53 93 140
0.527411 -0.260036 0.038948 68 1 84
-0.507013 0.278701 0.274374 69 5 88
0.401283 -0.057744 -0.160088 47 105 141
-0.294133 0.012802 -0.208301 57 84 139
0.162360 0.060338 -0.221508 35 136 141
-0.380601 -0.156196 -0.133484 70 14 97
0.606825 -0.173600 0.313450 68 1 84
-0.025454 0.144754 -0.291832 103 204 92
0.614018 -0.274468 0.293412 68 1 84
0.147267 -0.441885 -0.241323 62 72 136
-0.605224 -0.450565 0.162699 70 49 126
0.174814 0.302400 -0.196739 42 118 142
0.613478 -0.457030 0.305669 68 1 84
0.491891 -0.199899 -0.032507 70 9 92
0.289943 -0.499966 -0.243667 69 6 90
0.560085 -0.294195 0.095241 68 1 84
-0.379579 0.249550 -0.085416 48 103 141
0.054426 0.244618 -0.257430 62 188 115
-0.619280 -0.106507 0.436372 68 1 84
-0.134570 0.604586 -0.039936 61 76 137
0.429189 -0.159062 -0.114274 71 15 98
-0.619506 -0.335318 0.219795 72 35 116
-0.037488 -0.466648 -0.288502 68 1 84
-0.131954 0.034668 -0.233344 41 121 142
0.469296 -0.220706 -0.046909 70 14 97
0.551582 -0.429495 0.094237 68 1 84
0.661254 -0.503675 0.412285 68 1 84
-0.441209 -0.040792 -0.123679 67 59 131
-0.206800 -0.504578 -0.287042 67 59 131
-0.676453 -0.254676 0.399146 68 1 84
0.489610 0.334994 0.368620 69 52 127
-0.436135 0.127790 -0.095636 72 34 115
0.277945 0.245384 -0.151958 59 186 117
-0.108562 0.299767 -0.237620 30 160 135
0.061183 -0.178414 -0.339120 42 118 142
-0.074672 -0.238767 -0.311002 65 65 134
-0.104306 -0.320693 -0.222309 68 1 84
0.413432 0.068781 -0.145681 54 91 140
0.508477 -0.460130 -0.031765 68 1 84
-0.439771 -0.489707 -0.187453 71 24 106
0.303678 0.032788 -0.208546 47 105 141
-0.211936 0.384810 -0.131039 68 1 84
-0.407118 0.364374 0.046840 62 72 136
-0.150329 0.279511 -0.204325 35 137 141
0.361214 0.371361 -0.025646 72 29 111
0.489824 -0.468469 -0.077731 72 33 114
0.134431 -0.505761 -0.282574 63 71 136
-0.632120 -0.195279 0.295682 71 37 117
0.067574 0.633615 -0.109714 64 67 135
0.466141 0.031179 -0.096438 66 64 133
0.479210 -0.447388 -0.099942 71 17 99
-0.268756 0.156219 -0.178418 60 77 138
0.480609 0.124511 -0.030281 67 59 131
-0.361686 0.445339 0.060237 53 92 140
-0.589200 -0.011359 0.466523 68 1 84
-0.382320 -0.447883 -0.208642 72 28 110
-0.140477 0.600246 -0.056778 57 85 139
-0.510685 0.266141 0.256469 68 1 84
-0.745175 -0.488793 0.416485 68 1 84
0.598352 -0.124378 0.450598 68 1 84
