ply
format ascii 1.0
element vertex 1249
property float x
property float y
property float z
property uchar red
property uchar green
property uchar blue
end_header
-0.463310 0.093361 -0.014001 70 14 97
-0.002792 0.355129 -0.243502 69 5 88
0.319198 -0.193323 -0.154162 72 25 107
0.493640 -0.444847 -0.100140 68 1 84
-0.102550 0.422587 -0.202825 69 6 90
-0.546614 0.181334 0.203652 31 147 139
-0.589713 0.034023 0.464641 57 185 118
0.341481 -0.484502 -0.210180 30 159 136
0.062934 0.487819 -0.219081 68 1 84
0.062721 0.568689 -0.197107 68 1 84
-0.174502 0.374119 -0.208829 67 60 132
-0.299080 -0.149063 -0.177596 43 115 142
0.277734 0.540229 0.040824 39 124 142
-0.630769 -0.276610 0.468616 40 123 142
0.107730 -0.138754 -0.402035 68 1 84
0.557467 -0.085617 0.013544 68 1 84
0.135882 -0.168914 -0.303586 64 67 135
-0.450961 0.087499 -0.031362 69 54 129
0.122934 -0.260735 -0.274372 48 104 141
0.314983 0.268907 -0.143643 68 1 84
0.074419 0.289643 -0.301113 68 1 84
-0.635901 -0.403841 0.432996 63 71 136
-0.119886 -0.039050 -0.373230 45 110 142
-0.409664 0.229408 -0.041038 58 82 139
-0.360761 0.002090 -0.139696 54 90 140
0.406126 0.191509 -0.058955 68 1 84
0.321410 -0.168614 -0.162979 68 1 84
0.548243 0.097576 0.142815 57 84 139
-0.160020 0.187783 -0.282465 71 40 120
-0.322426 0.519638 0.044826 53 92 140
-0.423794 -0.541573 -0.176446 32 165 133
-0.298772 0.501077 -0.035235 42 117 142
-0.136365 0.087715 -0.283888 39 124 142
-0.406643 0.459568 0.248506 30 155 137
-0.413333 -0.599559 -0.179148 35 168 131
0.645088 -0.209239 0.302066 68 1 84
-0.234398 -0.555237 -0.272148 114 207 85
0.596425 -0.165259 0.109055 68 1 84
0.606198 0.000451 0.384279 49 101 141
0.000892 -0.057091 -0.500284 59 81 138
0.189184 0.494223 -0.129671 66 62 133
0.379315 0.032568 -0.141557 68 1 84
-0.613146 -0.085396 0.344264 42 118 142
-0.227687 0.210862 -0.227636 42 117 142
0.051555 0.009395 -0.357635 68 1 84
-0.048496 0.422930 -0.232777 47 106 141
-0.569997 0.124400 0.378149 64 189 114
-0.573985 -0.152662 0.089621 68 1 84
0.402457 -0.399520 -0.129906 69 5 88
0.562180 -0.172676 0.024635 68 1 84
0.654651 -0.250222 0.410625 56 87 140
0.332108 -0.312257 -0.142066 65 65 134
-0.338542 0.490390 0.030511 55 88 140
-0.002859 0.388328 -0.236405 71 20 102
-0.030812 0.417727 -0.237613 52 94 141
-0.628794 -0.440021 0.346105 71 17 99
0.141275 0.034596 -0.258600 68 1 84
-0.572312 0.113133 0.320978 37 171 129
0.602185 -0.183293 0.128341 68 1 84
0.121605 -0.169623 -0.332393 71 43 122
0.216036 0.351338 -0.193031 68 1 84
0.499677 0.188821 0.074696 61 75 137
0.538059 0.011399 0.016458 68 1 84
-0.250472 -0.406939 -0.154789 53 92 140
-0.418847 0.082223 -0.067454 68 55 129
-0.374972 0.373612 -0.021814 72 29 111
-0.343131 -0.136612 -0.162939 44 114 142
-0.308692 0.489481 -0.028932 61 74 137
0.130688 -0.400390 -0.209527 36 132 141
-0.261989 -0.122746 -0.194940 37 131 141
-0.546460 0.220729 0.287816 39 173 128
-0.068227 -0.170670 -0.394497 35 136 141
-0.277362 -0.354640 -0.146703 38 127 142
0.277494 0.312229 -0.159354 68 1 84
0.350343 -0.163686 -0.153507 68 1 84
0.175316 0.200953 -0.256793 68 1 84
0.650924 -0.492976 0.324606 70 14 97
-0.176666 -0.360452 -0.144840 53 92 140
0.456009 -0.486317 -0.158273 71 43 122
-0.420873 -0.063903 -0.115625 69 53 128
-0.598542 -0.102909 0.203436 72 33 114
-0.573516 0.001827 0.211491 59 80 138
0.062187 0.351608 -0.257587 68 1 84
-0.428703 0.111764 -0.047798 65 65 134
-0.623149 -0.085314 0.427395 30 158 136
0.573775 -0.433531 0.114283 71 21 103
-0.528857 -0.162491 -0.011581 70 12 95
0.185514 0.321580 -0.227897 68 1 84
-0.500844 0.258521 0.126901 35 135 141
-0.492737 0.301666 0.147479 32 144 140
-0.443980 0.409743 0.170379 30 153 138
0.622210 -0.199688 0.198926 68 1 84
-0.066419 -0.445784 -0.268143 39 173 128
-0.547389 0.098525 0.156975 61 74 137
-0.177133 0.098307 -0.258812 45 110 142
0.661373 -0.451878 0.363362 71 42 121
0.416886 0.445991 0.220474 44 112 142
0.209469 0.169165 -0.241978 68 1 84
-0.636859 -0.396156 0.441142 53 93 140
0.274615 -0.139865 -0.189448 71 22 105
0.292235 -0.248727 -0.141918 69 50 127
0.572173 0.094916 0.361886 30 159 136
-0.589284 -0.188542 0.122786 68 1 84
-0.256168 0.567199 -0.045485 51 97 141
-0.579635 0.090793 0.406518 124 210 79
0.327684 0.508802 0.099172 42 119 142
-0.543235 -0.155434 0.015130 68 1 84
-0.143371 -0.026005 -0.252343 39 125 142
-0.073912 -0.272580 -0.287593 57 185 118
0.470244 -0.163639 -0.085841 68 1 84
-0.175382 0.007326 -0.225855 61 187 116
0.077686 0.344826 -0.269538 68 1 84
0.362990 -0.458858 -0.178043 52 95 141
0.358380 -0.089248 -0.167097 68 1 84
-0.001642 -0.108219 -0.500259 60 77 138
0.356190 0.171601 -0.118151 68 1 84
0.644945 -0.179935 0.489695 34 167 132
0.626249 -0.361922 0.265683 72 29 111
-0.491659 -0.233025 -0.039395 68 1 84
-0.349951 0.466449 0.021486 51 97 141
-0.526705 0.057961 0.078135 50 99 141
-0.347336 0.516346 0.155252 55 88 140
-0.254258 0.536673 -0.081998 44 113 142
-0.614961 -0.320525 0.221523 70 11 94
-0.400082 0.462255 0.143850 40 122 142
0.337411 0.500185 0.102560 42 117 142
-0.042984 0.035184 -0.352804 69 50 127
0.476628 0.344329 0.382250 94 201 97
0.029318 0.322391 -0.281643 68 1 84
-0.209175 0.274021 -0.222059 44 112 142
0.185566 -0.495821 -0.290819 35 168 131
-0.547281 0.024776 0.112766 58 82 139
0.091381 -0.307394 -0.303957 31 148 139
-0.045970 -0.419038 -0.265261 35 169 130
0.137060 -0.221853 -0.275222 42 118 142
-0.050040 -0.026976 -0.371473 66 62 133
-0.452513 0.395218 0.320115 31 150 139
-0.430012 0.426734 0.286216 34 137 141
0.537533 0.183561 0.483249 183 221 41
0.342335 0.461665 0.046072 51 96 141
-0.234851 0.570275 -0.089443 50 99 141
-0.514454 0.293420 0.349005 103 204 92
-0.402010 0.278437 -0.038023 64 68 135
0.558125 -0.250876 0.045081 68 1 84
-0.555890 -0.572357 0.132890 69 6 90
-0.535849 0.231949 0.213803 30 160 135
0.146402 0.188443 -0.284891 68 1 84
0.653499 -0.251429 0.462169 39 124 142
-0.557946 0.003332 0.134410 55 88 140
0.430976 0.098716 -0.079135 68 1 84
-0.643889 -0.432347 0.444485 71 38 118
0.645586 -0.242175 0.309951 68 1 84
-0.074387 -0.173369 -0.379895 37 130 142
0.574588 0.070431 0.532152 170 219 50
0.216612 -0.080868 -0.224142 68 1 84
0.185758 0.534061 -0.121647 64 68 135
-0.655227 -0.486354 0.449438 71 20 102
0.515719 0.246092 0.453156 167 219 51
-0.307025 0.445120 -0.062203 72 29 111
-0.500603 -0.530304 -0.067491 68 1 84
0.412033 0.187716 -0.053838 68 1 84
-0.399216 0.448855 0.101759 52 95 141
0.503988 0.302226 0.335095 81 196 104
0.514912 -0.504697 -0.106688 69 5 88
-0.024099 0.253143 -0.301509 68 1 84
0.487444 -0.255604 -0.032967 68 1 84
-0.260465 0.489347 -0.091600 58 82 139
0.420617 0.177097 -0.049108 68 1 84
-0.450888 0.209055 0.011112 49 101 141
0.622246 -0.247638 0.200027 68 1 84
-0.181808 0.438151 -0.165600 58 83 139
-0.108182 0.615549 -0.157454 71 43 122
-0.357838 -0.057155 -0.153751 61 74 137
0.355383 0.006537 -0.162766 68 1 84
0.633016 -0.377091 0.297406 72 34 115
0.430010 -0.314612 -0.071588 68 1 84
0.305965 0.230289 -0.168076 68 1 84
0.125689 0.269441 -0.270714 68 1 84
0.549948 -0.439523 0.002282 68 1 84
-0.065001 0.436244 -0.228322 51 96 141
0.561004 -0.468929 0.081536 68 1 84
0.009511 0.362944 -0.239261 71 21 103
-0.238432 0.204105 -0.225300 44 113 142
-0.574707 0.107784 0.389176 131 211 75
0.568311 -0.411953 0.087250 68 1 84
-0.318473 -0.279666 -0.132129 69 53 128
0.612146 -0.350937 0.203200 68 1 84
-0.582129 0.009268 0.266220 44 113 142
-0.193694 0.484476 -0.154750 30 157 136
0.093174 -0.348774 -0.261839 37 130 142
-0.428900 0.436543 0.201471 43 116 142
-0.326153 0.292564 -0.134526 68 55 129
0.124633 0.063580 -0.284511 68 1 84
0.645011 -0.149348 0.352416 62 73 137
-0.047268 -0.024219 -0.432979 69 53 128
-0.186743 -0.331017 -0.155333 48 103 141
0.207515 0.436403 -0.132925 68 1 84
0.379060 0.301993 -0.048540 68 1 84
0.159987 -0.447783 -0.235829 30 153 138
-0.580253 -0.078973 0.154380 71 44 123
-0.534449 0.048827 0.092593 56 86 139
-0.630069 -0.159626 0.449582 30 156 137
-0.460935 0.023795 -0.045807 67 58 131
0.370073 0.391072 0.013935 71 21 103
-0.433113 0.210949 -0.013849 44 113 142
0.486504 -0.210643 -0.053074 68 1 84
0.194356 -0.015257 -0.226255 68 1 84
0.034649 0.323305 -0.282396 68 1 84
-0.427044 -0.169296 -0.117959 64 67 135
0.311378 -0.378942 -0.145255 53 93 140
0.651806 -0.177533 0.437352 49 100 141
0.415581 -0.379239 -0.099103 68 1 84
-0.449412 0.379992 0.129353 31 146 140
-0.387022 0.029484 -0.111384 59 81 138
0.595214 -0.099457 0.131762 68 1 84
-0.077451 0.489671 -0.229490 48 104 141
-0.366825 0.407375 -0.007980 45 110 142
-0.235888 0.248676 -0.205534 39 125 142
0.609061 -0.209526 0.150086 68 1 84
0.360787 0.043609 -0.148924 68 1 84
-0.375704 -0.438142 -0.135726 71 44 123
0.297982 0.496099 0.009152 68 1 84
-0.590998 -0.063726 0.224277 71 37 117
0.603445 -0.107094 0.181765 72 29 111
0.695403 -0.443795 0.487194 70 48 125
-0.650363 -0.511184 0.412798 68 1 84
-0.232567 0.484379 -0.121881 54 90 140
-0.230052 0.143322 -0.235171 44 112 142
0.299327 0.160902 -0.178249 68 1 84
0.003039 0.214604 -0.314770 68 1 84
0.303007 -0.197737 -0.157895 72 34 115
0.294988 -0.374727 -0.143369 54 90 140
-0.105238 0.624134 -0.146088 72 33 114
0.550918 -0.482223 0.024170 68 1 84
-0.151702 -0.513027 -0.294561 62 188 115
-0.627442 -0.182794 0.483103 38 128 142
0.233809 -0.410687 -0.164288 47 105 141
0.052128 0.169676 -0.341887 68 1 84
-0.333245 0.255800 -0.137798 70 47 124
0.685071 -0.442157 0.458542 72 35 116
0.524479 0.125472 0.084358 69 53 128
0.094105 -0.092579 -0.458393 71 18 101
0.604724 -0.052688 0.269220 57 85 139
-0.060166 0.520778 -0.227577 65 66 134
-0.180260 0.376667 -0.203818 66 61 132
-0.542993 0.012042 0.089267 62 72 136
0.149108 0.630333 -0.066406 60 78 138
0.066784 -0.476248 -0.314525 59 80 138
-0.214454 0.047419 -0.212692 35 136 141
-0.553076 -0.521608 0.124606 68 1 84
-0.567507 -0.568010 0.160636 68 3 87
0.046994 0.249629 -0.296438 68 1 84
0.035555 0.359322 -0.243534 68 1 84
-0.489333 0.177035 0.059727 64 67 135
-0.628288 -0.463700 0.336748 71 20 102
0.072525 -0.026695 -0.384533 69 53 128
-0.536085 -0.147851 0.001755 68 1 84
0.376647 -0.463042 -0.179055 58 83 139
-0.184350 -0.327876 -0.156566 44 112 142
-0.580043 -0.077348 0.155057 71 42 121
0.646459 -0.288935 0.344785 58 82 139
-0.622199 -0.519995 0.297637 68 1 84
-0.042243 0.368639 -0.234332 68 1 84
-0.624934 -0.142920 0.334660 52 95 141
-0.476412 -0.045888 -0.060741 68 55 129
-0.170518 0.537880 -0.172251 48 103 141
-0.570224 -0.106615 0.096118 68 1 84
-0.191297 0.305817 -0.237217 53 92 140
-0.003181 0.050538 -0.358443 68 1 84
0.612036 -0.064664 0.287779 44 112 142
0.353023 -0.016430 -0.169217 68 1 84
-0.584743 0.016454 0.290349 36 133 141
-0.460101 -0.572488 -0.129196 42 117 142
0.602710 -0.085550 0.209931 69 50 127
0.499742 0.309528 0.241843 38 172 129
0.647343 -0.229809 0.503564 31 150 139
-0.392136 0.418130 0.045519 55 89 140
-0.068279 -0.480054 -0.301678 114 207 85
-0.511988 -0.378324 0.024647 68 1 84
-0.369943 -0.321048 -0.099830 64 68 135
0.560543 0.081764 0.198546 56 87 140
-0.237931 0.403322 -0.147614 61 76 137
-0.484935 -0.195807 -0.063204 68 1 84
-0.634305 -0.285685 0.440482 56 87 140
0.398224 0.412994 0.090804 49 102 141
-0.522956 -0.273192 0.018930 68 1 84
0.363455 -0.478336 -0.199354 39 124 142
-0.556256 0.156915 0.231831 34 138 141
0.296589 0.499010 0.010139 68 1 84
-0.498705 0.143062 0.061980 69 52 127
0.257536 -0.454389 -0.182907 48 104 141
0.326653 0.511329 0.103783 43 116 142
0.262519 0.568675 0.116579 40 122 142
0.162062 -0.092527 -0.275122 68 1 84
0.485128 -0.435453 -0.098422 71 43 122
0.586618 -0.042717 0.173950 71 18 101
0.543446 -0.454423 -0.037067 68 1 84
-0.036045 -0.066351 -0.493305 59 81 138
0.483341 0.169854 0.027858 68 1 84
0.482373 0.255908 0.094304 69 53 128
0.467657 0.229644 0.042331 69 50 127
-0.573409 0.067417 0.494791 83 197 103
-0.458805 0.390677 0.177859 30 157 136
0.131560 0.297704 -0.271897 68 1 84
-0.534903 -0.484970 0.068419 68 1 84
-0.047749 0.423715 -0.233220 47 105 141
-0.318110 0.538693 0.125724 70 45 124
-0.549748 0.197069 0.247389 39 173 128
-0.625878 -0.118469 0.521156 48 180 122
-0.237853 0.597331 -0.017272 66 62 133
-0.361177 0.371504 -0.043715 71 15 98
-0.387794 -0.529916 -0.199181 41 175 127
-0.568586 0.131821 0.342515 42 176 126
0.507607 -0.171885 -0.050158 68 1 84
-0.505008 -0.522950 -0.049311 68 1 84
0.498031 0.315800 0.273493 37 171 129
0.402540 0.367234 0.047663 71 44 123
-0.384373 0.484883 0.218784 33 140 141
-0.148255 -0.486944 -0.259884 83 197 103
0.630168 -0.395776 0.287311 72 33 114
0.191821 -0.436843 -0.184510 31 146 140
0.591937 -0.071505 0.151154 70 14 97
0.294078 -0.368469 -0.140207 57 84 139
0.435332 0.418074 0.303385 44 177 125
0.635345 -0.267634 0.257359 71 22 105
-0.508367 0.315534 0.247924 31 148 139
0.193330 0.377688 -0.189594 68 1 84
-0.131439 -0.021892 -0.338614 51 97 141
0.109590 -0.011324 -0.365071 71 43 122
0.628772 -0.079322 0.358672 31 147 139
-0.274245 0.328626 -0.165455 69 52 127
0.576678 -0.002165 0.187967 61 76 137
-0.576483 -0.553347 0.184201 68 1 84
0.371235 0.473899 0.126444 45 110 142
-0.463562 0.180301 0.019327 61 75 137
0.547282 0.154692 0.220109 44 112 142
-0.277636 0.526625 -0.048468 47 105 141
0.641707 -0.173739 0.296718 67 59 131
0.144123 -0.258561 -0.235898 47 105 141
0.560846 -0.019572 0.055006 68 1 84
0.144905 -0.229976 -0.257031 61 75 137
0.553375 0.160892 0.347317 32 144 140
0.466240 0.209944 0.027196 71 24 106
-0.055842 0.323159 -0.280272 68 1 84
0.567675 -0.438956 0.093165 71 20 102
-0.577953 -0.549623 0.187553 68 1 84
0.204290 0.098030 -0.236340 68 1 84
-0.478435 0.349967 0.167879 31 149 139
0.544706 -0.467348 -0.041460 68 1 84
0.532694 0.096389 0.078547 70 11 94
-0.522237 0.270724 0.208279 31 150 139
0.568871 -0.267157 0.067904 68 1 84
0.212819 -0.186720 -0.206566 69 52 127
0.311593 -0.370459 -0.140157 51 97 141
-0.614203 -0.345598 0.235515 68 1 84
0.613337 -0.429988 0.229467 68 1 84
0.122624 -0.511776 -0.315400 44 114 142
-0.395070 0.249843 -0.056611 67 59 131
-0.335624 0.079826 -0.140432 59 80 138
-0.478902 0.369391 0.226143 32 165 133
0.578383 -0.168562 0.057589 68 1 84
-0.229298 0.366747 -0.179878 72 25 107
0.338678 -0.296200 -0.137666 70 45 124
0.646486 -0.508097 0.314434 68 1 84
-0.238929 -0.454826 -0.182421 41 120 142
0.491511 0.184183 0.053351 72 26 108
0.509945 0.270198 0.409093 81 196 104
-0.135933 -0.223065 -0.230762 38 172 129
-0.640392 -0.230614 0.370893 56 86 139
-0.262301 -0.428156 -0.171403 53 92 140
-0.601635 -0.315037 0.175969 70 9 92
-0.288134 0.312404 -0.161218 71 43 122
0.503952 0.303641 0.294690 56 185 118
-0.601714 -0.269138 0.158255 71 17 99
-0.519640 0.197834 0.133079 42 119 142
0.621773 -0.135571 0.238122 70 45 124
0.518095 -0.209244 -0.023658 68 1 84
0.502131 0.307674 0.299227 87 198 101
0.370702 -0.357823 -0.127778 68 1 84
-0.437282 0.416822 0.293090 32 145 140
-0.232970 0.222678 -0.217817 46 109 142
0.227499 0.589044 0.027560 49 101 141
0.480613 -0.248682 -0.041922 68 1 84
0.147319 0.623102 -0.094748 70 9 92
-0.115889 0.116684 -0.309765 63 71 136
0.103024 0.207794 -0.284627 68 1 84
0.632110 -0.360899 0.292477 70 14 97
-0.560932 -0.127569 0.062096 68 1 84
0.634931 -0.080601 0.405779 48 104 141
0.502758 0.238319 0.125061 68 55 129
-0.218485 -0.119032 -0.211593 30 159 136
-0.346318 0.340955 -0.085424 56 86 139
0.262426 -0.401162 -0.166230 41 121 142
-0.261003 0.579799 0.001815 69 50 127
-0.565971 0.139609 0.302058 57 185 118
-0.586439 -0.294705 0.130777 68 1 84
-0.559890 -0.047715 0.101869 66 61 132
0.643589 -0.254870 0.302899 70 14 97
0.534060 0.225705 0.306423 32 165 133
-0.085976 0.280941 -0.299862 70 49 126
0.036255 0.641640 -0.116794 68 1 84
0.300187 0.228343 -0.174407 68 1 84
-0.380783 0.185077 -0.083672 59 81 138
0.563090 0.014936 0.096096 68 1 84
-0.594018 -0.485789 0.219993 68 1 84
0.290677 0.552730 0.163505 39 126 142
0.466722 -0.035803 -0.099171 68 1 84
0.635719 -0.415233 0.301828 72 28 110
-0.540356 -0.539663 0.098151 68 1 84
0.180858 0.516922 -0.132247 65 65 134
-0.266288 -0.047650 -0.197876 39 125 142
-0.022628 -0.120287 -0.489843 50 99 141
-0.069158 0.091184 -0.335196 40 122 142
0.111503 -0.192989 -0.336576 49 101 141
-0.142525 -0.012428 -0.246066 35 135 141
0.341598 0.417352 -0.010749 68 3 87
0.574600 0.101374 0.446883 109 206 88
-0.077465 -0.309025 -0.233370 48 180 122
-0.260984 0.106410 -0.198007 57 84 139
-0.503826 0.100888 0.052768 56 86 139
0.553956 -0.329996 0.056434 68 1 84
0.315606 0.206433 -0.161111 68 1 84
-0.549291 -0.059468 0.061367 68 57 130
0.174011 0.243825 -0.224570 68 1 84
-0.548800 -0.156026 0.026717 68 1 84
0.073025 -0.276021 -0.358158 68 55 129
0.580890 -0.073131 0.080876 68 1 84
0.559274 -0.491426 0.087427 68 1 84
0.486263 -0.195638 -0.059549 68 1 84
0.179669 0.621902 0.013255 49 102 141
-0.538956 -0.101714 0.018319 68 1 84
-0.172557 0.064147 -0.244404 40 123 142
-0.019601 0.119044 -0.334330 71 22 105
0.602997 -0.091256 0.203440 68 55 129
0.208033 -0.130505 -0.224456 68 1 84
0.611353 -0.167119 0.166828 68 1 84
0.647601 -0.229758 0.501542 33 140 141
-0.147935 0.061369 -0.260852 33 142 140
0.507741 0.278563 0.203704 31 146 140
-0.351079 0.119010 -0.121664 64 67 135
-0.089364 -0.200633 -0.316153 30 156 137
0.562195 0.123604 0.477018 159 217 56
0.194574 -0.245522 -0.188187 70 12 95
0.491747 0.287680 0.476696 253 231 36
-0.487151 -0.244341 -0.037608 68 1 84
0.192502 0.103212 -0.245933 68 1 84
-0.579778 -0.002267 0.241725 45 110 142
0.257829 0.410799 -0.117043 68 1 84
0.066336 -0.104230 -0.485965 71 21 103
-0.488811 -0.193104 -0.060005 68 1 84
-0.541702 0.188410 0.462968 248 230 33
-0.094374 0.015275 -0.301224 53 93 140
0.409743 0.452313 0.289142 112 206 86
-0.201456 -0.495207 -0.240317 39 173 128
0.276947 0.136101 -0.193640 68 1 84
0.407826 -0.563981 -0.206810 55 89 140
0.530748 0.104378 0.081603 71 40 120
-0.609835 -0.408185 0.260142 68 1 84
0.458866 0.222824 0.023841 70 14 97
-0.260083 0.158207 -0.213947 46 107 142
0.551601 -0.445551 0.008829 68 1 84
0.342107 -0.036709 -0.176524 68 1 84
0.619893 -0.229628 0.189691 68 1 84
0.398446 0.199097 -0.064492 68 1 84
-0.406494 -0.007907 -0.107465 67 58 131
0.447147 0.276388 0.042158 71 44 123
-0.208707 0.179315 -0.250746 63 71 136
-0.204406 0.617045 -0.041638 60 78 138
-0.172792 0.435085 -0.172254 55 88 140
-0.383489 0.296870 -0.058229 67 59 131
-0.515827 -0.520040 0.022080 68 1 84
-0.197887 -0.354593 -0.147886 60 77 138
-0.628135 -0.227488 0.476095 41 120 142
0.068012 -0.031974 -0.455533 72 26 108
0.111239 0.113677 -0.309890 68 1 84
-0.036783 -0.007978 -0.378420 72 34 115
-0.120411 -0.085918 -0.374209 47 106 141
-0.422210 0.431532 0.139738 31 148 139
0.629483 -0.059385 0.408893 44 112 142
-0.265685 0.533936 -0.064638 47 105 141
-0.664618 -0.553734 0.446919 70 14 97
-0.354586 0.225489 -0.112955 71 42 121
-0.007193 0.131123 -0.333094 68 1 84
-0.301096 0.478142 -0.049047 49 101 141
0.622715 -0.083001 0.314021 42 118 142
0.246149 -0.222957 -0.168857 65 65 134
0.484487 0.344626 0.308565 54 184 119
0.072912 0.092577 -0.332973 68 1 84
0.433161 -0.301976 -0.067424 68 1 84
-0.127298 -0.294423 -0.184613 30 153 138
0.320816 -0.318784 -0.142375 57 84 139
0.315274 0.150485 -0.164603 68 1 84
-0.321028 -0.573619 -0.243029 141 214 68
0.241749 0.385997 -0.148474 68 1 84
-0.479934 0.367648 0.250495 31 162 134
0.406249 -0.245014 -0.095363 68 1 84
0.443030 -0.246157 -0.072510 68 1 84
0.559695 0.139139 0.435582 103 204 92
0.636718 -0.138920 0.557232 42 176 126
0.489549 0.314965 0.403417 75 194 108
0.271435 0.223066 -0.196776 68 1 84
0.152009 -0.006885 -0.325653 68 1 84
-0.260404 -0.432274 -0.175876 50 99 141
0.474369 0.350232 0.199860 43 116 142
-0.291978 -0.577094 -0.255665 165 218 53
-0.041631 -0.339151 -0.286620 42 176 126
-0.595890 0.031704 0.394309 112 206 86
0.137275 -0.113366 -0.351905 68 1 84
-0.651823 -0.557713 0.402889 70 9 92
-0.302159 -0.333808 -0.146692 43 116 142
-0.164725 -0.435201 -0.161942 58 82 139
-0.537225 -0.235022 0.021308 68 1 84
-0.368756 -0.485280 -0.177650 34 137 141
0.449514 -0.309354 -0.049948 68 1 84
-0.529358 -0.534525 0.064394 68 1 84
0.022795 0.222901 -0.299315 68 1 84
0.081886 0.341499 -0.274566 68 1 84
-0.138067 -0.056388 -0.342647 64 68 135
-0.625013 -0.142268 0.337063 49 101 141
0.590755 -0.192627 0.093573 68 1 84
-0.154654 -0.076431 -0.245869 31 150 139
0.023252 -0.463424 -0.313061 35 168 131
0.184889 0.568393 -0.106688 66 61 132
0.262293 0.568426 0.111179 40 123 142
0.558940 -0.487668 0.084005 68 2 85
-0.599509 -0.050767 0.299141 53 92 140
0.423600 -0.080125 -0.132295 68 1 84
0.465321 0.342539 0.154069 53 92 140
-0.056251 0.621560 -0.160975 71 43 122
0.324036 0.054087 -0.166408 68 1 84
-0.165580 0.556206 -0.170549 39 124 142
-0.174109 -0.204807 -0.209558 32 143 140
0.303793 -0.228149 -0.144347 70 48 125
-0.633736 -0.299922 0.462476 55 88 140
-0.556925 -0.225914 0.052074 68 1 84
0.075868 -0.356273 -0.295860 44 112 142
0.301436 0.535993 0.104719 46 109 142
0.101942 0.289986 -0.289990 68 1 84
0.255137 -0.447455 -0.178126 46 107 142
0.591552 0.034807 0.537917 149 215 63
-0.042386 0.499644 -0.234854 59 80 138
-0.531732 0.051051 0.086885 60 77 138
-0.129131 0.272614 -0.278940 71 42 121
-0.453202 0.028436 -0.052677 67 59 131
0.244547 -0.469345 -0.206403 30 159 136
-0.412828 -0.009156 -0.103086 70 49 126
-0.191209 -0.492947 -0.240693 32 145 140
-0.604250 -0.273542 0.165833 71 37 117
-0.432894 -0.136765 -0.116004 67 59 131
0.400079 0.237582 -0.049157 68 1 84
-0.582126 0.015335 0.272758 47 105 141
-0.050105 0.526975 -0.227142 69 50 127
-0.228613 -0.282771 -0.159153 44 113 142
-0.418923 -0.599587 -0.173864 30 155 137
0.503207 0.111389 0.018182 68 1 84
-0.325622 0.530410 0.106682 68 55 129
-0.443667 0.234853 0.009375 49 102 141
-0.373677 -0.309583 -0.096169 68 55 129
0.245426 -0.449894 -0.180119 46 108 142
0.104006 0.212687 -0.278057 68 1 84
0.608726 -0.186912 0.151048 68 1 84
0.647529 -0.283962 0.348848 61 75 137
0.338369 -0.236073 -0.128817 68 3 87
-0.395681 0.083384 -0.089269 65 65 134
-0.260285 0.273161 -0.189792 66 64 133
0.564358 0.109402 0.317860 35 135 141
-0.221596 -0.469165 -0.185000 34 138 141
0.240468 -0.464945 -0.199101 30 159 136
-0.408521 0.455195 0.157360 42 117 142
0.185244 0.529284 -0.124007 66 61 132
0.286192 -0.495063 -0.237715 48 180 122
0.340093 0.471026 0.053745 46 109 142
0.040087 0.508353 -0.226043 68 1 84
0.463723 0.363237 0.392922 144 214 67
0.119984 -0.389594 -0.216391 31 148 139
-0.069918 -0.367777 -0.206389 32 143 140
0.009747 -0.048495 -0.497707 61 75 137
0.649254 -0.288908 0.369994 58 83 139
-0.614696 -0.060099 0.515898 83 197 103
-0.638488 -0.235546 0.321813 63 69 135
0.284351 0.193581 -0.191961 68 1 84
0.490991 0.323840 0.218800 30 151 138
-0.082811 0.023699 -0.308374 65 66 134
-0.048761 0.142805 -0.340385 72 34 115
-0.381632 0.487500 0.188323 38 127 142
-0.531190 -0.500058 0.063353 68 1 84
0.582401 0.082805 0.427367 75 194 108
-0.582007 -0.045025 0.204641 51 96 141
-0.499936 -0.551496 -0.054444 68 1 84
0.630161 -0.465753 0.278855 68 1 84
-0.452002 0.196787 0.008261 46 108 142
-0.522980 -0.507488 0.042762 68 1 84
0.441597 0.413391 0.252707 30 153 138
0.080798 0.606965 -0.159717 68 1 84
0.452434 0.374635 0.414703 85 198 102
0.570260 -0.081704 0.044330 68 1 84
-0.200008 0.620177 -0.037554 65 65 134
0.326980 0.173649 -0.151439 68 1 84
0.125577 0.311243 -0.275536 68 1 84
0.151577 -0.060437 -0.346835 68 1 84
0.207496 -0.102497 -0.228180 68 1 84
0.169299 0.579888 -0.119449 67 59 131
0.339987 0.393651 -0.036527 68 1 84
-0.346125 0.509348 0.094781 64 68 135
0.115834 -0.162548 -0.353458 69 5 88
-0.039104 -0.365020 -0.269359 62 188 115
0.446903 -0.113786 -0.112639 68 1 84
0.077119 0.063185 -0.330247 68 1 84
0.068701 -0.327911 -0.325810 53 93 140
0.622237 -0.045744 0.546810 71 192 110
-0.524943 0.081957 0.089780 63 69 135
0.197215 -0.112854 -0.233663 68 1 84
0.296145 0.425939 -0.058785 68 1 84
-0.365055 -0.574695 -0.219584 126 210 78
-0.336781 0.046011 -0.146450 52 94 141
-0.503148 0.327403 0.263567 30 160 135
0.514026 0.245894 0.174434 33 142 140
-0.660125 -0.478558 0.474947 67 58 131
0.431446 0.409272 0.376571 81 196 104
-0.330077 0.196418 -0.145007 69 50 127
0.297474 0.548901 0.174323 31 147 139
-0.332745 0.309162 -0.119816 69 52 127
0.345701 -0.345468 -0.135964 61 74 137
-0.517320 0.046510 0.047025 62 73 137
0.396892 0.405661 0.080469 42 119 142
0.041172 0.637902 -0.128529 68 1 84
0.579321 -0.394072 0.121851 68 1 84
0.354499 0.441810 0.046081 61 74 137
-0.610938 -0.449438 0.273522 72 28 110
-0.087126 -0.479693 -0.293705 129 211 76
-0.459293 0.373880 0.148554 32 143 140
-0.507450 -0.052142 -0.019632 68 2 85
0.200360 0.008920 -0.222139 68 1 84
0.362876 -0.078473 -0.166089 68 1 84
0.357491 -0.303592 -0.133667 72 29 111
0.011889 0.556891 -0.214971 72 33 114
0.597012 -0.066850 0.207411 67 59 131
0.144327 -0.265677 -0.228717 33 141 140
-0.326571 0.408380 -0.063128 68 3 87
-0.200787 -0.115735 -0.219406 46 178 124
0.058317 -0.070846 -0.493325 69 5 88
0.188962 -0.459395 -0.227592 57 185 118
-0.258076 0.567600 -0.039432 50 99 141
0.587456 -0.298717 0.115431 68 1 84
0.642111 -0.199896 0.551164 77 194 107
-0.423317 0.091317 -0.060073 66 64 133
-0.622076 -0.144449 0.301877 53 92 140
0.492048 0.305826 0.181743 35 137 141
0.557619 -0.202249 0.026296 68 1 84
-0.392681 -0.294901 -0.085617 69 50 127
0.489459 -0.142141 -0.074789 68 1 84
-0.006828 -0.224177 -0.413906 50 99 141
0.132266 -0.391896 -0.201081 39 126 142
-0.264259 -0.388955 -0.146190 49 102 141
-0.009001 0.646033 -0.102716 72 33 114
-0.365177 0.358738 -0.047819 63 69 135
-0.561284 0.157460 0.359954 31 162 134
0.215421 0.239433 -0.198167 68 1 84
-0.500452 0.285574 0.457670 119 208 82
-0.631159 -0.383039 0.396760 72 34 115
-0.150455 0.408726 -0.190854 72 26 108
0.524291 -0.271140 0.010904 68 1 84
0.058696 -0.091818 -0.494453 72 33 114
0.632240 -0.096258 0.558812 83 197 103
-0.600245 -0.001009 0.369263 31 147 139
-0.038412 -0.282809 -0.344875 30 152 138
-0.314670 0.179370 -0.162282 71 38 118
0.577440 -0.114459 0.053703 68 1 84
0.400953 0.465366 0.257655 48 180 122
0.114625 -0.136734 -0.388347 68 1 84
0.352163 0.509266 0.181486 35 135 141
-0.501330 0.309406 0.384855 71 192 110
0.349322 0.196775 -0.121647 68 1 84
-0.592767 0.008893 0.481564 30 159 136
-0.640081 -0.244521 0.392131 63 71 136
-0.261836 -0.510096 -0.241866 79 195 105
-0.398631 0.453720 0.111017 49 102 141
-0.203194 -0.059633 -0.220805 36 170 130
-0.440780 0.017319 -0.069938 66 64 133
-0.433956 0.031917 -0.070136 69 50 127
0.125572 0.102931 -0.297498 68 1 84
-0.248460 -0.489566 -0.211714 31 147 139
-0.591379 -0.183488 0.129023 68 1 84
0.664398 -0.444479 0.382806 72 33 114
0.059229 -0.126642 -0.476625 68 3 87
0.592769 -0.276469 0.120383 68 1 84
-0.515232 -0.529867 0.019458 68 1 84
0.176913 0.526962 -0.133573 64 67 135
-0.079812 -0.110886 -0.445202 46 109 142
-0.498918 0.067603 0.025180 71 43 122
0.073673 -0.284932 -0.351331 49 101 141
0.516869 -0.108801 -0.050850 68 1 84
0.535400 -0.357793 0.024630 68 1 84
0.620222 -0.024161 0.454606 37 131 141
0.279094 0.032436 -0.191765 68 1 84
-0.230307 -0.346011 -0.150940 35 135 141
-0.600381 -0.088205 0.237016 71 37 117
-0.526284 0.231438 0.445120 175 220 46
-0.082367 0.055601 -0.319831 60 77 138
0.019011 0.488435 -0.234067 71 38 118
-0.063689 -0.233148 -0.338343 30 154 137
0.537066 0.168305 0.171871 51 96 141
0.271552 0.308377 -0.163537 68 1 84
0.509783 0.260998 0.452527 165 218 53
-0.608675 -0.107696 0.260490 51 96 141
-0.099677 0.642113 -0.103888 68 1 84
0.697419 -0.444355 0.508444 63 71 136
0.342868 0.012170 -0.167683 68 1 84
0.638987 -0.164269 0.553740 44 177 125
0.372159 -0.198124 -0.132600 68 1 84
0.303378 -0.319038 -0.143675 44 113 142
-0.585859 -0.324093 0.141429 70 9 92
0.533990 0.177176 0.169611 46 107 142
-0.518615 0.024391 0.037600 71 40 120
0.448755 0.008232 -0.105970 68 1 84
0.186697 -0.227614 -0.207286 71 38 118
0.403874 -0.241842 -0.097846 68 1 84
-0.240763 0.359993 -0.176249 72 29 111
-0.462148 -0.276481 -0.041054 68 1 84
0.509074 0.254868 0.475495 189 222 38
-0.439883 0.034696 -0.063636 67 60 132
-0.526110 0.041832 0.065093 60 78 138
-0.148466 -0.141212 -0.250214 35 169 130
-0.346054 0.108190 -0.127658 64 67 135
-0.633489 -0.298844 0.486523 64 67 135
0.194028 0.028764 -0.226389 68 1 84
-0.601995 -0.052678 0.314424 53 93 140
-0.405213 0.306146 -0.020413 51 96 141
-0.156399 -0.096615 -0.245671 30 155 137
-0.109536 0.534415 -0.210947 47 106 141
-0.581874 -0.073819 0.166431 63 71 136
0.499322 -0.189983 -0.050692 68 1 84
-0.600031 0.008826 0.446431 61 187 116
-0.501960 -0.540707 -0.050370 68 1 84
-0.633487 -0.325531 0.375758 72 34 115
-0.249580 0.274224 -0.195112 41 120 142
-0.364820 0.499290 0.145751 56 87 140
-0.630704 -0.280381 0.470568 39 125 142
0.178425 0.591647 -0.095122 64 68 135
-0.625702 -0.220292 0.494194 38 128 142
0.560197 -0.455270 0.070654 68 1 84
-0.531477 0.185895 0.506629 241 229 28
-0.291015 -0.493924 -0.212425 43 177 125
-0.459692 -0.164962 -0.093494 68 1 84
0.316082 -0.277783 -0.136118 69 54 129
0.114193 -0.363429 -0.215814 43 116 142
-0.545612 -0.527595 0.108941 68 1 84
-0.525399 0.234041 0.443514 183 221 41
-0.557486 -0.542075 0.139882 68 1 84
-0.289540 0.557338 0.050534 54 90 140
0.403105 -0.141552 -0.135328 68 1 84
-0.153763 -0.108503 -0.248088 30 159 136
-0.007141 -0.356989 -0.319187 54 184 119
0.576661 0.062974 0.308728 62 73 137
-0.056496 -0.292842 -0.304159 46 178 124
-0.626739 -0.139482 0.509428 47 179 123
0.366138 0.101909 -0.125879 68 1 84
-0.285881 0.398018 -0.112422 68 1 84
-0.344931 0.027666 -0.144781 49 100 141
-0.131676 0.400086 -0.201215 68 1 84
0.029477 0.578076 -0.199871 68 1 84
-0.593956 -0.240251 0.133040 70 11 94
-0.589097 -0.100251 0.169059 72 30 112
-0.527398 -0.484183 0.047946 68 1 84
-0.641264 -0.346842 0.469528 53 92 140
0.434928 0.244627 0.001976 72 32 113
-0.530508 -0.399039 0.055748 68 1 84
0.507727 0.289639 0.349190 71 192 110
0.524757 0.035703 0.000701 68 1 84
0.635929 -0.091769 0.462395 43 116 142
-0.632371 -0.353391 0.415052 59 81 138
0.126389 -0.404988 -0.220546 34 139 141
0.638136 -0.226832 0.261811 68 2 85
-0.078909 0.043535 -0.318021 57 84 139
0.303173 -0.216100 -0.149360 71 43 122
0.314183 -0.513564 -0.243284 54 184 119
-0.546804 0.144703 0.176099 38 128 142
0.619096 -0.137580 0.224249 71 42 121
-0.137083 0.078623 -0.278347 38 128 142
0.614306 -0.017032 0.531536 51 182 121
0.699431 -0.495831 0.514728 68 55 129
-0.138222 0.428674 -0.187218 71 39 119
0.411137 0.306327 0.005829 72 34 115
-0.393174 -0.500875 -0.178363 30 160 135
0.317118 -0.366999 -0.139047 52 94 141
0.511278 0.008897 -0.039774 68 1 84
-0.196107 0.427774 -0.160470 71 38 118
-0.605393 -0.163888 0.177940 68 1 84
-0.085360 0.331890 -0.273220 71 18 101
-0.264387 0.550829 -0.050248 61 75 137
-0.440101 0.156690 -0.019983 46 107 142
-0.361216 -0.570388 -0.222447 126 210 78
-0.638323 -0.199298 0.405144 53 92 140
-0.626852 -0.531953 0.306888 68 1 84
0.227063 0.332485 -0.191064 68 1 84
0.109826 -0.036472 -0.418832 68 1 84
0.341248 -0.162003 -0.157663 68 1 84
-0.031332 0.259706 -0.303010 70 14 97
0.241395 0.221071 -0.208175 68 1 84
0.607963 -0.169017 0.152306 68 1 84
0.019248 -0.267509 -0.391676 31 147 139
-0.081585 0.261872 -0.298242 68 1 84
0.255122 0.447479 -0.085775 68 1 84
-0.538829 -0.232154 0.022697 68 1 84
0.118703 -0.301877 -0.239524 34 137 141
0.641163 -0.191511 0.530776 59 186 117
-0.207016 -0.294788 -0.159934 39 126 142
-0.416898 0.155575 -0.048189 56 86 139
0.504863 0.248600 0.501732 220 226 24
0.540288 -0.203819 0.000640 68 1 84
-0.615089 -0.400213 0.281189 70 12 95
0.111822 0.526766 -0.188521 68 1 84
0.477537 0.355263 0.257695 31 161 135
0.394082 0.137553 -0.090468 68 1 84
0.414419 0.422916 0.137013 62 72 136
-0.470506 -0.463408 -0.089657 55 89 140
-0.639914 -0.238313 0.355030 71 38 118
0.501976 -0.255727 -0.018850 68 1 84
-0.571399 0.119260 0.336119 46 178 124
0.621582 -0.309285 0.219263 68 1 84
0.086740 -0.358755 -0.274061 58 83 139
-0.080055 -0.530669 -0.313237 149 215 63
0.646398 -0.172190 0.330756 65 65 134
-0.487591 -0.342360 0.002144 68 1 84
0.155325 0.477821 -0.159967 71 20 102
-0.530872 -0.432944 0.053846 68 1 84
0.036186 -0.034896 -0.479085 68 55 129
0.507065 0.172151 0.079517 66 62 133
-0.157084 0.628497 -0.104004 68 1 84
0.583310 -0.431635 0.143412 70 11 94
0.368460 0.478272 0.129226 49 102 141
0.172085 0.275159 -0.237376 68 1 84
0.220603 0.519311 -0.087865 71 21 103
0.457434 0.365114 0.420821 131 211 75
-0.615069 -0.045412 0.425183 40 174 127
0.509236 0.290506 0.307774 98 202 95
-0.520503 0.283953 0.330069 87 198 101
0.094381 -0.260114 -0.331808 57 85 139
0.511211 0.271534 0.211700 32 143 140
-0.036806 -0.278322 -0.350309 43 177 125
-0.516332 -0.170019 -0.031019 68 1 84
0.411332 0.377031 0.076038 51 96 141
-0.144226 0.491903 -0.192998 40 123 142
0.044403 -0.002722 -0.371903 68 1 84
-0.076221 0.087306 -0.331239 35 135 141
0.650026 -0.345862 0.387271 71 37 117
-0.439654 0.202897 -0.006969 46 109 142
-0.564626 0.090638 0.500816 144 214 67
0.435387 0.363386 0.109224 62 73 137
0.598484 0.026710 0.485016 124 210 79
-0.415111 -0.214743 -0.112573 68 1 84
-0.515577 0.299170 0.296864 71 192 110
0.272375 -0.097786 -0.200333 68 1 84
0.180137 0.164877 -0.264863 68 1 84
-0.314996 0.354289 -0.114064 70 9 92
0.426654 0.170962 -0.045551 68 1 84
0.580964 -0.496845 0.147890 68 1 84
0.468554 -0.291342 -0.035529 68 1 84
0.127223 -0.228613 -0.288301 30 158 136
0.622284 -0.329152 0.232014 68 2 85
-0.358891 0.088474 -0.119404 61 76 137
0.294387 0.523208 0.043202 38 128 142
0.059860 -0.000958 -0.348936 68 1 84
0.503690 -0.481287 -0.118446 68 1 84
-0.527823 -0.029291 0.027949 68 1 84
-0.661674 -0.484549 0.477795 69 54 129
0.422843 0.379645 0.101649 49 100 141
-0.557144 0.105392 0.192608 43 115 142
0.532640 -0.098290 -0.031029 68 1 84
-0.206193 0.260929 -0.220653 52 95 141
0.340134 -0.096836 -0.174176 68 1 84
0.177034 0.587446 -0.101950 66 61 132
-0.168140 0.444349 -0.172841 58 83 139
-0.269212 -0.439101 -0.178946 49 102 141
0.578698 -0.098217 0.061714 68 1 84
0.457773 0.331298 0.120333 67 58 131
-0.470332 0.347383 0.140592 31 150 139
0.017688 0.214683 -0.309248 68 1 84
0.523645 0.176737 0.129478 67 58 131
-0.500713 -0.213112 -0.039167 68 1 84
-0.640305 -0.230420 0.394900 57 84 139
-0.468205 0.335616 0.120225 37 130 142
-0.633416 -0.325883 0.381237 59 81 138
-0.450129 0.377214 0.127047 32 145 140
-0.065709 0.045600 -0.334121 63 71 136
0.180034 0.407192 -0.171192 68 1 84
-0.562012 0.141598 0.257093 32 164 133
0.420401 -0.253277 -0.084838 68 1 84
-0.392725 -0.325743 -0.079782 71 15 98
-0.531865 -0.550188 0.072226 68 1 84
0.566942 -0.482282 0.109425 68 2 85
0.076190 -0.272366 -0.355220 53 92 140
-0.595504 -0.028288 0.306422 57 85 139
-0.177174 -0.056475 -0.229252 33 167 132
-0.179865 0.310777 -0.245396 52 95 141
0.555660 -0.191381 0.019125 68 1 84
-0.171352 -0.496402 -0.260755 36 170 130
-0.104840 0.222721 -0.274626 68 1 84
-0.565161 -0.264005 0.079590 68 1 84
-0.325573 0.529189 0.093762 62 72 136
0.556954 -0.377262 0.057334 68 1 84
0.540209 0.133827 0.148763 62 72 136
-0.365925 0.501137 0.175280 46 107 142
-0.172817 0.348271 -0.229627 69 5 88
-0.024520 -0.131466 -0.481841 57 84 139
-0.569431 0.128061 0.336941 40 174 127
0.075922 -0.159098 -0.428170 68 1 84
0.074407 -0.141773 -0.447301 68 2 85
0.159710 0.521764 -0.151936 68 1 84
0.622211 -0.042190 0.539391 77 194 107
0.317371 0.536637 0.196286 33 141 140
0.521714 0.238363 0.209574 33 142 140
-0.647496 -0.380899 0.504074 48 104 141
-0.609992 -0.265119 0.179229 71 44 123
-0.357010 -0.018447 -0.147126 58 83 139
0.530403 -0.534678 -0.062592 68 1 84
-0.025867 -0.339824 -0.314341 139 213 70
0.238308 0.443152 -0.106234 68 1 84
0.106690 0.126211 -0.313744 68 1 84
0.639442 -0.433610 0.307167 72 25 107
-0.609387 -0.465687 0.268680 68 1 84
-0.571131 0.119710 0.324527 36 170 130
-0.266533 0.566077 -0.018213 52 95 141
0.266276 -0.482937 -0.225628 98 202 95
0.672125 -0.442902 0.415323 69 53 128
0.559738 -0.344143 0.066711 68 1 84
-0.635389 -0.356247 0.440619 60 78 138
-0.538631 0.048606 0.103928 46 107 142
-0.281218 0.132549 -0.188631 49 100 141
0.569869 -0.472839 0.115170 71 40 120
0.648385 -0.212882 0.324483 70 47 124
-0.502324 -0.475330 -0.046100 70 9 92
0.088223 -0.365517 -0.268536 30 158 136
-0.084652 -0.166004 -0.367979 58 83 139
0.180467 0.560510 -0.116827 66 62 133
-0.029807 -0.336855 -0.311360 151 216 62
-0.117971 -0.186595 -0.274756 40 174 127
0.125801 0.423416 -0.190702 68 1 84
-0.034462 0.522175 -0.229935 66 61 132
0.009133 -0.155242 -0.472988 66 62 133
-0.443648 -0.327266 -0.034324 70 12 95
-0.287225 -0.184444 -0.174402 53 92 140
0.559515 -0.293398 0.059436 68 1 84
0.647116 -0.342945 0.363577 65 66 134
0.643729 -0.145736 0.342516 47 105 141
-0.029631 0.322824 -0.276172 68 1 84
0.290022 0.363973 -0.123717 68 1 84
-0.486935 -0.395040 -0.016291 68 1 84
-0.620309 -0.080668 0.452799 31 162 134
-0.421549 0.157788 -0.042069 60 77 138
0.600223 -0.056412 0.240272 50 99 141
0.654296 -0.251586 0.448138 56 86 139
0.200891 0.442043 -0.135334 68 1 84
0.449142 0.398706 0.300751 42 176 126
-0.443992 0.409797 0.284827 30 151 138
0.619350 -0.248579 0.190231 68 1 84
0.087642 -0.164690 -0.406360 68 2 85
-0.460940 -0.351785 -0.018790 72 25 107
-0.609206 -0.241694 0.172785 68 55 129
-0.443640 0.383244 0.117855 34 137 141
0.310289 0.522091 0.084509 42 119 142
-0.015022 0.173198 -0.344928 68 1 84
0.645295 -0.144841 0.369613 51 97 141
-0.431371 0.329447 0.039663 55 89 140
0.648752 -0.305583 0.377160 72 35 116
-0.365146 -0.122320 -0.154437 65 66 134
-0.576661 0.056387 0.277406 34 137 141
-0.481691 0.354471 0.322188 41 175 127
-0.630455 -0.229083 0.463982 53 93 140
0.523649 0.237889 0.223067 32 143 140
-0.074994 -0.304307 -0.246279 71 192 110
0.505840 -0.105935 -0.062724 68 1 84
-0.567671 0.094450 0.249022 40 174 127
-0.543473 0.217448 0.237430 31 146 140
0.100604 0.177144 -0.316553 68 1 84
-0.034339 0.135850 -0.338106 71 38 118
0.322012 0.521532 0.124885 49 100 141
0.537674 0.199307 0.240588 30 153 138
0.211329 0.157073 -0.242042 68 1 84
-0.455734 0.367368 0.128619 37 131 141
-0.234017 0.175345 -0.234215 51 97 141
0.291916 0.483549 -0.011956 68 1 84
-0.103436 -0.140821 -0.346589 48 103 141
-0.535727 0.131910 0.138806 40 122 142
-0.351050 -0.549601 -0.228854 114 207 85
0.528573 0.118424 0.090081 69 54 129
0.226725 0.078799 -0.217179 68 1 84
0.640283 -0.121091 0.358326 40 122 142
0.345173 -0.356410 -0.136043 69 54 129
-0.471814 -0.271309 -0.035813 68 1 84
0.311938 0.175355 -0.167105 68 1 84
-0.625019 -0.118042 0.378332 50 98 141
0.147657 -0.059154 -0.358828 68 1 84
-0.552960 0.130515 0.490144 159 217 56
0.380135 0.483609 0.201203 36 132 141
-0.534847 -0.022461 0.046653 72 25 107
-0.461300 0.299666 0.072686 54 90 140
-0.442577 0.416180 0.252551 35 135 141
-0.378930 0.029199 -0.118244 60 77 138
-0.533502 -0.186877 -0.000787 68 1 84
0.510282 0.171163 0.086974 69 53 128
-0.419939 0.176238 -0.039288 49 100 141
0.582042 -0.256919 0.090264 68 1 84
-0.275391 -0.442621 -0.180413 42 117 142
0.317621 -0.105762 -0.181373 68 1 84
-0.492456 0.051544 0.006869 72 32 113
0.459144 -0.360307 -0.046188 68 1 84
0.517959 0.240410 0.453161 167 219 51
-0.510005 -0.524511 -0.011703 68 1 84
0.470329 -0.131181 -0.092951 68 1 84
-0.292013 -0.511112 -0.232018 69 191 111
-0.111044 0.022495 -0.275533 53 92 140
-0.006622 0.517573 -0.230890 72 33 114
0.531905 0.030547 0.013966 68 1 84
-0.059325 -0.033689 -0.379150 59 81 138
-0.175245 0.613454 -0.117078 68 1 84
0.309493 0.394338 -0.079800 68 1 84
0.646108 -0.147288 0.456135 41 121 142
0.464078 -0.564752 -0.158472 71 24 106
0.650100 -0.282631 0.374405 61 76 137
0.187293 0.163051 -0.259619 68 1 84
-0.183504 -0.313268 -0.159894 47 106 141
0.631916 -0.349295 0.289417 70 11 94
-0.294630 0.201322 -0.186665 63 69 135
0.208622 0.587384 -0.045095 65 65 134
-0.290492 0.554620 0.038464 51 97 141
0.073923 -0.026900 -0.396890 68 1 84
0.400728 -0.127205 -0.139490 68 1 84
0.573270 0.037663 0.238317 66 62 133
0.400843 0.244255 -0.045379 68 1 84
-0.615217 -0.046864 0.428910 64 189 114
0.441990 0.015479 -0.108558 68 1 84
-0.339287 -0.536310 -0.230834 103 204 92
-0.625127 -0.127975 0.365041 50 99 141
-0.038390 -0.362120 -0.271383 103 204 92
-0.096755 -0.056496 -0.420212 61 74 137
-0.542228 0.186522 0.463634 205 224 29
0.432966 -0.017137 -0.122716 68 1 84
0.615208 -0.067327 0.300436 44 113 142
0.606787 -0.214324 0.143174 68 1 84
-0.557833 0.131904 0.468334 181 221 43
-0.518069 0.294399 0.289032 61 187 116
-0.493205 0.313987 0.419498 53 183 120
0.554775 -0.478107 0.059141 71 21 103
0.070292 0.582051 -0.185223 68 1 84
-0.429742 0.429740 0.266660 37 130 142
0.524565 0.238088 0.234333 31 150 139
-0.297043 0.060704 -0.170099 56 86 139
-0.132941 0.224580 -0.263531 68 1 84
-0.612700 -0.434176 0.278803 71 24 106
-0.527331 0.235141 0.433422 212 225 26
0.321490 0.005563 -0.179235 68 1 84
0.382337 0.237252 -0.071496 68 1 84
-0.121517 -0.017987 -0.340742 49 102 141
0.655023 -0.234229 0.438876 61 74 137
0.099995 -0.026433 -0.406234 68 1 84
0.520440 0.247327 0.223022 34 138 141
0.161647 0.622219 -0.068218 61 74 137
-0.370552 -0.345313 -0.102934 59 81 138
0.640162 -0.380943 0.320503 72 28 110
-0.094420 0.172425 -0.326463 68 1 84
0.242794 0.580688 0.102703 42 118 142
-0.196811 0.186776 -0.257174 63 69 135
0.553852 -0.211891 0.023824 68 1 84
-0.577903 -0.540877 0.186541 68 1 84
-0.239773 0.110072 -0.215700 38 128 142
0.254454 -0.188485 -0.182728 65 66 134
0.699987 -0.488656 0.474301 67 59 131
-0.357846 -0.292444 -0.108506 71 38 118
0.546991 0.158198 0.228055 45 110 142
0.066664 -0.419827 -0.295102 34 137 141
-0.333885 0.017105 -0.154870 55 89 140
0.057449 0.629219 -0.140683 68 1 84
-0.478364 0.340571 0.415429 30 153 138
0.640119 -0.178403 0.536653 75 194 108
-0.177851 -0.447693 -0.168107 44 112 142
-0.071864 0.317670 -0.286832 68 3 87
0.479692 0.242844 0.075601 60 78 138
0.209743 0.214697 -0.224631 68 1 84
0.381535 -0.521159 -0.222846 47 106 141
0.293076 0.549568 0.146739 34 137 141
0.249273 -0.121109 -0.204086 71 39 119
0.079514 -0.151322 -0.431543 68 1 84
0.098926 0.186010 -0.313571 68 1 84
-0.288609 0.560187 0.081067 66 62 133
-0.500173 0.324196 0.315367 73 193 109
-0.116706 -0.126814 -0.312883 36 132 141
0.564026 -0.102156 0.022790 68 1 84
-0.218097 -0.260100 -0.168794 43 115 142
-0.273197 0.570788 0.019982 66 62 133
0.541029 0.181484 0.226815 36 132 141
-0.101918 0.237966 -0.277777 68 1 84
-0.371846 0.125814 -0.101506 68 57 130
0.133840 -0.112464 -0.364968 68 1 84
0.065197 0.466048 -0.217484 68 1 84
-0.358656 -0.232758 -0.136395 68 1 84
-0.466038 0.388535 0.213780 34 139 141
-0.116511 -0.092851 -0.379050 47 106 141
0.033652 0.525337 -0.223749 71 21 103
0.016365 0.590746 -0.192500 71 20 102
-0.344962 0.341967 -0.086597 59 80 138
0.342565 -0.306788 -0.139206 68 57 130
-0.451668 -0.009842 -0.071418 68 57 130
-0.553442 0.177963 0.242463 48 180 122
0.127464 0.639601 -0.065271 71 15 98
-0.590063 -0.484794 0.207576 68 1 84
-0.489858 0.318226 0.159974 31 150 139
-0.627407 -0.127898 0.384229 46 107 142
0.336632 0.395099 -0.040963 68 1 84
0.497939 -0.114194 -0.070391 68 1 84
0.233295 0.586176 0.071389 49 101 141
-0.401242 0.365758 0.013360 71 39 119
-0.607778 -0.281404 0.177764 68 3 87
0.134904 0.396125 -0.205471 68 1 84
-0.133297 -0.201891 -0.244522 44 177 125
0.629092 -0.105526 0.309183 32 144 140
0.462633 0.377780 0.217942 37 131 141
-0.664497 -0.540480 0.451325 71 24 106
0.480691 -0.544426 -0.145779 68 1 84
-0.237798 0.006168 -0.202743 48 104 141
-0.076380 0.607388 -0.176604 70 12 95
0.042918 0.623425 -0.153215 68 1 84
0.159397 -0.449612 -0.239340 35 136 141
0.207630 0.527951 -0.099291 61 75 137
0.624644 -0.182035 0.214621 68 2 85
0.692948 -0.418448 0.528930 51 96 141
0.160407 0.364614 -0.222512 68 1 84
0.477696 0.286498 0.113895 49 101 141
-0.492566 0.334413 0.329956 30 154 137
0.149791 -0.091795 -0.326453 68 1 84
0.373004 0.491727 0.240570 37 171 129
-0.184871 0.401725 -0.181219 67 58 131
-0.475583 0.357643 0.359067 46 178 124
-0.613556 -0.104812 0.308325 44 112 142
-0.446504 0.256160 0.022870 52 94 141
0.503625 0.224952 0.113606 62 73 137
-0.048208 -0.414500 -0.260101 30 152 138
0.323224 -0.313357 -0.143462 61 75 137
0.651496 -0.183826 0.386960 61 75 137
0.494003 0.304467 0.410388 107 205 89
-0.092693 0.580748 -0.195460 71 42 121
-0.071303 -0.308365 -0.249417 43 177 125
0.401471 -0.292572 -0.096614 68 1 84
0.309015 0.220788 -0.166736 68 1 84
-0.255673 0.582826 -0.007794 54 91 140
0.096396 -0.076195 -0.456030 72 29 111
-0.036730 -0.018424 -0.415617 72 32 113
0.639767 -0.202645 0.272135 71 44 123
-0.632269 -0.281385 0.525530 34 138 141
-0.469148 0.364959 0.162145 30 153 138
0.523992 0.235558 0.413504 100 203 93
-0.522110 0.269750 0.382631 100 203 93
-0.545133 0.193606 0.432591 157 217 58
0.002184 -0.282314 -0.376960 75 194 108
-0.549040 0.156547 0.476165 202 224 30
0.549480 0.174243 0.376209 36 170 130
-0.625745 -0.200618 0.248820 64 67 135
0.548280 0.140417 0.195377 48 103 141
0.165695 -0.323323 -0.166091 69 50 127
-0.154635 0.326173 -0.255569 59 80 138
-0.314722 0.328666 -0.129204 71 17 99
0.446940 0.271744 0.037962 68 1 84
0.167085 -0.320505 -0.166529 70 48 125
0.457286 0.178078 -0.006016 68 1 84
0.421039 -0.483619 -0.179743 58 82 139
-0.608053 -0.096986 0.276898 50 98 141
-0.114038 0.141569 -0.315939 71 40 120
0.569456 -0.027981 0.075324 68 1 84
-0.178465 -0.171766 -0.217476 64 189 114
0.048706 0.187396 -0.334761 68 1 84
0.169087 0.141637 -0.272315 68 1 84
0.562384 0.096453 0.243559 47 106 141
-0.182459 -0.482457 -0.217814 34 138 141
-0.036258 -0.334651 -0.303016 77 194 107
-0.383547 -0.237156 -0.121126 68 2 85
-0.191996 -0.055685 -0.224567 34 167 132
0.096777 -0.119281 -0.441157 71 22 105
-0.630043 -0.233799 0.466667 48 104 141
-0.084329 0.396352 -0.213686 68 1 84
-0.247513 -0.004222 -0.199878 44 114 142
-0.007040 -0.261690 -0.387330 30 155 137
0.174914 -0.324323 -0.160311 68 1 84
-0.388706 0.262890 -0.062355 65 66 134
0.594810 0.027928 0.551405 134 212 73
-0.634609 -0.367079 0.436430 55 89 140
0.235383 0.039265 -0.207956 68 1 84
-0.469555 0.284740 0.077949 48 104 141
-0.420104 0.178090 -0.038650 50 98 141
0.255235 -0.192067 -0.180522 62 73 137
0.482168 0.320210 0.170924 36 132 141
0.642031 -0.295281 0.320412 71 39 119
-0.067077 -0.307174 -0.260993 75 194 108
-0.371834 -0.158636 -0.148630 46 107 142
0.475443 0.223119 0.051247 65 65 134
-0.179580 0.132772 -0.270897 37 131 141
0.149256 -0.080546 -0.341572 68 1 84
0.666387 -0.373805 0.453895 59 81 138
0.284642 -0.219116 -0.154504 67 58 131
0.354992 -0.465334 -0.186133 47 105 141
0.648379 -0.197956 0.328578 67 58 131
-0.597598 -0.259256 0.145120 72 34 115
-0.606927 -0.039654 0.505957 64 189 114
0.551677 -0.029001 0.026547 68 1 84
-0.626423 -0.190263 0.512432 49 102 141
-0.180210 0.529164 -0.165842 44 113 142
-0.619211 -0.149649 0.268295 72 35 116
0.092315 -0.150669 -0.414227 68 1 84
0.020400 -0.032183 -0.480698 68 55 129
0.614384 -0.421175 0.231989 68 1 84
-0.202451 0.584365 -0.119910 66 62 133
-0.085395 -0.187691 -0.337664 34 138 141
0.460568 -0.332693 -0.037864 68 1 84
-0.217469 -0.400005 -0.154639 57 85 139
0.550651 0.168601 0.392417 34 167 132
0.523073 0.011481 -0.017090 68 1 84
-0.437890 -0.553375 -0.165821 31 150 139
-0.589695 0.017633 0.486040 69 191 111
-0.417288 -0.234795 -0.100945 71 17 99
0.197425 0.466415 -0.129452 68 1 84
0.070078 0.198189 -0.311339 68 1 84
-0.599508 -0.376553 0.204194 68 1 84
0.303015 -0.092355 -0.189147 68 1 84
-0.607292 -0.475698 0.261852 68 1 84
0.009817 -0.089366 -0.505211 72 35 116
0.140778 0.114867 -0.287205 68 1 84
-0.408281 -0.321440 -0.066675 72 26 108
-0.145019 -0.054214 -0.256295 59 81 138
0.525495 0.217862 0.468283 197 223 33
-0.369982 0.215959 -0.093698 67 58 131
0.463623 -0.096729 -0.101569 68 1 84
-0.104531 0.476654 -0.215338 42 119 142
-0.554723 -0.277959 0.065888 68 1 84
-0.590191 -0.115786 0.158647 70 49 126
-0.411695 0.434968 0.111608 37 130 142
-0.298488 -0.006252 -0.180145 42 118 142
-0.046764 0.398890 -0.227913 68 1 84
0.067683 -0.441774 -0.300568 31 162 134
-0.119697 0.588007 -0.179927 67 58 131
-0.348822 0.513526 0.146073 55 89 140
0.008755 -0.473424 -0.315387 47 179 123
-0.606922 -0.473737 0.260543 68 1 84
-0.050239 -0.156041 -0.438537 52 95 141
0.648361 -0.235887 0.499630 30 157 136
-0.514738 -0.285428 0.014100 68 1 84
0.629218 -0.160471 0.247360 70 45 124
0.584586 0.065083 0.381180 31 149 139
-0.523705 -0.019068 0.025352 68 1 84
-0.615037 -0.065371 0.489364 47 179 123
-0.493296 -0.056652 -0.043991 72 26 108
