ply
format ascii 1.0
element vertex 1273
property float x
property float y
property float z
property uchar red
property uchar green
property uchar blue
end_header
0.570823 0.269758 0.330250 69 8 91
-0.020660 0.359387 -0.242435 61 75 137
0.408162 0.294013 -0.062854 72 34 115
0.675659 -0.215377 0.327080 68 1 84
-0.257242 -0.358783 -0.177684 68 1 84
0.398341 0.115473 -0.143824 67 60 132
0.452096 -0.434511 -0.165610 68 1 84
-0.205771 -0.188632 -0.195620 57 85 139
-0.394504 -0.392804 -0.172113 68 1 84
0.044747 -0.349442 -0.312963 49 102 141
-0.572749 0.212413 0.440409 68 1 84
-0.059821 0.207224 -0.295457 34 139 141
-0.618400 -0.260512 0.174100 68 1 84
0.266755 -0.226958 -0.173320 63 71 136
0.069918 0.082536 -0.309308 39 173 128
0.048105 -0.286985 -0.325616 30 157 136
0.485607 -0.391940 -0.113332 68 1 84
-0.622339 -0.473200 0.222107 68 1 84
0.439460 -0.468747 -0.181935 68 1 84
-0.612858 0.049119 0.455743 68 1 84
-0.235990 0.439718 -0.142462 68 1 84
0.531914 -0.125525 -0.042117 72 30 112
-0.245467 0.113382 -0.215937 38 128 142
0.651542 -0.427402 0.201194 68 1 84
0.623865 0.066706 0.487667 68 1 84
0.639564 -0.195424 0.177611 68 1 84
0.295714 0.510688 0.005249 68 1 84
0.623924 -0.090723 0.170856 68 1 84
-0.236753 0.540593 -0.048024 68 1 84
-0.447384 0.429804 0.122228 68 1 84
-0.194178 0.141093 -0.245554 43 115 142
-0.509853 -0.256011 -0.003754 68 1 84
-0.515405 0.338427 0.195278 68 1 84
0.681433 -0.215778 0.372623 68 1 84
-0.478696 -0.271770 -0.026505 68 1 84
-0.497749 0.261926 0.037593 68 2 85
-0.447178 -0.397030 -0.132630 68 1 84
-0.264365 0.288692 -0.163270 71 39 119
0.553291 -0.128796 -0.009411 71 18 101
0.433228 -0.083183 -0.143257 46 108 142
0.540164 0.310821 0.213868 71 18 101
0.184008 0.075692 -0.229872 32 143 140
-0.409122 0.451921 0.064798 68 1 84
0.202904 0.552231 -0.081485 68 1 84
-0.081135 0.202602 -0.301521 30 154 137
-0.659785 -0.265435 0.354278 68 1 84
-0.494933 0.383280 0.230111 68 1 84
0.547352 0.322110 0.304608 72 25 107
-0.291817 -0.162668 -0.179024 71 37 117
-0.636583 -0.478441 0.278282 68 1 84
-0.391016 0.502420 0.200119 68 1 84
-0.666639 -0.303479 0.364995 68 1 84
0.107339 -0.463442 -0.324102 61 74 137
-0.382285 0.432772 -0.001547 68 1 84
-0.422574 0.351792 -0.024184 68 1 84
-0.245782 -0.300153 -0.171836 72 33 114
0.696172 -0.468874 0.380575 68 1 84
-0.640784 -0.106398 0.366135 68 1 84
-0.604811 0.099075 0.426046 68 1 84
-0.561968 -0.056146 0.029604 68 1 84
0.459499 0.147344 -0.077253 61 75 137
0.164305 0.543736 -0.164005 68 1 84
0.640492 -0.009614 0.499955 68 1 84
-0.524787 0.334929 0.325542 68 1 84
0.160913 0.515209 -0.193069 68 1 84
0.058135 -0.143905 -0.396040 165 218 53
0.154347 -0.013283 -0.291438 30 154 137
-0.484669 -0.373361 -0.060240 68 1 84
-0.598036 0.007781 0.242575 68 1 84
-0.527608 -0.135969 -0.039036 68 1 84
0.705730 -0.535771 0.431462 68 1 84
-0.199119 0.425686 -0.178453 68 1 84
-0.583801 0.115371 0.519733 68 1 84
-0.304618 -0.367246 -0.180568 68 1 84
0.579940 -0.087673 0.037502 71 22 105
-0.497963 0.158168 -0.020491 68 1 84
0.215906 0.196036 -0.223768 44 114 142
0.248137 -0.123645 -0.201055 49 102 141
0.420278 0.461728 0.119316 68 1 84
-0.437593 0.448159 0.140628 68 1 84
0.122544 0.168243 -0.291434 33 166 133
0.499823 0.366038 0.159532 68 3 87
0.136787 0.316935 -0.234523 56 86 139
-0.599791 0.108990 0.456572 68 1 84
-0.056477 0.299881 -0.279535 37 131 141
-0.511855 0.047466 -0.041760 68 1 84
-0.472350 -0.148334 -0.100343 68 1 84
-0.359522 -0.482747 -0.226274 68 1 84
-0.684598 -0.428275 0.441511 68 1 84
-0.507996 0.175242 0.006873 68 1 84
0.540789 0.088731 0.025620 69 53 128
-0.332155 0.312291 -0.131644 71 37 117
0.584509 0.229464 0.399938 71 18 101
0.233502 0.525686 -0.074696 68 1 84
-0.579309 -0.057224 0.085072 68 1 84
0.097048 0.018550 -0.324847 64 189 114
-0.454113 0.426259 0.140309 68 1 84
0.229311 -0.443770 -0.263486 70 47 124
-0.573254 0.003841 0.096740 68 1 84
0.566816 0.029484 0.050962 72 30 112
-0.417048 -0.111659 -0.152308 68 1 84
-0.378039 0.505656 0.122165 68 1 84
-0.530218 0.294210 0.487975 68 1 84
0.440543 -0.215526 -0.088036 68 1 84
0.610610 0.071504 0.274641 71 40 120
-0.596200 0.058944 0.270097 68 1 84
-0.116850 -0.147887 -0.289694 32 144 140
-0.595568 0.068680 0.516769 68 1 84
0.108456 -0.166574 -0.291231 30 153 138
-0.334438 -0.385660 -0.213908 70 14 97
-0.378010 0.085620 -0.164077 61 75 137
0.190321 -0.328599 -0.173252 71 15 98
0.268340 0.537800 0.013040 68 1 84
-0.480348 0.368673 0.104719 68 1 84
0.531784 0.144580 0.040658 69 50 127
-0.681242 -0.508031 0.418163 68 1 84
0.075166 0.058545 -0.306057 33 166 133
-0.466673 -0.401780 -0.111574 68 1 84
0.276940 -0.501981 -0.276478 69 8 91
0.618999 0.089244 0.480104 68 1 84
0.319014 -0.184367 -0.161466 70 47 124
-0.631366 -0.422206 0.242268 68 1 84
0.180269 0.263288 -0.206313 45 110 142
-0.245725 -0.050254 -0.220634 35 135 141
-0.544612 0.294466 0.307265 68 1 84
0.520459 0.050645 -0.031201 67 59 131
-0.550424 0.270965 0.254104 68 1 84
0.230938 -0.353664 -0.191543 70 45 124
0.681352 -0.272896 0.345629 68 1 84
-0.033552 0.039190 -0.373277 61 187 116
0.625953 0.019154 0.292346 71 20 102
-0.075919 0.384742 -0.247689 68 1 84
0.372436 0.381189 -0.041624 68 3 87
-0.555447 -0.009581 0.026603 68 1 84
0.584069 0.210342 0.481806 70 14 97
-0.241538 0.054776 -0.214561 36 133 141
-0.446194 0.259669 -0.050145 70 12 95
-0.525279 0.131994 0.019884 68 1 84
0.422005 0.485278 0.285334 68 1 84
0.437466 -0.328166 -0.096227 68 1 84
0.615827 -0.481903 0.107315 68 1 84
0.463138 0.415871 0.138385 68 3 87
0.609825 -0.032601 0.152537 68 3 87
0.660385 -0.150131 0.289047 68 1 84
-0.476067 -0.500840 -0.110651 68 1 84
0.164305 -0.150019 -0.231843 44 114 142
0.576528 -0.139018 0.032699 68 1 84
-0.529514 0.023629 -0.018348 68 1 84
-0.609201 -0.537255 0.195682 68 1 84
0.160837 -0.087130 -0.243779 38 129 142
-0.166608 0.481210 -0.207784 68 1 84
0.262749 -0.494193 -0.282751 71 18 101
-0.286335 -0.097736 -0.203355 49 101 141
-0.610389 -0.155903 0.173255 68 1 84
0.230730 0.484790 -0.121571 68 1 84
-0.617440 -0.256726 0.172252 68 1 84
-0.203814 0.039982 -0.219939 42 119 142
0.591743 -0.094987 0.066669 68 1 84
0.272589 0.364512 -0.125327 72 25 107
-0.654386 -0.215858 0.355612 68 1 84
-0.473055 -0.475960 -0.119117 68 1 84
0.253862 -0.155238 -0.184838 57 85 139
0.671573 -0.224680 0.287038 68 1 84
-0.608690 0.000773 0.527984 68 1 84
-0.119635 0.275679 -0.262831 36 133 141
-0.588404 -0.496613 0.133004 68 1 84
-0.302974 -0.075320 -0.203991 48 103 141
-0.378342 0.191572 -0.137552 72 35 116
0.434638 -0.016210 -0.142370 63 71 136
-0.352177 0.455187 -0.014731 68 1 84
0.687265 -0.305654 0.422479 68 1 84
0.648868 -0.432936 0.192408 68 1 84
0.244751 0.506691 -0.082870 68 1 84
-0.065653 -0.262304 -0.308574 50 98 141
0.092468 0.340043 -0.235682 71 20 102
0.615863 0.102988 0.474177 68 1 84
0.568627 0.247455 0.502702 68 1 84
-0.547839 0.209379 0.147154 68 1 84
-0.162444 -0.030665 -0.237584 35 137 141
0.379554 -0.103014 -0.168130 52 94 141
-0.501572 0.320323 0.099452 68 1 84
-0.291641 -0.348019 -0.167235 68 1 84
-0.012374 -0.248254 -0.362200 33 142 140
0.186525 0.306874 -0.200722 65 66 134
0.025199 0.066837 -0.347102 75 194 108
-0.532367 -0.481005 0.001221 68 1 84
0.504703 -0.290506 -0.013208 68 1 84
-0.625852 -0.540560 0.240571 68 1 84
0.575469 0.242287 0.468213 69 5 88
0.553660 0.054291 0.033726 71 43 122
-0.490521 0.167611 -0.028572 68 1 84
-0.436511 0.383930 0.026011 68 1 84
-0.596536 -0.024076 0.202986 68 1 84
0.521391 0.298030 0.135018 68 1 84
0.291019 -0.203392 -0.167364 67 58 131
0.224620 -0.204308 -0.176478 66 64 133
0.511248 -0.450862 -0.095741 68 1 84
-0.353717 0.156659 -0.162420 61 75 137
0.054829 -0.156761 -0.389781 170 219 50
-0.596987 -0.291087 0.120500 68 1 84
-0.621325 -0.464778 0.215621 68 1 84
0.297201 -0.402933 -0.231805 63 69 135
0.223119 -0.194238 -0.180032 65 66 134
-0.010754 0.315368 -0.252586 49 100 141
0.487072 -0.471099 -0.130577 68 1 84
0.522916 -0.217999 -0.012372 68 1 84
0.074710 -0.057480 -0.443035 162 218 55
0.555055 0.034131 0.025511 72 26 108
-0.660068 -0.286414 0.344823 68 1 84
-0.029216 -0.465964 -0.332812 67 59 131
-0.080256 -0.291507 -0.264319 59 81 138
0.005141 0.117804 -0.322077 69 191 111
0.050245 -0.435867 -0.326158 56 87 140
-0.016151 -0.370311 -0.317318 51 96 141
-0.217928 -0.090498 -0.221877 35 136 141
-0.229809 -0.068388 -0.221843 33 140 141
0.304993 -0.121300 -0.183560 58 83 139
0.194629 -0.290968 -0.164357 72 26 108
-0.513416 -0.236816 -0.009691 68 1 84
-0.660045 -0.512870 0.341963 68 1 84
0.617758 -0.119332 0.138366 68 1 84
-0.249353 0.321894 -0.157938 71 17 99
0.481010 -0.506616 -0.132834 68 1 84
-0.471026 -0.475280 -0.122467 68 1 84
-0.036507 -0.165260 -0.405383 94 201 97
0.540354 0.301770 0.198934 69 5 88
-0.057983 0.075262 -0.325398 43 177 125
-0.116180 -0.176207 -0.274278 34 139 141
-0.513478 0.049449 -0.038472 68 1 84
-0.042987 0.240710 -0.277910 40 122 142
-0.430375 -0.207495 -0.103733 68 1 84
-0.580620 -0.391609 0.096381 68 1 84
-0.650987 -0.557324 0.319552 68 1 84
-0.483150 0.305026 0.038019 68 1 84
0.653561 -0.187807 0.230009 68 1 84
0.176573 -0.107198 -0.233540 40 122 142
-0.277742 0.274737 -0.168725 69 52 127
-0.247451 0.300718 -0.162790 68 3 87
0.373368 0.310712 -0.088671 71 17 99
0.183371 0.254028 -0.201112 58 82 139
0.103583 0.214009 -0.270953 30 154 137
-0.128662 0.546533 -0.202771 68 1 84
-0.173599 -0.120603 -0.232998 37 131 141
-0.221072 -0.070259 -0.223359 36 132 141
-0.551613 -0.371356 0.044184 68 1 84
0.295493 -0.483228 -0.262838 71 20 102
-0.056166 -0.118439 -0.427970 91 200 98
-0.558402 -0.435226 0.052128 68 1 84
-0.041923 0.391619 -0.263079 68 1 84
0.522050 -0.134073 -0.053435 69 54 129
-0.567523 -0.236604 0.062066 68 1 84
0.416257 -0.474587 -0.200643 68 1 84
-0.122033 0.380969 -0.224383 68 1 84
0.515300 -0.288803 -0.004299 68 1 84
-0.571904 -0.010417 0.080737 68 1 84
0.380849 -0.498900 -0.227442 72 28 110
0.705766 -0.529946 0.429964 68 1 84
0.414448 0.492454 0.249862 68 1 84
0.165071 -0.191190 -0.213963 48 104 141
0.617093 -0.065278 0.157947 68 1 84
0.370478 0.165837 -0.147023 60 78 138
0.058556 0.414007 -0.268904 68 1 84
-0.619850 -0.215455 0.190208 68 1 84
0.603219 -0.370935 0.083561 68 1 84
0.545733 0.325889 0.355091 70 9 92
0.259164 0.476057 -0.089791 68 1 84
-0.623023 -0.026832 0.485262 68 1 84
-0.108197 0.174867 -0.307033 94 201 97
0.074400 0.570039 -0.210773 68 1 84
-0.188631 -0.146989 -0.220426 49 102 141
-0.572585 0.212570 0.441545 69 8 91
-0.350567 0.528867 0.149268 68 1 84
-0.039780 -0.190530 -0.385822 43 177 125
-0.315775 0.427306 -0.077695 68 1 84
-0.582767 0.015986 0.169911 68 1 84
-0.610337 -0.016425 0.279681 68 1 84
-0.213583 -0.357889 -0.183958 68 1 84
-0.296922 0.236615 -0.179965 59 81 138
0.108787 0.322598 -0.244062 69 50 127
-0.102830 -0.282015 -0.227633 71 43 122
0.506162 -0.381794 -0.079815 68 1 84
0.155711 0.414368 -0.210425 68 2 85
-0.570435 0.069654 0.151501 68 1 84
-0.080379 -0.289363 -0.265120 69 50 127
0.634564 -0.115850 0.198384 68 1 84
0.277298 -0.473589 -0.266511 72 25 107
0.320323 0.246381 -0.149672 67 60 132
0.513684 -0.450034 -0.091856 68 1 84
0.432174 0.135322 -0.111037 63 69 135
0.154690 0.139169 -0.260803 32 143 140
-0.412337 -0.384176 -0.150694 68 1 84
0.006629 0.296769 -0.289524 38 128 142
-0.473408 -0.140064 -0.102025 68 1 84
0.575497 -0.216516 0.047771 68 1 84
0.077193 0.405988 -0.258508 70 9 92
-0.361457 0.077159 -0.175349 58 83 139
0.659248 -0.092703 0.478150 68 1 84
-0.049184 -0.187988 -0.379140 36 170 130
0.631437 -0.482417 0.146912 68 1 84
-0.457118 0.073960 -0.102231 71 38 118
0.352758 -0.090780 -0.179178 52 95 141
-0.053476 -0.251978 -0.331287 45 111 142
0.332886 0.489237 0.022628 68 1 84
0.266640 -0.290276 -0.176667 62 73 137
0.663862 -0.123838 0.382701 68 1 84
0.292713 -0.236788 -0.173875 59 80 138
0.301804 -0.318142 -0.170612 71 39 119
0.240224 -0.457510 -0.270938 70 47 124
-0.286657 -0.126248 -0.195333 54 91 140
0.484910 -0.239924 -0.036454 68 1 84
-0.624356 -0.076604 0.290864 68 1 84
0.043556 0.013027 -0.445845 225 227 24
-0.417941 0.000548 -0.151280 57 84 139
0.686154 -0.304873 0.383714 68 1 84
0.542939 -0.339403 0.001045 68 1 84
-0.191138 -0.429443 -0.258482 67 60 132
0.115692 0.000371 -0.375404 66 190 113
0.682929 -0.221451 0.421058 68 1 84
0.224139 -0.228225 -0.174367 63 69 135
-0.659188 -0.271833 0.526265 68 1 84
0.606026 0.146703 0.431001 69 8 91
0.504088 0.388820 0.246411 69 5 88
-0.072966 -0.393941 -0.299586 51 97 141
-0.130665 0.574814 -0.146943 68 1 84
-0.648623 -0.144275 0.431952 68 1 84
0.082460 0.099331 -0.300267 41 175 127
-0.022191 0.398705 -0.269277 68 1 84
0.306640 -0.189465 -0.164035 71 38 118
0.224312 0.068154 -0.216499 36 133 141
-0.167442 0.147267 -0.261235 31 161 135
0.514807 0.089016 -0.024321 71 44 123
0.304830 -0.145871 -0.173738 66 64 133
-0.359627 -0.319663 -0.141935 68 1 84
-0.044988 -0.156552 -0.405789 42 176 126
-0.113210 -0.212567 -0.258987 44 112 142
-0.282867 0.061036 -0.207756 41 120 142
-0.665436 -0.530113 0.362852 68 1 84
0.400561 0.292340 -0.072029 71 39 119
-0.434979 0.423971 0.074424 68 1 84
-0.231727 0.244767 -0.190095 62 72 136
0.135628 -0.058276 -0.330469 53 183 120
0.122867 0.383548 -0.224844 68 2 85
0.403801 0.295929 -0.066609 71 37 117
0.269787 -0.171468 -0.173717 66 62 133
-0.286919 0.543715 0.038244 68 1 84
-0.459909 0.433879 0.227985 68 1 84
0.706883 -0.538299 0.458855 68 1 84
0.180331 0.394939 -0.189127 71 21 103
0.476057 -0.235126 -0.046990 68 1 84
-0.514163 -0.003618 -0.052953 68 1 84
0.076148 0.391913 -0.251572 68 1 84
0.398356 0.314747 -0.061079 71 18 101
-0.566227 -0.032712 0.049893 68 1 84
0.114298 0.563124 -0.190987 68 1 84
0.156982 0.565402 -0.134615 68 1 84
-0.563940 -0.478109 0.070635 68 1 84
-0.683188 -0.506027 0.427317 68 1 84
0.167870 -0.296034 -0.166523 71 22 105
-0.318173 -0.346404 -0.165837 68 1 84
-0.625074 -0.497498 0.236600 68 1 84
-0.134486 -0.316729 -0.183895 68 1 84
-0.678352 -0.437209 0.397137 68 1 84
0.651067 -0.106035 0.278790 68 1 84
0.377274 -0.324411 -0.138045 68 1 84
-0.482558 0.080654 -0.072405 70 14 97
0.373537 0.521331 0.196960 68 1 84
0.646616 -0.009654 0.402758 68 1 84
-0.086423 0.544933 -0.237025 68 1 84
0.077186 -0.296765 -0.284956 36 134 141
-0.533794 -0.029157 -0.025674 68 1 84
0.228384 0.560944 0.006998 68 1 84
0.682677 -0.260490 0.465928 68 1 84
0.678796 -0.417888 0.301554 68 1 84
-0.583913 0.185035 0.383800 68 1 84
0.128055 0.029274 -0.323712 54 184 119
-0.627476 -0.062950 0.322031 68 1 84
-0.567852 -0.016519 0.062911 68 1 84
-0.479494 -0.025711 -0.101718 68 1 84
0.704032 -0.517384 0.406341 68 1 84
-0.203684 -0.005386 -0.223756 39 124 142
0.326199 0.373671 -0.088953 68 1 84
0.381724 0.404209 -0.012376 68 1 84
-0.569362 0.226695 0.413376 68 1 84
-0.541134 0.298562 0.407221 68 1 84
-0.659717 -0.235587 0.383252 68 1 84
0.581617 0.219826 0.478407 71 18 101
0.685908 -0.413226 0.388146 68 1 84
-0.582850 -0.471932 0.112815 68 1 84
0.293356 0.462272 -0.058350 68 1 84
-0.408138 0.006754 -0.156990 70 47 124
0.232016 -0.253368 -0.176503 63 69 135
0.471066 0.436559 0.300628 68 1 84
0.141089 -0.147714 -0.253930 46 109 142
0.041785 0.021444 -0.412920 139 213 70
0.632953 -0.077605 0.216472 68 1 84
-0.083625 -0.433281 -0.313262 61 76 137
-0.544533 -0.240299 0.029334 68 1 84
-0.485593 0.031707 -0.083060 68 3 87
0.368745 0.308919 -0.093446 69 5 88
0.500569 0.219809 0.024209 72 32 113
0.670205 -0.363776 0.261011 68 1 84
0.102116 0.214099 -0.271031 31 147 139
-0.505971 -0.095821 -0.074350 68 1 84
0.509434 0.373897 0.218006 68 2 85
-0.101146 0.017856 -0.319100 47 179 123
-0.352858 -0.281899 -0.154934 68 1 84
0.219361 -0.009961 -0.224923 46 108 142
0.275374 0.544603 0.040521 68 1 84
0.604179 0.044362 0.212776 70 47 124
-0.609459 -0.086163 0.207640 68 1 84
0.559994 0.252089 0.523965 68 1 84
-0.614879 0.046681 0.443608 68 1 84
0.653852 -0.100804 0.302747 68 1 84
0.281020 0.001647 -0.212894 47 106 141
-0.465395 0.427180 0.235058 68 1 84
-0.621463 -0.150900 0.228569 68 1 84
-0.488163 -0.160527 -0.081420 68 1 84
0.440548 0.466382 0.317239 68 1 84
-0.640076 -0.189665 0.289813 68 1 84
0.658433 -0.128375 0.534193 68 1 84
0.502013 -0.013717 -0.077567 70 45 124
0.537443 -0.334112 -0.002096 68 1 84
-0.323458 0.068827 -0.195009 47 106 141
0.230945 -0.446321 -0.265096 69 53 128
-0.261712 -0.317867 -0.166536 68 1 84
0.365786 0.490168 0.067950 68 1 84
0.636626 -0.344183 0.148004 68 1 84
0.352599 0.476605 0.030005 68 1 84
0.532816 0.147663 0.045310 70 49 126
-0.596657 -0.179120 0.121787 68 1 84
0.449557 0.308244 0.001346 71 42 121
-0.658158 -0.232616 0.437248 68 1 84
-0.521751 -0.482426 -0.021921 68 1 84
-0.044715 0.212062 -0.294529 30 158 136
-0.656771 -0.198241 0.415889 68 1 84
-0.269309 -0.176271 -0.179313 72 28 110
-0.489999 -0.497680 -0.084415 68 1 84
-0.595290 -0.026195 0.193683 68 1 84
0.546983 0.146166 0.081348 64 67 135
0.637404 -0.179683 0.177734 68 1 84
-0.597227 -0.011557 0.219637 68 1 84
-0.048408 -0.233558 -0.347729 31 146 140
-0.198767 -0.028808 -0.226553 34 138 141
0.119232 0.561650 -0.188878 68 1 84
-0.305340 -0.388483 -0.223210 71 18 101
-0.557120 -0.245279 0.047671 68 1 84
-0.048235 0.515962 -0.270628 68 1 84
-0.519537 -0.489406 -0.024961 68 1 84
-0.611907 0.038041 0.474227 68 1 84
0.457627 0.407888 0.108685 69 6 90
0.682631 -0.405335 0.334118 68 1 84
0.588999 0.164949 0.252990 71 38 118
0.682257 -0.435298 0.304856 68 1 84
0.128256 0.213059 -0.269829 30 153 138
-0.411769 -0.461059 -0.189754 68 1 84
0.487376 -0.406846 -0.119649 68 1 84
0.677006 -0.352704 0.324042 68 1 84
-0.484698 -0.005951 -0.092298 68 1 84
0.173655 0.447067 -0.196230 68 1 84
-0.107013 0.482447 -0.257967 68 1 84
0.363528 0.114000 -0.166537 53 92 140
0.029608 -0.083682 -0.469209 212 225 26
0.467618 0.347434 0.058987 71 17 99
0.360541 0.152311 -0.156737 56 86 139
0.096558 -0.390155 -0.291810 56 87 140
0.458873 -0.488919 -0.162424 68 1 84
0.432416 -0.404598 -0.171460 68 1 84
-0.112425 -0.218314 -0.257206 43 115 142
0.123076 -0.056723 -0.361724 105 204 91
-0.551452 0.229745 0.512693 68 1 84
-0.444856 0.447908 0.184509 68 1 84
-0.131663 -0.079772 -0.322878 56 185 118
0.585538 0.085772 0.172542 70 47 124
-0.632028 -0.271604 0.222376 68 1 84
-0.274303 -0.237125 -0.173335 72 29 111
-0.136083 -0.308728 -0.181312 68 1 84
-0.041253 0.073866 -0.337118 51 182 121
-0.055346 -0.248781 -0.330715 44 113 142
0.612961 -0.403895 0.099177 68 1 84
-0.384982 0.330061 -0.082628 68 3 87
0.140867 -0.258039 -0.193260 56 87 140
0.200758 -0.444050 -0.274770 71 42 121
-0.566797 0.172118 0.524680 68 1 84
-0.514593 0.047298 -0.037400 68 1 84
0.010813 0.219869 -0.298812 43 177 125
-0.006981 0.235665 -0.280995 31 148 139
-0.580615 0.185055 0.456121 68 1 84
0.364014 0.235010 -0.125514 69 52 127
0.703156 -0.414106 0.446444 68 1 84
0.144919 -0.150212 -0.248934 46 109 142
-0.150406 0.354700 -0.209419 68 1 84
0.539517 0.329400 0.255771 70 11 94
0.600964 0.110275 0.263688 72 32 113
-0.403002 0.327782 -0.065417 68 1 84
0.649055 -0.234606 0.192818 68 1 84
-0.589282 0.034843 0.223923 68 1 84
-0.072432 -0.006385 -0.444500 194 223 34
0.452564 -0.285525 -0.058528 68 1 84
-0.057034 0.266259 -0.289592 35 135 141
-0.185994 0.507211 -0.174893 68 1 84
0.271773 -0.487516 -0.275573 72 30 112
0.685786 -0.281574 0.504783 68 1 84
0.653148 -0.068388 0.347832 69 5 88
0.355077 -0.465201 -0.234220 72 26 108
0.429844 0.478082 0.227794 68 1 84
-0.637384 -0.417034 0.269059 68 1 84
-0.335212 -0.153673 -0.171525 72 28 110
-0.054733 0.176103 -0.329956 167 219 51
-0.534611 0.271585 0.514629 68 1 84
0.519414 -0.338966 -0.026831 68 1 84
-0.606424 0.091745 0.405593 68 1 84
-0.569098 0.224802 0.429083 68 1 84
-0.153111 -0.313909 -0.166868 68 1 84
-0.525267 0.333095 0.285006 68 1 84
0.443601 0.349461 0.023235 71 22 105
-0.666206 -0.279455 0.428900 68 1 84
-0.584831 -0.414838 0.107080 68 1 84
-0.084128 -0.181649 -0.328390 30 153 138
-0.563529 0.033453 0.077328 68 1 84
0.312310 -0.132187 -0.176940 65 65 134
-0.465532 0.429912 0.286911 68 1 84
-0.551520 0.175327 0.137381 68 1 84
-0.556352 -0.371222 0.052051 68 1 84
0.381030 -0.504681 -0.226908 72 34 115
0.426422 0.125861 -0.119512 62 73 137
0.511072 -0.057085 -0.072821 67 58 131
0.312349 0.433324 -0.060473 68 1 84
0.407623 -0.302479 -0.104923 68 1 84
-0.605992 -0.124262 0.168199 68 1 84
-0.059350 0.013753 -0.339805 47 179 123
0.417987 0.240098 -0.080507 64 67 135
-0.131109 -0.052828 -0.364049 41 175 127
0.268429 -0.441730 -0.251654 72 34 115
-0.509287 0.355357 0.405883 68 1 84
0.316548 -0.188957 -0.161647 71 43 122
0.126584 -0.361979 -0.227798 71 39 119
0.503540 0.311743 0.101364 68 3 87
0.413917 0.356190 -0.012492 71 22 105
0.381275 0.030467 -0.171787 61 74 137
0.562566 0.120231 0.112181 67 60 132
-0.683595 -0.406320 0.441391 68 1 84
-0.351608 -0.437650 -0.220826 68 1 84
0.080599 -0.204263 -0.317396 30 153 138
-0.590118 -0.211097 0.103638 68 1 84
-0.396483 0.314275 -0.080642 69 6 90
0.637676 -0.120193 0.207741 68 1 84
0.530332 -0.017827 -0.041108 71 42 121
-0.352158 -0.383992 -0.203647 68 1 84
-0.068264 0.237423 -0.273168 44 112 142
-0.404525 -0.069960 -0.164136 71 22 105
-0.629833 -0.545801 0.253288 68 1 84
0.586220 0.224876 0.370449 70 9 92
-0.342808 -0.151048 -0.170436 69 8 91
-0.474578 0.417401 0.305542 68 1 84
0.675808 -0.340538 0.298533 68 1 84
-0.578455 -0.282013 0.086682 68 1 84
-0.249343 -0.168069 -0.188689 69 54 129
0.376266 -0.025229 -0.178198 45 111 142
0.588709 0.215513 0.406232 71 22 105
0.428303 0.052778 -0.136353 65 66 134
0.086933 -0.391547 -0.299663 53 92 140
-0.494517 0.379423 0.393872 68 1 84
0.594711 0.021739 0.139417 70 12 95
0.661447 -0.095406 0.407006 68 1 84
0.028681 0.032645 -0.387275 100 203 93
0.534213 -0.338765 -0.009199 68 1 84
0.327839 -0.233557 -0.164713 67 60 132
0.366453 0.381180 -0.048114 68 1 84
-0.666641 -0.288226 0.454388 68 1 84
0.529784 -0.287029 0.007876 68 1 84
-0.058089 -0.373475 -0.299867 59 81 138
0.458444 -0.194703 -0.085161 71 44 123
0.677581 -0.470352 0.281112 68 1 84
0.304280 0.464630 -0.043657 68 1 84
0.473988 0.427736 0.392384 71 24 106
-0.419458 -0.392341 -0.152329 68 1 84
0.594997 0.147832 0.516265 68 1 84
0.410433 -0.238808 -0.111588 70 14 97
-0.517564 0.347727 0.307689 68 1 84
-0.555652 0.184091 0.160749 68 1 84
-0.503304 0.066332 -0.048257 68 1 84
0.355462 0.433551 -0.013934 68 1 84
-0.043458 0.590495 -0.166842 68 1 84
0.677075 -0.235817 0.504105 68 1 84
-0.406472 -0.061809 -0.163283 71 44 123
0.021933 -0.467658 -0.333715 54 90 140
-0.330545 0.365518 -0.103801 68 1 84
0.534812 -0.430723 -0.054284 68 1 84
-0.017459 0.303030 -0.278571 46 109 142
0.653249 -0.527799 0.202148 68 1 84
0.159309 -0.209801 -0.206976 52 95 141
0.560827 0.193635 0.160913 64 67 135
0.125465 -0.238952 -0.226350 46 109 142
-0.667787 -0.528251 0.370275 68 1 84
-0.133514 -0.466686 -0.313396 53 93 140
-0.520462 -0.036369 -0.049569 68 1 84
-0.403031 0.137155 -0.135786 71 43 122
0.679052 -0.280496 0.309849 68 1 84
0.407525 -0.081477 -0.158301 53 93 140
0.465746 -0.342160 -0.090570 68 1 84
0.033279 -0.415898 -0.322989 56 87 140
0.013058 0.028695 -0.445994 165 218 53
0.273072 -0.299917 -0.174551 63 69 135
-0.418213 -0.263050 -0.094740 68 1 84
-0.418115 -0.216622 -0.108682 68 1 84
0.075188 0.154744 -0.321442 96 201 96
0.108418 0.381214 -0.231493 72 34 115
-0.516287 0.329862 0.457735 68 1 84
0.477264 0.172913 -0.042706 63 71 136
0.372402 0.037537 -0.175499 66 62 133
-0.290681 -0.007452 -0.212853 39 125 142
-0.336812 -0.239285 -0.158204 72 33 114
0.054123 0.224308 -0.275424 31 150 139
0.148795 0.072477 -0.244954 37 130 142
-0.548142 0.252978 0.202338 68 1 84
0.196158 -0.410124 -0.245420 71 37 117
-0.093070 0.295408 -0.269751 35 135 141
0.364747 0.331484 -0.084707 72 35 116
-0.516772 -0.474943 -0.034004 68 1 84
0.030186 0.030644 -0.418027 181 221 43
-0.213664 0.460363 -0.160973 68 1 84
-0.490325 -0.405457 -0.075527 68 1 84
0.213733 -0.172466 -0.193116 54 90 140
-0.150909 -0.191051 -0.228811 57 84 139
-0.028608 0.304064 -0.277017 45 110 142
-0.514018 0.201773 0.034746 68 1 84
0.704564 -0.474901 0.431649 68 1 84
0.155170 -0.223420 -0.201651 58 83 139
0.611525 0.083019 0.526648 68 1 84
-0.067679 -0.073509 -0.453953 149 215 63
-0.651155 -0.295662 0.308502 68 1 84
-0.274666 0.218035 -0.198844 45 111 142
0.108960 -0.436549 -0.311647 58 83 139
0.354651 0.518116 0.106798 68 1 84
0.542095 -0.207020 0.003360 71 21 103
0.649758 -0.510023 0.193712 68 1 84
-0.480112 0.347660 0.073084 68 1 84
0.030868 -0.127053 -0.431452 236 228 26
-0.687585 -0.439769 0.466308 68 1 84
-0.207869 -0.489323 -0.298391 66 61 132
-0.052776 0.009222 -0.377119 54 184 119
-0.671088 -0.550531 0.383763 68 1 84
-0.527019 -0.209244 -0.008317 68 1 84
-0.480577 0.196610 -0.031380 68 1 84
-0.214094 -0.144842 -0.211734 47 106 141
0.227005 -0.477633 -0.289951 70 48 125
-0.637060 -0.106880 0.336600 68 1 84
-0.295642 0.297110 -0.153593 69 52 127
0.564653 -0.281642 0.041773 68 1 84
0.041021 0.539516 -0.256813 68 1 84
0.660576 -0.098537 0.372818 68 1 84
-0.158964 -0.180479 -0.226058 52 94 141
0.133521 0.032014 -0.317257 38 172 129
-0.414385 0.465063 0.107806 68 1 84
-0.594118 0.064749 0.264783 68 1 84
0.482088 0.391086 0.148434 70 9 92
0.395599 0.392580 -0.005325 68 1 84
0.583662 -0.346492 0.054760 68 1 84
0.484301 0.414684 0.235015 68 2 85
0.527299 0.127269 0.019190 70 49 126
-0.207579 -0.231357 -0.178947 71 44 123
-0.307490 -0.124836 -0.189683 67 58 131
-0.662540 -0.253883 0.396419 68 1 84
-0.473229 0.009253 -0.101680 68 1 84
0.667682 -0.161828 0.337065 68 1 84
-0.240512 0.212598 -0.215459 38 128 142
0.549268 -0.400461 -0.022110 68 1 84
0.141323 0.355379 -0.216904 72 26 108
0.181305 -0.122147 -0.228560 42 118 142
-0.382042 -0.022076 -0.176771 66 64 133
-0.148298 0.576037 -0.107238 68 1 84
0.009863 0.307746 -0.266103 45 111 142
0.591100 -0.191984 0.068801 68 1 84
0.155126 0.003493 -0.300523 30 154 137
0.092226 0.214447 -0.272019 31 161 135
0.465650 -0.394141 -0.136305 68 1 84
-0.265101 0.024995 -0.214747 35 135 141
0.610207 0.133860 0.408826 68 1 84
-0.540759 0.088544 0.034388 68 1 84
0.620509 -0.167138 0.134012 68 1 84
0.571471 0.269466 0.363463 70 11 94
0.363902 0.119613 -0.164656 59 81 138
-0.014883 -0.067739 -0.485315 233 228 25
-0.502148 0.309996 0.088414 68 1 84
0.391647 0.019240 -0.167410 57 85 139
-0.054784 -0.282857 -0.313812 49 102 141
-0.557424 -0.065813 0.015879 68 1 84
-0.367000 -0.206952 -0.144605 68 1 84
-0.588258 0.154164 0.464293 68 1 84
-0.078417 0.556241 -0.229509 68 1 84
0.375483 0.335107 -0.072521 71 21 103
-0.225727 -0.321569 -0.164828 68 1 84
-0.088046 0.288866 -0.277427 33 142 140
-0.635610 -0.114447 0.512899 68 1 84
-0.633417 -0.053589 0.382788 68 1 84
-0.519189 -0.418906 -0.026602 68 1 84
0.012248 -0.306039 -0.332845 42 119 142
-0.089834 -0.117250 -0.388120 41 175 127
-0.471860 -0.445599 -0.121327 68 1 84
-0.632924 -0.047833 0.388152 68 1 84
-0.635755 -0.181871 0.274963 68 1 84
-0.286401 0.537258 0.022027 68 1 84
-0.217117 0.538626 -0.087908 68 1 84
0.026790 -0.399746 -0.320702 49 101 141
-0.093232 -0.405350 -0.291315 66 61 132
0.514953 0.162271 0.014301 62 73 137
-0.008577 -0.356100 -0.319009 58 82 139
-0.583351 0.161955 0.288053 68 1 84
-0.612755 -0.124007 0.199453 68 1 84
0.476059 -0.372791 -0.110627 68 1 84
0.167340 0.397356 -0.199119 69 5 88
-0.127181 -0.127840 -0.280491 31 149 139
-0.314938 0.361959 -0.114900 68 1 84
-0.127660 -0.086663 -0.325229 57 185 118
-0.228683 -0.128889 -0.211224 38 127 142
0.107916 -0.442954 -0.315475 58 82 139
-0.334512 0.286791 -0.140337 69 50 127
-0.226028 -0.370217 -0.199736 68 1 84
0.511070 -0.321489 -0.022356 68 1 84
-0.531256 0.062775 -0.001756 68 1 84
-0.611551 0.049962 0.356816 68 1 84
0.130014 0.312707 -0.241591 58 82 139
-0.078157 0.203874 -0.298660 30 156 137
-0.552420 0.262548 0.455991 68 1 84
-0.099581 0.540050 -0.232773 68 1 84
0.241230 0.171498 -0.213012 30 153 138
-0.210286 0.524399 -0.125564 68 1 84
-0.616096 -0.392061 0.177923 68 1 84
-0.541771 0.050214 0.017161 68 1 84
-0.482632 0.083517 -0.071274 70 12 95
0.043506 -0.255610 -0.344368 31 163 134
-0.273525 -0.088738 -0.208895 48 104 141
0.684985 -0.428979 0.318857 68 1 84
0.106959 0.580277 -0.159834 68 1 84
0.293111 0.461064 -0.059671 68 1 84
-0.251485 0.520181 -0.060720 68 1 84
0.363824 0.327758 -0.087773 71 37 117
0.503755 0.011471 -0.069680 68 57 130
-0.463088 -0.024139 -0.118215 68 1 84
0.231295 0.395813 -0.144785 71 24 106
0.146205 0.253314 -0.238497 44 114 142
-0.091465 -0.088806 -0.413049 105 204 91
0.680730 -0.232960 0.350434 68 1 84
-0.654335 -0.299633 0.320454 68 1 84
0.514984 0.377555 0.289741 68 1 84
0.485983 0.414989 0.391034 68 3 87
-0.120708 0.514301 -0.235805 68 1 84
0.627999 -0.047266 0.222185 70 14 97
-0.046503 0.387259 -0.258843 68 1 84
0.229113 -0.230977 -0.174945 65 66 134
0.582306 0.146489 0.207751 69 52 127
-0.486864 0.294634 0.037725 69 8 91
-0.469477 0.381841 0.092685 68 1 84
-0.210595 -0.329976 -0.161815 68 1 84
-0.410751 0.120618 -0.133547 66 61 132
-0.084770 -0.235319 -0.291623 41 121 142
-0.517422 0.347836 0.300346 68 1 84
-0.462349 0.322339 0.012928 68 1 84
-0.056205 0.076362 -0.326130 44 177 125
0.112662 -0.041619 -0.391057 81 196 104
0.541616 0.331550 0.286751 70 9 92
0.593297 0.194548 0.434809 71 21 103
-0.026746 0.049024 -0.375673 61 187 116
0.578631 0.220010 0.262044 70 14 97
0.659073 -0.135550 0.553249 68 1 84
-0.452602 0.416664 0.108354 68 1 84
-0.519428 0.323029 0.176855 68 1 84
0.677844 -0.206834 0.356225 68 1 84
-0.147335 0.183527 -0.279677 43 177 125
0.574044 0.260171 0.396214 68 1 84
0.461391 0.447460 0.294610 68 1 84
-0.571729 -0.088152 0.052739 68 1 84
-0.409553 -0.473207 -0.192547 68 1 84
0.625192 -0.417702 0.124152 68 1 84
0.139203 0.037268 -0.265361 31 150 139
-0.279451 0.111510 -0.203261 40 122 142
0.292689 0.256210 -0.163834 53 93 140
0.572784 0.009755 0.055712 72 29 111
0.474186 0.432954 0.313519 68 1 84
0.122399 0.146442 -0.285740 31 148 139
-0.469314 0.424775 0.286979 68 1 84
-0.586635 0.151866 0.298734 68 1 84
0.616634 0.058294 0.292986 71 24 106
-0.418203 -0.409902 -0.166715 68 1 84
0.402307 0.328757 -0.047247 71 21 103
0.357111 -0.400436 -0.220464 69 54 129
-0.543139 -0.002251 -0.000263 68 1 84
0.019572 -0.392998 -0.320136 60 77 138
-0.442159 0.253088 -0.058797 69 5 88
0.697317 -0.361021 0.450976 68 1 84
-0.208791 -0.113707 -0.220336 40 123 142
0.622119 0.089243 0.398732 68 1 84
0.511541 0.381748 0.276584 68 1 84
-0.665017 -0.269794 0.411978 68 1 84
0.405920 -0.011647 -0.161694 59 81 138
0.643047 -0.500510 0.178127 68 1 84
0.665909 -0.260043 0.243058 68 1 84
0.642090 -0.092892 0.244975 68 1 84
0.353067 -0.366685 -0.190513 71 22 105
-0.381180 0.248429 -0.119442 70 45 124
0.477261 0.162416 -0.047873 61 75 137
-0.568825 -0.034323 0.057685 68 1 84
0.042740 -0.071774 -0.468423 248 230 33
0.447606 0.186377 -0.073633 64 68 135
-0.650297 -0.288404 0.308139 68 1 84
-0.570115 0.196720 0.487898 68 1 84
0.035010 -0.289714 -0.333101 31 146 140
-0.677847 -0.398489 0.369468 68 1 84
0.503170 -0.133766 -0.076310 72 28 110
-0.498353 -0.040919 -0.081746 68 1 84
0.661802 -0.103339 0.389238 68 1 84
-0.429627 -0.038766 -0.147685 71 21 103
-0.197733 0.554601 -0.086336 68 1 84
0.415499 0.472963 0.134138 68 1 84
0.570535 0.271408 0.344478 68 1 84
-0.088897 -0.004261 -0.410815 149 215 63
-0.170315 -0.451666 -0.288000 56 87 140
0.645366 -0.004788 0.469592 68 1 84
0.054038 -0.474766 -0.333180 55 88 140
-0.068182 -0.464309 -0.329006 70 49 126
0.626984 -0.135275 0.162453 68 1 84
0.555708 -0.020809 0.002667 69 6 90
0.288413 0.440080 -0.079586 68 1 84
0.581446 0.235114 0.324522 72 28 110
0.613590 0.118049 0.374930 68 1 84
-0.172668 0.478634 -0.202130 68 1 84
0.691826 -0.380406 0.400095 68 1 84
0.525368 0.302235 0.149844 68 2 85
0.047961 0.187617 -0.328868 134 212 73
-0.646272 -0.198989 0.316111 68 1 84
-0.375676 -0.071528 -0.179157 71 37 117
0.508567 -0.297174 -0.012042 68 1 84
-0.576206 0.010121 0.118269 68 1 84
0.423848 0.482337 0.306372 68 1 84
-0.062579 -0.106012 -0.433764 91 200 98
0.630351 -0.431051 0.137390 68 1 84
0.649387 -0.155087 0.232701 68 1 84
-0.554240 -0.039874 0.014954 68 1 84
-0.558916 0.217027 0.210104 68 1 84
0.695977 -0.472252 0.371563 68 1 84
0.010606 0.400298 -0.271057 68 1 84
-0.650588 -0.218982 0.325834 68 1 84
0.587753 0.212772 0.330303 71 17 99
0.536806 0.232458 0.119485 69 52 127
0.002829 -0.329053 -0.324371 46 108 142
-0.627746 -0.009332 0.437433 68 1 84
-0.067456 -0.103452 -0.431116 81 196 104
-0.633713 -0.049595 0.394251 68 1 84
-0.243412 0.512549 -0.085930 68 1 84
-0.257019 0.524813 -0.044146 68 1 84
0.202691 0.034223 -0.222271 47 106 141
-0.232828 0.536967 -0.061491 68 1 84
0.217309 -0.143949 -0.205852 56 87 140
-0.538691 -0.349340 0.031051 68 1 84
-0.626828 -0.418401 0.220488 68 1 84
0.521579 0.327665 0.170041 68 3 87
0.684502 -0.323053 0.357976 68 1 84
-0.578874 0.152128 0.250411 68 1 84
-0.627654 -0.163594 0.250721 68 1 84
-0.139113 0.040668 -0.251092 38 127 142
0.447628 -0.301726 -0.066954 68 1 84
-0.498370 -0.373692 -0.038276 68 1 84
-0.264723 -0.135066 -0.197706 61 75 137
-0.421792 -0.095982 -0.151394 68 1 84
-0.007949 -0.286195 -0.340895 40 122 142
0.126714 -0.435585 -0.303239 63 69 135
0.613199 0.123012 0.408105 68 1 84
-0.592049 -0.020284 0.181783 68 1 84
-0.686181 -0.411682 0.482953 68 1 84
-0.647342 -0.179853 0.461792 68 1 84
-0.373699 -0.378415 -0.180965 68 1 84
0.569028 0.236153 0.233376 68 1 84
0.429204 0.479558 0.247537 68 1 84
0.346453 0.498794 0.054722 68 1 84
0.230801 0.544736 -0.041934 68 1 84
0.442814 0.465577 0.238540 68 1 84
0.582553 0.227727 0.444130 70 12 95
-0.519117 0.338360 0.226589 69 8 91
-0.418905 0.053564 -0.140276 69 50 127
-0.526351 0.331497 0.368069 68 1 84
0.241054 -0.126649 -0.203253 49 100 141
-0.544675 -0.422269 0.023984 68 1 84
0.680858 -0.213616 0.370711 68 1 84
0.543549 0.304832 0.504341 68 1 84
0.614126 -0.210964 0.113463 68 1 84
-0.067599 0.079143 -0.316624 31 161 135
-0.166376 0.415550 -0.205944 68 1 84
-0.616074 -0.280195 0.165766 68 1 84
0.677339 -0.359228 0.328018 68 1 84
0.672152 -0.169746 0.393888 68 1 84
0.372758 -0.096456 -0.171473 54 91 140
-0.252893 -0.283553 -0.176138 71 39 119
-0.095339 -0.431945 -0.307128 65 65 134
-0.089348 0.167642 -0.318234 139 213 70
0.660851 -0.107487 0.475753 68 1 84
0.454547 0.377165 0.063955 71 21 103
-0.354739 0.472752 0.010034 68 1 84
0.127172 -0.273046 -0.200447 58 83 139
-0.227038 0.123219 -0.225847 33 142 140
0.262659 0.539908 0.008135 68 1 84
-0.038350 0.552901 -0.246765 68 1 84
-0.384088 -0.284116 -0.130546 68 1 84
0.243227 0.412713 -0.130845 72 32 113
-0.145657 0.051676 -0.244345 33 141 140
-0.139459 -0.032136 -0.360521 71 192 110
-0.543090 0.290966 0.429394 68 1 84
-0.471790 -0.315592 -0.032042 68 1 84
0.153292 -0.001957 -0.248927 33 142 140
0.446255 0.284673 -0.020109 71 39 119
0.261801 0.366288 -0.131637 71 20 102
-0.126315 -0.326669 -0.193219 68 1 84
0.513921 -0.400928 -0.080673 68 1 84
-0.130226 -0.108696 -0.281636 31 147 139
-0.513467 0.179292 0.020112 68 1 84
-0.428789 0.271962 -0.066330 70 12 95
0.638959 -0.498871 0.167280 68 1 84
0.109971 0.362868 -0.227700 71 24 106
0.393471 0.233835 -0.105280 64 67 135
0.514925 0.378898 0.368207 68 1 84
-0.672181 -0.314492 0.520436 68 1 84
0.168367 0.141297 -0.253093 32 143 140
0.401157 -0.176157 -0.133081 66 62 133
-0.553467 -0.213824 0.032934 68 1 84
-0.544300 0.265478 0.485503 68 1 84
-0.361738 0.199147 -0.145945 68 57 130
0.507819 -0.515522 -0.094637 68 1 84
-0.503961 0.354891 0.438089 68 1 84
0.678860 -0.270810 0.309127 68 1 84
-0.127260 0.499742 -0.237601 68 1 84
0.639794 0.013142 0.381407 72 28 110
-0.427399 -0.086923 -0.148623 68 1 84
-0.058221 0.541126 -0.253515 68 1 84
-0.075594 -0.214796 -0.320660 38 127 142
-0.550652 0.121557 0.094840 68 1 84
0.581514 -0.038673 0.054297 68 1 84
-0.284208 -0.388671 -0.224656 71 17 99
0.595727 0.179045 0.457293 68 1 84
-0.415126 -0.060970 -0.158134 72 28 110
-0.376439 -0.099712 -0.174637 70 14 97
0.469410 0.121929 -0.075892 64 67 135
-0.531682 0.273533 0.146190 68 1 84
0.668299 -0.191718 0.515377 68 1 84
0.437095 0.284413 -0.032701 72 35 116
0.615120 0.052757 0.276235 72 32 113
-0.085912 0.571766 -0.202385 68 1 84
-0.323756 0.247056 -0.159879 63 71 136
0.695522 -0.346075 0.462319 68 1 84
-0.171791 -0.374966 -0.209320 71 20 102
-0.345569 0.398132 -0.071041 68 1 84
-0.622852 0.002060 0.459422 68 1 84
0.418473 -0.377327 -0.163750 68 1 84
0.061485 0.157935 -0.326745 134 212 73
0.342728 0.214652 -0.145080 65 65 134
0.225855 -0.214565 -0.174382 69 52 127
-0.008303 0.228028 -0.283849 32 145 140
0.595513 -0.085504 0.078732 68 1 84
-0.450839 0.442067 0.196337 68 1 84
0.103000 0.128959 -0.294424 37 171 129
-0.365153 0.500021 0.072860 68 1 84
0.667028 -0.305261 0.236236 68 1 84
-0.261922 -0.179694 -0.180156 72 30 112
-0.439947 -0.296488 -0.059852 68 1 84
-0.072700 -0.256975 -0.299345 49 102 141
-0.615756 -0.185332 0.184383 68 1 84
-0.610513 0.023409 0.313427 68 1 84
0.366345 0.075471 -0.172717 60 77 138
-0.465135 0.254269 -0.025970 71 17 99
0.392722 0.206957 -0.116783 63 69 135
-0.557714 0.222940 0.211088 68 1 84
0.545023 -0.279340 0.022377 68 1 84
-0.383635 0.015211 -0.171432 63 69 135
0.644484 -0.252032 0.173366 68 1 84
0.658016 -0.391442 0.217846 68 1 84
-0.082577 -0.254275 -0.282848 50 99 141
0.536273 -0.274556 0.014184 68 1 84
-0.141544 0.416016 -0.225704 68 1 84
-0.178375 0.285939 -0.209237 54 90 140
0.263530 0.048230 -0.212440 48 104 141
0.111821 0.431547 -0.247670 68 1 84
-0.289654 0.427293 -0.100216 68 1 84
-0.568948 0.181071 0.224775 68 1 84
0.592239 0.026923 0.134999 70 9 92
0.470749 -0.289220 -0.042302 68 1 84
0.451190 0.458210 0.292419 68 1 84
0.079295 -0.210136 -0.316052 30 159 136
0.614932 0.108577 0.466909 68 1 84
-0.157768 -0.217435 -0.207508 64 67 135
0.606802 -0.217986 0.099259 68 1 84
-0.014400 -0.420658 -0.324296 58 83 139
0.424080 -0.216094 -0.102305 72 25 107
-0.130699 0.277387 -0.253184 40 122 142
0.436138 -0.242888 -0.083365 68 1 84
0.197288 -0.076313 -0.228954 49 100 141
0.683868 -0.407344 0.348695 68 1 84
0.439620 0.347920 0.016035 72 25 107
-0.652653 -0.195860 0.364233 68 1 84
0.660134 -0.273913 0.218435 68 1 84
-0.622588 0.004437 0.458041 68 1 84
-0.569852 0.226915 0.313430 68 1 84
-0.654747 -0.506993 0.323242 68 1 84
-0.447372 0.204589 -0.072593 68 1 84
-0.621255 -0.148531 0.228815 68 1 84
0.675030 -0.484826 0.269970 68 1 84
0.533908 0.347698 0.297644 72 25 107
0.098734 0.393206 -0.241364 69 8 91
-0.480430 0.312268 0.038326 68 1 84
-0.297998 -0.415538 -0.233057 70 9 92
-0.323387 -0.017106 -0.203106 46 107 142
0.149952 -0.171740 -0.237125 49 100 141
0.663261 -0.116063 0.406205 68 1 84
-0.669760 -0.307930 0.381603 68 1 84
0.581400 -0.173423 0.049138 68 1 84
-0.632544 -0.082676 0.331837 68 1 84
-0.110400 -0.004974 -0.382467 103 204 92
-0.247790 0.094023 -0.213335 40 122 142
-0.095184 -0.116860 -0.378756 35 169 130
0.562978 -0.167924 0.016718 68 1 84
0.567680 0.276361 0.397840 68 1 84
-0.464865 -0.148077 -0.107170 68 1 84
0.552732 0.247974 0.179138 71 17 99
0.466913 -0.133855 -0.110416 47 105 141
0.624740 0.028368 0.298746 69 6 90
0.526841 0.098322 0.001924 70 49 126
-0.670528 -0.309610 0.483141 68 1 84
0.621187 0.089389 0.382561 70 14 97
-0.453695 -0.505759 -0.143249 68 1 84
0.497384 -0.338550 -0.051498 68 1 84
-0.023689 0.456537 -0.284598 68 1 84
0.094679 0.032818 -0.306155 30 159 136
-0.613580 -0.086471 0.227983 68 1 84
-0.649682 -0.158338 0.382303 68 1 84
0.027548 0.384402 -0.260700 68 1 84
0.605641 0.144617 0.447048 68 1 84
-0.684835 -0.553996 0.453813 68 1 84
0.345865 -0.096940 -0.179604 52 95 141
0.099247 -0.348579 -0.256969 57 84 139
-0.630629 -0.094637 0.519730 68 1 84
0.573453 0.233153 0.251413 68 1 84
-0.666498 -0.295255 0.533760 68 1 84
0.443573 0.068298 -0.119815 61 75 137
-0.145932 -0.310410 -0.172690 68 1 84
-0.561295 0.034223 0.068752 68 1 84
0.135389 -0.025312 -0.361248 81 196 104
0.449640 0.101311 -0.104790 60 78 138
0.012143 0.573136 -0.227042 68 1 84
0.126760 -0.080959 -0.315795 47 179 123
0.459033 0.397054 0.096335 68 1 84
0.156128 0.370297 -0.206802 69 8 91
0.503213 -0.357334 -0.062234 68 1 84
-0.438660 0.457845 0.295367 68 1 84
-0.417739 0.300239 -0.064811 72 26 108
-0.237310 0.237844 -0.197632 58 82 139
0.246611 0.398441 -0.130512 71 15 98
-0.297598 -0.305730 -0.167336 68 1 84
-0.372370 -0.282912 -0.140422 68 1 84
0.549169 0.301514 0.242455 68 1 84
-0.488685 0.369570 0.138452 68 1 84
-0.058669 -0.008941 -0.463932 236 228 26
0.320277 -0.377400 -0.213078 66 62 133
0.125669 0.517955 -0.226374 68 1 84
-0.622739 -0.441429 0.213906 68 1 84
-0.285098 0.063489 -0.207062 41 120 142
-0.158068 -0.339392 -0.181097 68 1 84
0.552213 0.129000 0.083741 64 67 135
0.352428 -0.448487 -0.232629 72 26 108
-0.202839 0.222885 -0.222680 42 117 142
0.106151 0.000261 -0.380141 105 204 91
-0.575951 0.207467 0.327319 68 1 84
-0.247674 0.226447 -0.205603 47 105 141
0.302152 0.542912 0.078121 68 1 84
-0.150552 0.019227 -0.284539 54 184 119
-0.634526 -0.418751 0.255937 68 1 84
-0.654157 -0.329585 0.305830 68 1 84
0.599352 0.176363 0.386741 71 21 103
0.026778 -0.275851 -0.343882 35 136 141
0.368640 0.506241 0.105151 68 1 84
-0.572704 -0.183045 0.059591 68 1 84
-0.610508 -0.016492 0.563222 68 1 84
0.120188 -0.066433 -0.357692 105 204 91
-0.366861 -0.288630 -0.144247 68 1 84
0.444311 0.354435 0.028206 71 22 105
0.654486 -0.040482 0.432066 68 1 84
-0.637693 -0.180119 0.499824 68 1 84
0.173816 0.153906 -0.251427 35 135 141
-0.554900 0.269778 0.368947 68 1 84
-0.110878 -0.100908 -0.357759 40 174 127
0.129826 0.565667 -0.171190 68 1 84
-0.609790 -0.004363 0.526511 68 1 84
0.425465 0.199764 -0.091516 64 67 135
0.584628 0.131564 0.206880 69 52 127
0.481846 0.328314 0.070111 71 42 121
0.669175 -0.179485 0.487235 68 1 84
0.580634 0.192308 0.238519 69 8 91
-0.577547 0.035253 0.158078 68 1 84
0.406302 0.470596 0.105129 68 1 84
0.332771 0.535324 0.114265 68 1 84
-0.100911 -0.001897 -0.362265 64 189 114
-0.676084 -0.388653 0.359508 68 1 84
-0.493450 -0.185630 -0.064224 68 1 84
-0.511979 0.355658 0.244947 68 1 84
0.153894 0.187652 -0.268208 30 160 135
-0.234877 -0.472493 -0.278574 64 68 135
0.485553 -0.410331 -0.123543 68 1 84
0.377055 0.229838 -0.118738 69 50 127
0.213301 -0.320318 -0.165769 69 8 91
-0.451623 0.431690 0.147172 68 1 84
-0.276079 -0.388376 -0.224728 70 9 92
0.130167 0.318537 -0.237175 66 62 133
0.256167 0.157818 -0.205048 33 140 141
-0.606480 0.004298 0.551086 68 1 84
0.268760 0.257664 -0.173967 49 101 141
-0.123776 0.276855 -0.259082 35 135 141
0.597502 0.132278 0.267940 72 29 111
-0.599704 0.117181 0.442953 68 1 84
-0.037787 -0.345556 -0.309017 56 87 140
0.372402 -0.085277 -0.173816 49 102 141
-0.065559 0.430344 -0.274208 68 1 84
-0.528027 0.217673 0.082346 68 1 84
-0.015232 -0.225202 -0.375889 31 162 134
-0.051315 -0.208218 -0.362306 30 159 136
0.499136 -0.393791 -0.096978 68 1 84
-0.576033 -0.390586 0.086923 68 1 84
0.537763 0.106180 0.029751 68 57 130
0.678940 -0.194764 0.404547 68 1 84
-0.641952 -0.513391 0.291075 68 1 84
-0.621779 -0.003879 0.356857 68 1 84
0.086885 0.531641 -0.245341 68 1 84
0.679163 -0.195626 0.407210 68 1 84
0.666271 -0.406868 0.255998 68 1 84
0.093220 0.305376 -0.266864 49 101 141
-0.562577 -0.520851 0.074479 68 1 84
-0.206573 0.425568 -0.171429 68 1 84
0.484846 -0.266690 -0.028075 68 1 84
-0.401080 -0.297001 -0.105777 68 1 84
0.662585 -0.123457 0.348359 68 1 84
0.514210 -0.501038 -0.086333 68 1 84
0.386759 -0.227389 -0.132216 72 32 113
-0.406314 0.253890 -0.097381 72 28 110
-0.116542 -0.421213 -0.287097 71 43 122
-0.655877 -0.222422 0.443458 68 1 84
-0.493566 -0.203615 -0.053220 68 1 84
0.314333 0.400324 -0.080358 68 1 84
-0.627815 -0.152614 0.257612 68 1 84
-0.042076 0.030060 -0.436698 126 210 78
-0.531996 0.219471 0.095549 68 1 84
-0.439606 -0.041592 -0.140151 70 11 94
0.681002 -0.203606 0.400638 68 1 84
-0.054701 0.439354 -0.278711 68 1 84
0.237501 0.540968 -0.037319 68 1 84
-0.548908 0.190428 0.136981 68 1 84
0.666220 -0.347750 0.236752 68 1 84
-0.567875 0.095191 0.159614 68 1 84
-0.465008 0.252673 -0.027086 69 5 88
0.027163 0.388289 -0.263271 68 1 84
0.452469 0.456885 0.273091 68 1 84
0.535428 0.037372 -0.012002 71 43 122
-0.194055 0.015159 -0.222191 39 124 142
-0.431558 0.441850 0.100599 68 1 84
0.626457 0.003781 0.274539 70 11 94
-0.278312 -0.267674 -0.175799 71 37 117
0.298141 0.199836 -0.175328 56 87 140
0.593835 0.179917 0.473884 68 1 84
0.464541 0.413521 0.137759 69 6 90
0.449886 -0.491432 -0.172833 68 1 84
0.154368 0.008559 -0.303930 31 150 139
-0.627263 -0.333865 0.202944 68 1 84
-0.512755 0.186198 0.022189 68 1 84
0.041244 -0.331818 -0.315813 44 113 142
-0.428939 0.469258 0.260441 68 1 84
-0.141654 -0.136320 -0.255533 35 136 141
-0.658199 -0.242639 0.452272 68 1 84
0.563831 0.126582 0.121802 59 80 138
0.287143 0.357529 -0.121299 71 17 99
0.532372 -0.092352 -0.046390 71 37 117
-0.548273 0.260704 0.479986 68 1 84
-0.362548 -0.283228 -0.147941 68 1 84
0.402871 0.076868 -0.150166 64 68 135
-0.031181 -0.248386 -0.353546 36 133 141
0.667692 -0.194439 0.542465 68 1 84
0.132680 0.571366 -0.154638 68 1 84
-0.012473 0.410282 -0.274892 68 1 84
-0.515408 -0.116576 -0.060480 68 1 84
-0.585424 0.098963 0.245316 68 1 84
0.148604 0.421937 -0.216915 68 1 84
0.074600 0.252119 -0.281186 31 163 134
-0.293729 0.439039 -0.090025 68 1 84
0.484949 0.061556 -0.077797 68 57 130
-0.563406 0.071180 0.112212 68 1 84
-0.685338 -0.393894 0.495004 68 1 84
0.177075 0.132076 -0.246162 33 140 141
-0.428864 0.119955 -0.118304 71 22 105
-0.426585 -0.197832 -0.111503 68 1 84
0.231907 0.344097 -0.157558 71 44 123
-0.418565 -0.085635 -0.154561 68 1 84
0.050272 0.056946 -0.331370 51 182 121
-0.560957 -0.288865 0.061334 68 1 84
-0.591017 -0.305723 0.109638 68 1 84
-0.029908 0.041964 -0.381843 73 193 109
-0.184778 0.391191 -0.188114 68 1 84
-0.224698 0.425416 -0.154464 68 1 84
-0.164609 0.154727 -0.264414 31 161 135
0.071222 -0.380813 -0.304005 49 101 141
-0.457189 -0.513945 -0.135988 68 1 84
-0.110125 -0.380155 -0.247573 71 42 121
-0.590283 0.092702 0.264342 68 1 84
-0.185330 -0.444887 -0.275007 61 76 137
-0.342263 -0.224579 -0.154687 68 1 84
0.661517 -0.104982 0.465745 68 1 84
-0.136325 0.021149 -0.330468 91 200 98
0.546108 0.319896 0.440118 68 1 84
0.152209 -0.400891 -0.254335 71 39 119
-0.645908 -0.189764 0.323247 68 1 84
-0.594316 0.135121 0.453933 68 1 84
0.000672 -0.285885 -0.341762 42 118 142
0.555954 0.134465 0.099895 61 76 137
-0.598361 -0.066284 0.168271 68 1 84
0.173083 0.218002 -0.244143 39 124 142
0.254226 0.416586 -0.120311 72 26 108
0.447873 -0.469709 -0.175236 68 1 84
0.623736 0.074886 0.369798 71 15 98
0.019553 0.587687 -0.196257 68 1 84
-0.452373 -0.023491 -0.127841 68 2 85
-0.454395 0.207604 -0.062983 68 1 84
-0.224057 0.506700 -0.124450 68 1 84
0.487863 -0.411788 -0.121390 68 1 84
0.496819 0.395867 0.227614 68 3 87
0.394636 0.043051 -0.162423 67 60 132
-0.013491 0.058644 -0.370427 91 200 98
0.448180 0.461392 0.291825 68 1 84
-0.581037 0.104460 0.229260 68 1 84
-0.555825 0.231379 0.495156 68 1 84
0.658633 -0.243098 0.223215 68 1 84
-0.555650 0.218829 0.194064 68 1 84
-0.519342 0.344245 0.364039 68 1 84
0.042604 0.022505 -0.423368 139 213 70
-0.289443 0.496220 -0.042356 68 1 84
-0.359898 -0.448894 -0.219626 68 1 84
-0.031308 0.039777 -0.390211 94 201 97
-0.485949 -0.210810 -0.056227 68 1 84
0.232702 0.560964 0.017715 68 1 84
0.634465 -0.306259 0.143482 68 1 84
-0.210871 0.314193 -0.180773 72 34 115
-0.120186 0.289020 -0.256444 35 137 141
-0.493030 -0.338451 -0.020775 68 1 84
0.147789 0.435893 -0.219774 68 1 84
0.609914 0.001701 0.190907 70 11 94
0.538279 0.152293 0.062792 71 40 120
-0.398892 0.466345 0.070433 68 1 84
-0.168254 0.375774 -0.199295 68 1 84
-0.415418 0.396876 0.006723 68 1 84
0.604271 -0.411023 0.081967 68 1 84
-0.456776 0.427411 0.159012 68 1 84
0.038699 0.039685 -0.351198 51 182 121
0.640336 0.010248 0.380405 71 15 98
-0.164088 0.355255 -0.202805 68 1 84
-0.226282 -0.414943 -0.238289 72 32 113
-0.341855 0.355610 -0.102535 68 1 84
-0.371353 -0.217870 -0.139926 72 33 114
-0.690130 -0.498591 0.473429 68 1 84
0.145557 -0.048561 -0.291418 32 165 133
-0.240020 0.208781 -0.216882 35 136 141
-0.649728 -0.226718 0.317455 68 1 84
0.578144 -0.143221 0.036846 68 1 84
0.407973 0.413701 0.029836 68 1 84
-0.393538 -0.285500 -0.119587 68 1 84
0.652532 -0.047009 0.382558 68 2 85
0.522060 -0.420479 -0.075201 68 1 84
0.648384 -0.532723 0.187574 68 1 84
0.463168 -0.023616 -0.119340 64 68 135
-0.310157 0.499946 -0.009162 68 1 84
0.337475 0.252260 -0.136557 70 48 125
-0.339746 0.377860 -0.090023 68 1 84
0.544657 0.311050 0.488795 68 1 84
