ply
format ascii 1.0
element vertex 1272
property float x
property float y
property float z
property uchar red
property uchar green
property uchar blue
end_header
-0.395597 -0.079902 -0.153512 68 1 84
0.297006 0.405038 -0.260116 45 110 142
0.365495 -0.087104 -0.163660 57 185 118
0.499408 -0.338247 0.284241 71 39 119
-0.344212 -0.349583 -0.049434 68 1 84
0.048514 0.036434 -0.406872 54 184 119
-0.019919 0.090888 -0.370556 42 176 126
-0.130471 -0.331783 -0.194374 68 1 84
0.526903 -0.303547 0.349938 71 24 106
-0.542867 -0.030257 0.056845 70 9 92
-0.165983 -0.495926 -0.068627 68 1 84
0.186453 0.160752 -0.222615 136 213 71
0.635697 0.458472 0.354903 68 1 84
0.446342 -0.132292 -0.066366 35 137 141
0.433676 -0.237484 -0.027014 61 75 137
0.431327 -0.016045 -0.113923 30 151 138
-0.446764 -0.150650 -0.070131 68 1 84
0.602895 0.021140 0.313400 68 1 84
0.108509 -0.258782 -0.247635 68 1 84
-0.333484 -0.243311 -0.141179 68 1 84
-0.483270 -0.247866 0.060789 68 1 84
-0.450815 -0.145518 -0.066854 68 1 84
-0.076578 0.123385 -0.302358 79 195 105
0.211951 -0.237690 -0.200739 69 8 91
0.455250 -0.325951 0.099833 72 35 116
-0.394283 -0.460290 0.222600 71 18 101
-0.320222 0.042751 -0.202030 56 86 139
-0.293521 -0.238211 -0.172265 68 1 84
0.078604 -0.155909 -0.309142 71 40 120
-0.170514 0.353751 -0.256082 32 145 140
-0.086042 -0.327324 -0.223612 68 1 84
0.487136 0.046374 -0.036926 31 146 140
-0.617787 0.250408 0.130049 68 1 84
-0.255146 -0.054431 -0.231620 72 33 114
0.466328 0.099399 -0.066434 39 124 142
0.592801 -0.070613 0.330450 68 1 84
-0.187473 0.312367 -0.188799 47 105 141
0.465852 0.499315 -0.066484 68 1 84
0.577292 0.120701 0.175526 68 1 84
0.323807 -0.346002 -0.073439 68 1 84
0.228959 -0.176642 -0.233952 49 101 141
-0.155619 0.230674 -0.198020 36 134 141
-0.623365 0.154583 0.169029 68 1 84
0.636913 0.403484 0.375176 68 1 84
-0.349632 -0.487062 0.168238 68 1 84
-0.213655 -0.408668 -0.101442 68 1 84
0.195483 -0.395541 -0.157904 68 1 84
-0.082114 0.281561 -0.258494 42 119 142
0.596945 0.075878 0.269443 68 1 84
-0.654604 0.134003 0.355585 68 1 84
-0.231479 -0.087550 -0.234713 68 2 85
-0.306685 0.174427 -0.177885 39 125 142
0.620078 0.174832 0.316047 68 1 84
-0.583768 -0.104763 0.247552 68 1 84
0.305247 0.008469 -0.201088 69 191 111
0.217618 -0.506750 -0.094215 68 1 84
0.298087 -0.386051 -0.072036 68 1 84
-0.402890 0.303608 -0.171030 72 35 116
0.632567 0.355726 0.360571 68 1 84
0.028039 -0.586930 -0.098540 68 1 84
-0.424961 -0.004174 -0.138325 68 3 87
0.129534 0.232648 -0.229620 62 188 115
0.295722 -0.120567 -0.199437 30 154 137
0.525030 -0.184451 0.119212 60 78 138
-0.151487 -0.469972 -0.099487 68 1 84
-0.480315 -0.223993 0.034479 72 26 108
0.620810 0.364044 0.285902 68 1 84
-0.063387 -0.469197 -0.156965 68 1 84
0.266343 0.019104 -0.212973 54 184 119
-0.425874 0.368040 -0.215408 72 25 107
-0.587803 0.059383 0.132002 68 1 84
-0.565091 -0.214740 0.338626 68 1 84
-0.156815 -0.222280 -0.242073 68 1 84
-0.365159 0.411086 -0.272814 70 47 124
0.528513 0.090188 0.035424 49 101 141
0.643783 0.524656 0.402706 68 1 84
0.571122 -0.083000 0.206694 72 26 108
-0.149677 -0.083871 -0.245777 67 58 131
-0.505048 0.315698 -0.063166 68 1 84
-0.680465 0.191308 0.321437 68 1 84
-0.189032 -0.208449 -0.233590 68 1 84
0.126745 0.183997 -0.259340 205 224 29
-0.354252 0.137666 -0.168751 42 117 142
0.332929 0.019253 -0.188989 69 191 111
0.613333 0.390411 0.266488 68 1 84
-0.335461 -0.151205 -0.182167 68 1 84
-0.625498 -0.001099 0.490927 68 1 84
-0.361245 -0.130641 -0.169657 68 1 84
0.472806 -0.086734 -0.039561 31 161 135
-0.702184 0.358101 0.266427 68 1 84
0.588784 0.011775 0.247813 68 1 84
-0.198108 -0.239225 -0.219724 68 1 84
-0.405620 0.085562 -0.158022 56 87 140
0.230086 -0.295609 -0.174933 71 42 121
0.087211 -0.600130 -0.026897 68 1 84
0.142647 -0.513769 -0.149277 68 1 84
-0.539656 -0.054369 0.063691 70 9 92
0.576884 0.121840 0.173659 68 1 84
-0.331701 0.280968 -0.187171 60 78 138
-0.422414 0.296731 -0.148119 68 2 85
-0.630810 0.014168 0.464153 68 1 84
0.551263 0.189131 0.086211 68 1 84
-0.408183 0.116912 -0.154055 48 104 141
0.408637 0.446570 -0.185391 72 26 108
-0.668437 0.274798 0.196422 68 1 84
-0.595412 0.360584 0.096878 68 1 84
-0.424816 -0.026638 -0.135417 68 1 84
-0.388888 0.312664 -0.191473 67 59 131
0.125782 -0.113085 -0.279257 46 107 142
-0.328846 -0.489464 0.121416 68 1 84
0.541170 0.097061 0.062594 64 67 135
0.640352 0.581527 0.415125 68 1 84
0.096556 -0.171393 -0.309157 70 47 124
0.064781 0.214867 -0.298313 186 222 39
0.194778 -0.265490 -0.198585 68 1 84
0.146267 0.191578 -0.238496 71 192 110
0.148017 -0.107312 -0.266001 49 102 141
-0.012434 -0.254857 -0.259912 68 1 84
-0.704023 0.431346 0.259956 68 1 84
0.528372 -0.231615 0.171802 67 60 132
0.617796 0.385062 0.278471 68 1 84
0.255889 0.039942 -0.215498 73 193 109
-0.445425 -0.209205 -0.038196 68 1 84
0.468850 -0.074799 -0.049970 35 135 141
0.256568 -0.371034 -0.120320 68 1 84
0.501687 -0.290514 0.165915 59 80 138
0.103040 -0.596990 -0.033483 68 1 84
0.564580 -0.032091 0.166991 71 38 118
-0.725168 0.387710 0.316365 68 1 84
-0.564796 -0.160905 0.223764 68 1 84
-0.396152 0.030934 -0.164026 69 53 128
-0.694031 0.434346 0.219558 68 1 84
-0.204684 -0.343710 -0.149225 68 1 84
0.278537 0.368243 -0.207098 48 104 141
-0.071663 0.134688 -0.300646 119 208 82
-0.301599 -0.359897 -0.083319 68 1 84
0.414260 -0.185474 -0.085486 52 94 141
-0.563324 -0.221905 0.360593 68 2 85
0.212000 -0.187431 -0.243899 60 78 138
-0.579840 0.007549 0.142246 68 1 84
-0.041963 -0.050301 -0.292790 45 111 142
-0.225568 -0.311604 -0.165680 68 1 84
-0.533586 0.013660 0.008376 68 1 84
-0.630998 0.066022 0.347918 68 1 84
-0.548919 -0.239178 0.270901 68 3 87
-0.541976 -0.238174 0.226832 70 14 97
0.166217 0.263963 -0.183764 30 157 136
-0.077162 0.057271 -0.325368 35 169 130
-0.749629 0.424646 0.314536 68 1 84
0.543797 -0.086134 0.121316 68 55 129
0.119454 0.394231 -0.320394 35 168 131
-0.663208 0.250327 0.198116 68 1 84
0.628249 0.584510 0.334956 68 1 84
0.293520 0.295147 -0.171466 44 112 142
0.174400 -0.461774 -0.147352 68 1 84
0.195526 -0.316768 -0.202815 68 1 84
0.464825 -0.142198 -0.031851 44 112 142
-0.141763 0.056533 -0.258271 41 121 142
0.377279 0.063299 -0.159300 50 181 122
-0.081679 0.248769 -0.257822 37 131 141
-0.054926 -0.448555 -0.167154 68 1 84
0.545215 -0.259563 0.335781 72 28 110
0.400846 -0.027955 -0.143895 30 153 138
-0.484990 -0.146040 -0.006756 68 1 84
0.575870 -0.049622 0.487757 68 1 84
0.147531 0.405045 -0.321202 42 176 126
-0.659164 0.130062 0.291677 68 1 84
-0.339856 -0.499087 0.198270 70 11 94
-0.566706 -0.209515 0.336680 68 3 87
0.358242 0.411868 -0.224632 49 102 141
-0.718884 0.361224 0.310525 68 1 84
-0.232541 -0.018701 -0.235378 63 69 135
0.562643 -0.192892 0.272405 68 3 87
-0.071221 0.022007 -0.353438 31 149 139
0.213095 -0.104780 -0.236758 36 132 141
0.617237 0.369534 0.274384 68 1 84
-0.668400 0.359462 0.177848 68 1 84
0.575313 0.342499 0.162223 68 1 84
0.440493 0.073414 -0.100787 39 125 142
-0.570204 -0.183581 0.453429 70 14 97
0.046183 -0.414465 -0.194904 68 1 84
-0.570719 0.393310 0.042200 68 1 84
-0.257120 0.349310 -0.259664 38 128 142
-0.549429 -0.227928 0.484141 68 1 84
0.412972 -0.019468 -0.133232 31 146 140
0.138931 0.270034 -0.201355 32 143 140
0.287814 -0.167898 -0.199051 44 114 142
0.396148 -0.228754 -0.083859 47 106 141
0.030661 0.065991 -0.397069 91 200 98
0.539067 -0.272033 0.320212 71 39 119
0.638074 0.599111 0.421911 68 1 84
0.596500 0.490535 0.244192 68 1 84
0.254477 -0.019672 -0.215946 30 159 136
-0.661676 0.142170 0.320271 68 1 84
0.255170 -0.286942 -0.154331 71 40 120
0.397740 0.242730 -0.100791 63 69 135
0.331500 0.359994 -0.167523 70 11 94
-0.545324 -0.061819 0.085050 70 11 94
-0.488897 0.074018 -0.080404 68 1 84
-0.035504 -0.232483 -0.290993 68 1 84
0.474680 -0.219733 0.035227 59 81 138
0.390511 0.275052 -0.107664 61 75 137
-0.681809 0.216585 0.358845 68 1 84
-0.769306 0.384590 0.362492 68 1 84
0.027258 -0.338065 -0.257345 68 1 84
-0.155269 -0.453216 -0.107453 68 1 84
-0.490888 -0.362601 0.319360 71 24 106
0.611165 0.565132 0.282326 68 1 84
0.358331 0.175064 -0.145026 73 193 109
-0.678541 0.176347 0.298067 68 1 84
0.125557 -0.442741 -0.176718 68 1 84
-0.579351 0.359984 0.058861 68 1 84
0.417506 -0.445650 0.268785 70 47 124
-0.153451 -0.422873 -0.129727 68 1 84
-0.204711 -0.481875 -0.044041 68 1 84
-0.188755 0.392681 -0.323894 35 137 141
-0.536876 -0.280048 0.306218 72 32 113
-0.541377 0.367025 -0.018970 68 1 84
-0.292116 0.394068 -0.296289 47 106 141
0.191255 0.364557 -0.224169 45 111 142
-0.623704 0.040655 0.289972 68 1 84
-0.204675 -0.536153 0.032559 68 1 84
0.602970 0.048683 0.430148 68 1 84
0.606239 0.165426 0.279429 68 1 84
-0.576360 0.097099 0.071962 68 1 84
-0.523592 -0.245586 0.164787 68 1 84
0.356435 -0.280735 -0.092988 71 17 99
0.100849 0.314584 -0.255473 31 163 134
0.582364 0.015967 0.219161 68 1 84
0.500740 0.151456 -0.015213 52 94 141
-0.630470 0.062893 0.310366 68 1 84
0.461697 -0.118074 -0.047300 33 141 140
0.234761 0.351153 -0.163979 55 89 140
-0.574505 -0.185987 0.400509 72 29 111
0.580320 0.288126 0.164850 68 1 84
0.459166 -0.382858 0.214205 68 3 87
-0.426547 0.134065 -0.139532 50 99 141
-0.616193 0.189765 0.136923 68 1 84
-0.147733 -0.569416 0.046554 68 1 84
-0.268203 -0.221893 -0.194812 68 1 84
0.056801 -0.053376 -0.341565 33 166 133
-0.138294 0.084637 -0.260729 31 161 135
-0.527327 -0.107336 0.066642 68 1 84
-0.006819 -0.385407 -0.216404 68 1 84
-0.306412 -0.141491 -0.201634 68 1 84
-0.546065 0.450485 -0.021325 68 1 84
-0.242865 -0.377401 -0.110464 68 1 84
0.178165 -0.575277 -0.024524 68 1 84
-0.120157 -0.038678 -0.274840 55 89 140
0.190443 0.177509 -0.209552 109 206 88
-0.492670 -0.023437 -0.051575 69 6 90
-0.136846 -0.420604 -0.141445 68 1 84
-0.429659 0.138949 -0.136323 54 90 140
-0.684508 0.230540 0.431093 68 1 84
0.364597 -0.322033 -0.054070 68 1 84
-0.449517 0.235658 -0.089760 68 1 84
-0.203563 -0.536513 0.031681 68 1 84
0.289008 0.453055 -0.277722 35 135 141
0.302069 -0.106973 -0.197189 31 147 139
0.526128 -0.299538 0.323354 72 33 114
-0.351248 0.288532 -0.182396 71 44 123
-0.547512 0.277915 0.005329 68 1 84
-0.622954 -0.014963 0.463630 68 1 84
0.044842 -0.049992 -0.357927 30 159 136
-0.180423 0.150921 -0.213036 31 161 135
0.599497 0.110656 0.280468 68 1 84
-0.558614 -0.220490 0.457854 68 1 84
0.630925 0.405128 0.332667 68 1 84
-0.561239 0.005628 0.083451 68 1 84
-0.260241 0.310070 -0.186808 47 105 141
-0.363079 -0.366603 -0.008853 68 1 84
-0.472786 -0.307068 0.104402 68 1 84
0.590744 0.466634 0.228744 68 1 84
0.447103 -0.311586 0.070355 67 59 131
0.092258 0.212381 -0.276039 112 206 86
0.615381 0.083011 0.405865 68 1 84
-0.094142 -0.480693 -0.135070 68 1 84
-0.111148 -0.444086 -0.140101 68 1 84
-0.052509 0.274443 -0.282474 36 133 141
-0.120430 -0.032651 -0.290216 56 86 139
-0.322672 0.115223 -0.183317 41 121 142
-0.451632 0.399196 -0.192839 68 1 84
0.533910 -0.221060 0.178226 66 61 132
0.288742 0.095501 -0.197576 91 200 98
-0.807133 0.449804 0.379269 68 1 84
-0.158308 0.368799 -0.294065 34 138 141
0.133265 -0.289939 -0.245447 68 1 84
-0.700867 0.493469 0.221418 68 1 84
-0.475676 0.119758 -0.098716 72 26 108
0.455956 -0.101987 -0.062426 37 130 142
0.499775 -0.152840 0.040745 50 99 141
-0.541236 -0.193311 0.165141 68 1 84
-0.458111 -0.182176 -0.035855 68 1 84
0.466943 0.353415 -0.011251 68 1 84
-0.152185 0.348230 -0.250778 31 162 134
0.485304 0.489156 -0.016268 68 1 84
-0.239901 0.375050 -0.294592 34 139 141
0.159356 0.204157 -0.217990 75 194 108
-0.549191 -0.157514 0.160506 68 1 84
0.427210 -0.318442 0.041749 70 45 124
0.587151 -0.044685 0.440281 68 1 84
-0.187635 -0.478322 -0.064271 68 1 84
0.246873 -0.018401 -0.217687 30 160 135
0.631395 0.411603 0.334652 68 1 84
0.093059 0.315384 -0.263317 34 167 132
-0.312370 0.025304 -0.208115 66 61 132
-0.312333 0.328981 -0.213900 36 133 141
-0.579182 -0.148116 0.443087 68 1 84
0.418488 0.444434 -0.171258 71 17 99
0.479774 -0.343677 0.191425 68 1 84
0.636357 0.403964 0.369736 68 1 84
-0.556812 0.001603 0.073828 68 1 84
-0.693875 0.353521 0.249846 68 1 84
-0.573692 0.271088 0.044559 68 1 84
-0.501472 -0.100697 0.000213 68 1 84
0.401078 -0.379410 0.067506 68 1 84
-0.671434 0.155017 0.285210 68 1 84
-0.383179 0.163505 -0.151885 49 101 141
0.502346 -0.167210 0.053963 41 121 142
0.179918 -0.288122 -0.216577 68 1 84
0.623213 0.493866 0.310099 68 1 84
0.555687 0.482479 0.157125 68 1 84
0.090946 -0.034262 -0.318355 66 190 113
0.464634 0.389910 -0.039983 68 1 84
-0.704776 0.422706 0.260289 68 1 84
0.528469 0.269042 0.056841 68 1 84
0.434692 0.312036 -0.045147 68 1 84
0.017275 -0.004356 -0.404548 42 117 142
-0.403724 0.252758 -0.143192 66 61 132
-0.478545 -0.170057 -0.005721 68 1 84
0.321008 -0.291618 -0.111419 70 47 124
-0.505719 -0.069170 -0.008296 68 1 84
0.583100 0.107377 0.201935 68 1 84
0.347389 0.391985 -0.217199 41 121 142
-0.626635 0.167578 0.175592 68 1 84
-0.578872 -0.145653 0.273227 69 6 90
-0.796202 0.405032 0.423400 68 1 84
-0.229100 0.404458 -0.314155 35 137 141
-0.578728 0.145870 0.060579 68 1 84
0.075283 0.201338 -0.295893 253 231 36
0.484105 -0.357394 0.252227 68 1 84
0.251514 -0.451057 -0.084803 68 1 84
0.124002 -0.185684 -0.299029 57 85 139
-0.254622 -0.474888 -0.002245 68 1 84
0.170143 0.183350 -0.222936 89 199 100
-0.613456 -0.002362 0.279891 68 1 84
-0.201064 -0.201162 -0.230479 68 1 84
-0.377181 0.318454 -0.210151 62 72 136
0.212877 0.240159 -0.176983 68 190 112
0.385557 -0.468383 0.191109 68 1 84
-0.696232 0.503681 0.208847 68 1 84
-0.081125 -0.369231 -0.207761 68 1 84
-0.629071 -0.006460 0.437470 68 1 84
-0.370371 -0.279455 -0.081178 68 1 84
-0.063927 0.138820 -0.305145 105 204 91
0.464589 0.191638 -0.063869 55 89 140
-0.082658 0.074956 -0.312919 36 170 130
0.624099 0.511124 0.313313 68 1 84
-0.677954 0.201708 0.374973 68 1 84
-0.271363 -0.362352 -0.107090 68 1 84
-0.581135 0.009996 0.144741 68 1 84
0.310656 0.457675 -0.266912 50 98 141
0.405203 -0.313169 -0.006402 71 44 123
-0.015867 -0.210263 -0.307751 68 1 84
0.525713 0.046328 0.034492 45 110 142
0.581969 0.479466 0.213105 68 1 84
0.214867 0.100474 -0.225666 144 214 67
0.394548 -0.120999 -0.132276 32 144 140
0.429609 0.240141 -0.078050 56 87 140
-0.447786 -0.415015 0.285670 70 45 124
0.091847 0.298294 -0.259692 31 163 134
0.068821 -0.051665 -0.306855 33 167 132
0.546651 -0.256863 0.470193 68 1 84
0.597884 0.168123 0.246759 68 1 84
0.418341 0.309593 -0.073083 68 1 84
-0.295731 -0.034369 -0.219357 71 43 122
0.181166 -0.344423 -0.201521 68 1 84
0.340408 0.372768 -0.206625 52 95 141
0.573906 -0.179991 0.332366 68 1 84
0.490597 -0.261374 0.102524 57 85 139
0.506202 -0.340384 0.466776 71 20 102
0.635160 0.591659 0.364184 68 1 84
-0.537816 -0.031939 0.044562 70 11 94
0.114556 0.363164 -0.285158 33 167 132
-0.069983 -0.530639 -0.131019 68 1 84
-0.555179 -0.244644 0.360336 69 6 90
0.164468 0.350902 -0.204380 36 133 141
0.464338 0.481055 -0.077653 68 1 84
0.011371 0.118094 -0.362998 114 207 85
-0.003296 0.327908 -0.304786 35 169 130
0.493798 0.451829 0.002751 68 1 84
0.403110 0.363612 -0.125781 69 54 129
0.526294 0.525274 0.093547 68 1 84
0.074341 -0.592903 -0.074319 68 1 84
-0.539147 0.162598 -0.010428 68 1 84
0.417187 -0.429899 0.186017 68 1 84
0.603928 0.137783 0.291938 68 1 84
-0.489275 -0.184511 0.025941 68 1 84
0.387827 -0.439887 0.127499 68 1 84
0.258626 -0.542316 0.089129 68 1 84
-0.311479 0.014001 -0.210146 71 42 121
0.592697 0.407027 0.218714 68 1 84
0.436570 -0.033123 -0.105688 31 162 134
0.596430 0.450393 0.238170 68 1 84
-0.676482 0.459524 0.170996 68 1 84
0.504145 -0.225898 0.100414 56 87 140
0.084662 -0.514870 -0.161151 68 1 84
0.566361 0.312557 0.133595 68 1 84
0.622118 0.140882 0.354100 68 1 84
-0.125937 -0.307246 -0.197014 68 1 84
0.571842 0.086738 0.163800 68 1 84
-0.674118 0.263466 0.207273 68 1 84
-0.292731 -0.489427 0.063221 68 1 84
-0.131355 -0.553776 -0.036634 68 1 84
0.607770 0.047220 0.344571 68 1 84
-0.172871 0.359156 -0.267824 43 177 125
-0.216750 -0.148346 -0.232256 68 1 84
0.519936 -0.161375 0.090980 44 112 142
-0.230896 -0.243627 -0.204861 68 1 84
-0.424042 -0.311832 0.013847 68 1 84
0.587938 -0.009353 0.451774 68 1 84
-0.681404 0.459804 0.179237 68 1 84
0.396002 -0.359064 0.031419 71 22 105
0.026311 -0.229718 -0.300703 68 1 84
-0.684294 0.229964 0.429638 68 1 84
0.226775 -0.446963 -0.112383 68 1 84
-0.078998 0.042687 -0.331330 35 137 141
0.224723 -0.402919 -0.130656 68 1 84
-0.375958 -0.418400 0.069584 68 1 84
-0.674687 0.189173 0.381045 68 1 84
0.588951 -0.031237 0.270270 68 1 84
0.108767 0.182852 -0.275030 183 221 41
0.150068 0.346073 -0.216800 33 140 141
0.391523 -0.084199 -0.144252 32 143 140
0.473692 -0.151698 -0.011050 54 90 140
0.285478 0.457681 -0.280388 34 138 141
0.551484 -0.157145 0.179185 60 77 138
0.455281 0.101312 -0.080294 35 137 141
-0.144740 0.019172 -0.253322 39 124 142
-0.299261 -0.389434 -0.054904 68 1 84
-0.566358 -0.045487 0.137772 68 1 84
0.191551 -0.214202 -0.249700 62 73 137
-0.559223 -0.198504 0.246306 68 1 84
-0.270130 -0.194969 -0.204282 68 1 84
0.580495 0.221919 0.167171 68 1 84
0.023618 0.120684 -0.362867 141 214 68
-0.062704 -0.046338 -0.310272 51 97 141
0.134449 -0.564124 -0.107200 68 1 84
-0.430252 0.273829 -0.118108 71 17 99
-0.427487 0.045478 -0.139288 68 57 130
0.515287 -0.251609 0.153138 60 78 138
0.166449 0.395494 -0.301182 30 156 137
-0.114693 -0.262776 -0.226220 68 1 84
-0.621585 0.019794 0.382627 68 1 84
0.631686 0.538121 0.339215 68 1 84
-0.074343 0.038790 -0.340967 39 124 142
-0.006070 -0.528401 -0.157756 68 1 84
-0.600107 0.278140 0.092816 68 1 84
-0.480456 -0.347107 0.192749 70 11 94
0.432098 0.404872 -0.127139 71 20 102
0.622167 0.301126 0.282224 68 1 84
-0.702756 0.309837 0.293597 68 1 84
0.529860 -0.243758 0.193297 57 85 139
-0.420005 -0.001697 -0.143145 71 20 102
-0.070923 -0.460013 -0.156066 68 1 84
0.586697 0.272416 0.186935 68 1 84
-0.565789 0.149651 0.034062 68 1 84
0.141609 -0.385342 -0.194282 68 1 84
-0.019580 0.422824 -0.336995 40 174 127
0.126064 0.007930 -0.363123 205 224 29
-0.336624 -0.212134 -0.155909 68 1 84
-0.365090 0.114955 -0.172077 44 113 142
0.404770 -0.341099 0.025050 72 32 113
-0.712617 0.300828 0.422102 68 1 84
-0.072006 0.016200 -0.354361 31 150 139
-0.561098 -0.182089 0.231839 68 1 84
-0.567773 0.028784 0.088285 68 1 84
-0.680651 0.217625 0.431848 68 1 84
0.176630 0.213361 -0.196573 54 184 119
-0.292026 -0.091966 -0.217226 68 1 84
0.509964 -0.325440 0.312651 72 30 112
-0.424854 0.366570 -0.215565 71 22 105
-0.627438 0.369290 0.135515 68 1 84
0.483546 -0.337750 0.191764 68 1 84
0.272818 -0.336331 -0.124020 68 1 84
-0.563959 0.005910 0.091795 68 1 84
0.601886 0.004058 0.335099 68 1 84
-0.124933 -0.414365 -0.153008 68 1 84
0.161445 -0.229890 -0.255819 68 1 84
-0.411533 -0.242586 -0.060468 68 1 84
0.587049 0.580395 0.229394 68 1 84
0.245929 0.003308 -0.217943 62 188 115
-0.408312 -0.345810 0.026673 68 1 84
-0.638509 0.121209 0.213558 68 1 84
0.182928 0.011471 -0.261951 64 189 114
0.636508 0.379907 0.420844 68 1 84
-0.339431 0.113015 -0.180029 33 141 140
-0.549432 -0.248557 0.299373 69 8 91
0.506648 -0.079056 0.022412 33 141 140
-0.069785 0.166871 -0.290248 98 202 95
-0.250317 0.063373 -0.219738 30 152 138
-0.040818 -0.229605 -0.292428 68 1 84
-0.348170 -0.400164 0.011637 68 1 84
0.015779 -0.182197 -0.315452 68 1 84
0.584726 -0.104103 0.426789 68 1 84
-0.539045 -0.269075 0.285103 68 1 84
-0.076588 0.373913 -0.321437 56 185 118
-0.364970 -0.187246 -0.145206 68 1 84
0.571197 0.542330 0.193939 68 1 84
0.573478 0.123058 0.160475 68 1 84
-0.060127 0.173354 -0.295368 107 205 89
0.572669 -0.091463 0.216779 71 22 105
-0.005495 0.248802 -0.305453 66 190 113
0.304569 0.073488 -0.195510 89 199 100
-0.673165 0.177137 0.345240 68 1 84
-0.425056 -0.364430 0.077358 68 1 84
0.482224 -0.072193 -0.027038 46 107 142
0.336281 0.407550 -0.238363 46 108 142
-0.685729 0.328245 0.222000 68 1 84
-0.776957 0.444428 0.321754 68 1 84
0.239890 -0.226849 -0.196159 70 14 97
-0.431802 -0.131222 -0.097947 68 1 84
-0.363941 -0.328417 -0.046773 68 1 84
0.350769 -0.497179 0.167443 68 1 84
0.494541 0.232188 -0.006913 66 62 133
0.571180 -0.195117 0.351538 68 1 84
0.551049 -0.021658 0.121452 58 83 139
0.573357 0.211830 0.144509 68 1 84
0.571639 0.026538 0.176692 71 22 105
-0.662886 0.153447 0.419219 68 1 84
0.434367 -0.317772 0.054088 70 49 126
-0.527648 -0.224891 0.153978 68 1 84
0.421182 0.325911 -0.070878 68 1 84
0.523642 -0.128548 0.082289 53 92 140
-0.552678 -0.118020 0.143682 68 1 84
-0.475021 -0.370074 0.238851 72 29 111
0.486681 0.497449 -0.010464 68 1 84
0.554177 0.544349 0.163758 68 1 84
0.465372 -0.029291 -0.065177 30 154 137
-0.491713 -0.227699 0.062708 69 6 90
0.431441 -0.431577 0.272062 61 75 137
0.636271 0.371837 0.439068 68 1 84
0.575927 -0.152556 0.296006 69 5 88
0.286609 0.464886 -0.281474 30 151 138
-0.398654 -0.440262 0.164874 72 33 114
-0.021029 -0.205650 -0.308192 68 1 84
-0.368610 0.140113 -0.163786 42 118 142
0.624730 0.219253 0.403252 68 1 84
0.150414 0.107100 -0.272230 69 191 111
0.609352 0.056149 0.349577 68 1 84
-0.413043 0.293232 -0.153307 71 22 105
-0.464658 -0.339918 0.131782 72 32 113
-0.176494 -0.411659 -0.122137 68 1 84
-0.683295 0.226366 0.439147 68 1 84
-0.694098 0.257501 0.433640 68 1 84
-0.438331 -0.292302 0.016769 68 1 84
0.551841 -0.243396 0.326860 71 15 98
0.561869 -0.079020 0.170946 71 22 105
0.467533 -0.193641 0.002210 55 89 140
-0.471078 -0.213382 0.008083 68 1 84
0.503877 -0.338797 0.333004 72 26 108
-0.375555 -0.368752 0.008945 68 1 84
-0.401503 -0.271635 -0.049568 68 1 84
-0.666098 0.478205 0.150029 68 1 84
0.491233 0.171861 -0.028704 63 69 135
0.632026 0.120548 0.340664 68 1 84
0.414882 0.333528 -0.087139 69 6 90
-0.028902 0.327863 -0.300539 33 142 140
-0.609824 0.353661 0.123138 68 1 84
-0.310702 -0.248624 -0.155157 68 1 84
0.442413 0.463332 -0.129138 68 1 84
0.539455 -0.185951 0.162258 69 52 127
0.061664 0.216125 -0.299867 238 229 27
-0.707991 0.317344 0.317124 68 1 84
-0.789640 0.482575 0.340286 68 1 84
0.565036 0.288407 0.125893 68 1 84
-0.452321 -0.386135 0.187704 70 12 95
0.497727 -0.332117 0.240281 70 9 92
-0.199992 -0.268411 -0.201202 68 1 84
0.465633 0.167731 -0.065718 57 84 139
0.196698 0.144403 -0.223054 149 215 63
-0.335665 0.434606 -0.290221 66 62 133
0.643206 0.569032 0.424235 68 1 84
0.428096 -0.112377 -0.097331 31 149 139
0.406829 0.072163 -0.134695 35 169 130
0.252207 -0.176434 -0.219441 47 106 141
-0.147915 -0.168591 -0.253810 68 1 84
0.006197 0.134404 -0.351269 91 200 98
-0.156746 0.406764 -0.332256 30 155 137
0.587530 -0.030344 0.442970 68 1 84
-0.585713 -0.066847 0.217593 68 1 84
0.557131 -0.069133 0.154403 67 60 132
0.537851 -0.182173 0.154122 64 67 135
0.199370 -0.089698 -0.239177 48 103 141
-0.551040 -0.255353 0.416322 69 6 90
0.032416 -0.184320 -0.316288 68 1 84
-0.348776 0.285058 -0.183881 70 49 126
-0.474027 -0.389452 0.328603 68 2 85
-0.030811 -0.295480 -0.248840 68 1 84
0.044603 -0.298658 -0.257222 68 1 84
-0.603452 0.449767 0.071170 68 1 84
0.583851 0.056073 0.214378 68 1 84
0.571417 0.219517 0.138429 68 1 84
0.045946 0.075086 -0.390822 85 198 102
-0.578047 0.294798 0.051392 68 1 84
0.627929 0.147494 0.408579 68 1 84
-0.684769 0.292856 0.222659 68 1 84
0.103404 0.069262 -0.361418 205 224 29
-0.647401 0.483691 0.117718 68 1 84
0.544162 0.385190 0.102610 68 1 84
0.174002 -0.402275 -0.167299 68 1 84
0.517692 -0.325808 0.385559 68 1 84
0.542062 0.061918 0.069276 64 68 135
-0.587024 0.018803 0.157463 68 1 84
0.046862 0.264211 -0.293268 116 208 84
-0.624005 0.182392 0.165196 68 1 84
0.152653 -0.585478 -0.026716 68 1 84
0.560068 0.094559 0.118209 71 20 102
-0.792266 0.452152 0.343789 68 1 84
0.409126 0.075265 -0.132228 35 168 131
-0.244737 -0.528203 0.074041 68 1 84
-0.166265 0.221054 -0.195483 30 155 137
-0.512138 -0.280045 0.175563 68 1 84
0.216832 -0.560863 0.016685 68 1 84
0.488941 -0.337858 0.213023 69 8 91
-0.501855 -0.351917 0.372780 69 50 127
0.534260 -0.296887 0.399395 68 1 84
0.535135 -0.158925 0.129803 47 106 141
0.047850 0.326111 -0.295710 30 155 137
-0.589633 -0.002774 0.180502 68 1 84
-0.565017 0.089416 0.046178 68 1 84
0.026009 -0.477213 -0.181966 68 1 84
-0.508318 -0.153152 0.048312 70 12 95
0.187087 0.008274 -0.246882 68 190 112
0.034289 -0.384910 -0.210095 68 1 84
0.584404 -0.016449 0.239078 68 1 84
0.006846 -0.134670 -0.304731 71 21 103
0.264263 -0.529682 0.028583 68 1 84
-0.220198 -0.536152 0.056124 68 1 84
0.305781 0.319229 -0.161668 58 83 139
0.485069 -0.195743 0.038309 48 103 141
0.544873 -0.276750 0.443919 70 12 95
0.355117 -0.080711 -0.172125 41 175 127
0.491345 -0.337455 0.222043 68 1 84
0.030691 -0.145659 -0.306494 71 17 99
0.372647 -0.282036 -0.075953 70 11 94
-0.207513 0.219654 -0.195739 31 148 139
0.598068 -0.004488 0.299568 68 1 84
-0.033108 -0.475837 -0.169274 68 1 84
0.090718 0.308322 -0.263397 39 173 128
-0.688849 0.261801 0.376283 68 1 84
-0.763030 0.440431 0.309143 68 1 84
0.639094 0.405267 0.425144 68 1 84
-0.230803 -0.253368 -0.200497 68 1 84
0.296807 -0.213952 -0.176443 48 104 141
0.536443 0.471197 0.107298 68 1 84
-0.421775 0.193613 -0.123161 69 50 127
-0.681505 0.222736 0.396405 68 1 84
0.556011 0.261515 0.104063 68 1 84
0.566072 0.427695 0.162424 68 1 84
-0.115679 -0.559297 -0.048463 68 1 84
-0.691034 0.261279 0.395123 68 1 84
-0.419731 0.046055 -0.146285 65 66 134
-0.209674 -0.535931 0.039503 68 1 84
0.022319 -0.583015 -0.105582 68 1 84
0.298563 0.365502 -0.196001 61 76 137
-0.625396 0.040288 0.357167 68 1 84
0.025411 0.416266 -0.336037 47 179 123
-0.572250 0.374645 0.044310 68 1 84
0.321853 -0.195785 -0.168013 55 89 140
-0.403005 0.039981 -0.159203 62 72 136
-0.227505 0.111692 -0.209490 33 141 140
-0.483253 0.084969 -0.088649 68 1 84
-0.664615 0.147250 0.315659 68 1 84
0.174963 0.216480 -0.196124 50 181 122
-0.461326 -0.108185 -0.067455 70 12 95
0.049654 0.326250 -0.295002 31 148 139
0.376002 -0.128962 -0.147053 31 146 140
0.192092 0.180467 -0.206615 100 203 93
0.022110 0.163597 -0.335781 146 215 65
0.086277 -0.600200 -0.028689 68 1 84
-0.040607 -0.203428 -0.302744 68 1 84
-0.320011 -0.344184 -0.080913 68 1 84
-0.368123 -0.310854 -0.057295 68 1 84
0.575774 -0.111156 0.469172 68 1 84
0.473411 -0.378357 0.279407 70 48 125
0.214629 -0.561018 0.001513 68 1 84
-0.284433 0.219180 -0.200106 40 122 142
-0.166564 0.370620 -0.295461 35 136 141
0.154884 0.090761 -0.271569 186 222 39
-0.595342 -0.106217 0.359192 68 1 84
0.276023 -0.100914 -0.209747 31 149 139
0.577582 -0.165190 0.331832 71 20 102
0.544672 0.153070 0.068936 70 47 124
0.114150 0.133400 -0.297421 194 223 34
-0.487812 -0.360141 0.278936 70 48 125
-0.559352 -0.205420 0.470352 68 1 84
0.632314 0.362692 0.351183 68 1 84
-0.555303 -0.242720 0.410120 68 1 84
-0.232303 -0.532881 0.066788 68 1 84
-0.094662 -0.141518 -0.273024 68 1 84
-0.453342 -0.048983 -0.097591 72 33 114
0.482462 0.413196 -0.017414 68 1 84
-0.629927 0.069059 0.412559 68 1 84
0.118204 -0.174019 -0.301737 58 83 139
-0.439380 -0.375997 0.128628 68 2 85
0.513352 -0.060132 0.030850 34 137 141
-0.603415 -0.069589 0.356590 68 1 84
0.546492 0.542359 0.145294 68 1 84
0.306284 -0.304603 -0.112418 72 33 114
-0.572932 -0.183742 0.311852 68 1 84
-0.601040 -0.044198 0.263162 68 1 84
0.567118 0.495433 0.189072 68 1 84
-0.605764 0.034725 0.207312 68 1 84
-0.609721 -0.041176 0.357348 68 1 84
0.148572 0.301450 -0.183175 39 126 142
-0.552006 0.083773 0.019135 68 1 84
-0.464086 0.344980 -0.150418 68 1 84
-0.462519 -0.389168 0.248924 71 22 105
0.180917 -0.468570 -0.142196 68 1 84
0.355064 0.235722 -0.128964 41 120 142
-0.301745 -0.465673 0.040216 68 1 84
-0.583181 0.200355 0.059883 68 1 84
-0.178794 0.343141 -0.227577 37 130 142
0.035171 -0.045038 -0.367280 35 137 141
-0.519661 0.317834 -0.042722 68 1 84
-0.798770 0.401429 0.383102 68 1 84
-0.096184 0.062655 -0.298990 30 151 138
0.343221 -0.502561 0.183156 68 1 84
0.059794 0.122157 -0.352312 186 222 39
0.259033 0.078657 -0.211920 87 198 101
-0.154558 -0.114292 -0.248274 68 1 84
0.540263 -0.075661 0.107725 53 92 140
0.526137 -0.051661 0.058823 41 121 142
-0.466239 -0.149407 -0.040398 71 18 101
0.537688 0.431353 0.099085 68 1 84
0.601394 0.026257 0.411274 68 1 84
-0.386301 0.362313 -0.247910 70 12 95
-0.146416 0.361835 -0.283437 48 180 122
0.333069 -0.033350 -0.188681 54 184 119
0.483584 -0.187143 0.029382 56 86 139
0.328155 0.474734 -0.257628 54 91 140
-0.213847 -0.194743 -0.227070 68 1 84
-0.155777 0.328911 -0.214267 49 102 141
0.609063 0.509075 0.272574 68 1 84
-0.010482 0.089803 -0.375209 53 183 120
0.081221 0.247104 -0.273609 83 197 103
0.086517 -0.564904 -0.118744 68 1 84
-0.594106 -0.087714 0.455730 68 1 84
0.163650 -0.474011 -0.151395 68 1 84
0.151081 -0.038929 -0.285450 32 143 140
0.569287 -0.122895 0.487629 68 1 84
-0.016591 -0.157220 -0.308852 68 1 84
-0.460585 -0.301767 0.068641 68 1 84
-0.636038 0.094083 0.248701 68 1 84
0.424584 -0.338716 0.059594 62 72 136
0.463507 0.421233 -0.071040 68 1 84
-0.337935 0.307286 -0.188041 65 65 134
0.161189 0.149886 -0.247368 94 201 97
-0.048825 -0.569840 -0.109312 68 1 84
-0.632291 0.077792 0.381186 68 1 84
0.627408 0.302993 0.410071 68 1 84
-0.532193 -0.071980 0.055527 68 2 85
0.554768 -0.133486 0.174543 71 42 121
0.441019 -0.378320 0.139993 71 43 122
-0.409463 -0.273660 -0.037770 68 1 84
-0.520045 -0.119033 0.055785 69 8 91
-0.497228 -0.008426 -0.050274 70 11 94
-0.214451 -0.321479 -0.160676 68 1 84
-0.242280 -0.532892 0.083205 68 1 84
-0.669707 0.173214 0.406939 68 1 84
-0.476491 0.365792 -0.146004 68 1 84
0.569573 0.195675 0.134053 68 1 84
0.042259 -0.287560 -0.253190 68 1 84
-0.608313 -0.051841 0.456358 68 1 84
0.118291 -0.225626 -0.283281 68 1 84
0.415935 -0.447095 0.252608 65 65 134
0.519319 -0.172276 0.096159 40 123 142
0.329584 -0.479321 0.077892 68 1 84
-0.558401 -0.144045 0.179424 68 1 84
0.196777 -0.022546 -0.230274 30 158 136
-0.038586 0.141766 -0.325688 107 205 89
-0.025771 0.273950 -0.295901 38 128 142
-0.372319 0.367917 -0.259420 72 28 110
0.638974 0.445144 0.376182 68 1 84
0.368455 0.507280 -0.224188 63 69 135
-0.038880 0.059195 -0.376819 33 142 140
-0.368591 0.332419 -0.230117 58 82 139
-0.238596 0.172973 -0.187390 31 163 134
-0.090301 0.089870 -0.299928 43 177 125
0.590299 0.332125 0.201400 68 1 84
-0.487209 -0.325974 0.172526 71 15 98
0.591729 -0.070631 0.391300 68 1 84
0.586060 0.229448 0.187489 68 1 84
-0.553780 0.162990 0.012117 68 1 84
0.289676 0.030816 -0.205920 75 194 108
0.597421 -0.028095 0.328914 68 1 84
0.179681 -0.569891 -0.045559 68 1 84
0.409354 -0.361483 0.059475 72 33 114
0.021327 -0.464054 -0.185533 68 1 84
0.614807 0.442000 0.279533 68 1 84
-0.143470 0.310952 -0.206474 39 126 142
-0.087713 0.234129 -0.254426 31 147 139
0.254287 -0.056087 -0.215886 33 166 133
0.239191 -0.318325 -0.162163 68 1 84
-0.170275 -0.565383 0.077190 68 1 84
-0.089651 0.233274 -0.252706 32 143 140
-0.064108 -0.581784 -0.069873 68 1 84
-0.336929 -0.304842 -0.096889 68 1 84
0.534392 0.006139 0.062352 53 92 140
0.611536 0.330985 0.260782 68 1 84
-0.300335 -0.463530 0.035617 68 1 84
0.134813 -0.501092 -0.156737 68 1 84
-0.370639 0.233488 -0.168505 67 59 131
-0.427353 -0.237737 -0.043256 68 1 84
-0.530051 0.318661 -0.027162 68 1 84
0.195609 0.181932 -0.203190 71 192 110
0.507092 -0.245040 0.124442 65 65 134
0.285235 -0.423922 -0.063694 68 1 84
0.496266 0.278254 0.015366 70 11 94
-0.437072 0.281167 -0.115103 70 14 97
0.540939 0.057431 0.067384 62 72 136
0.135878 -0.409800 -0.181361 68 1 84
0.172127 -0.177178 -0.271539 67 58 131
0.175910 -0.060872 -0.240181 37 131 141
-0.090820 0.240717 -0.249956 30 154 137
0.604585 0.166183 0.271737 68 1 84
-0.685458 0.232534 0.448905 68 1 84
0.580577 0.257402 0.164461 68 1 84
-0.595043 0.175728 0.089555 68 1 84
0.473731 0.427535 -0.047283 68 1 84
0.371835 -0.283458 -0.075837 69 8 91
-0.574166 -0.180807 0.314796 70 9 92
-0.001385 -0.600973 -0.054792 68 1 84
-0.623644 0.024137 0.326511 68 1 84
0.318763 -0.398078 -0.042627 68 1 84
0.510852 0.330153 0.044426 68 1 84
-0.501069 0.098029 -0.067451 68 1 84
0.547634 -0.262578 0.387543 68 1 84
-0.184312 -0.273886 -0.197223 68 1 84
-0.284241 -0.268579 -0.162361 68 1 84
-0.510281 -0.184030 0.073168 71 15 98
-0.158591 0.297750 -0.189420 49 101 141
-0.598476 -0.081616 0.299348 68 1 84
0.571332 0.257635 0.138240 68 1 84
0.581924 -0.138943 0.321717 68 1 84
-0.636354 0.089827 0.411792 68 1 84
0.022098 -0.039028 -0.374249 42 119 142
0.480750 0.424452 -0.026936 68 1 84
0.518804 -0.043361 0.038281 41 120 142
-0.486997 0.340398 -0.109222 68 1 84
-0.185562 -0.496248 -0.048928 68 1 84
-0.174590 0.412825 -0.330425 33 142 140
0.365678 -0.476888 0.150567 68 1 84
0.116736 0.125520 -0.299162 170 219 50
-0.222467 -0.468572 -0.040828 68 1 84
0.176309 0.281999 -0.175856 34 137 141
-0.530193 0.412703 -0.048152 68 1 84
-0.684851 0.447492 0.187827 68 1 84
0.402506 0.476772 -0.189127 71 15 98
0.482875 0.135609 -0.043145 45 110 142
0.151660 0.009637 -0.331808 162 218 55
-0.211146 -0.297265 -0.178468 68 1 84
-0.275002 -0.279519 -0.163072 68 1 84
0.442437 0.094788 -0.096131 40 123 142
-0.591525 -0.047598 0.224479 68 1 84
0.626276 0.290857 0.412847 68 1 84
0.416770 -0.166424 -0.090966 45 111 142
-0.629780 0.056503 0.323868 68 1 84
0.461317 0.155300 -0.071767 56 87 140
0.489009 0.309450 0.016002 68 1 84
-0.583479 -0.146746 0.414916 68 1 84
0.533962 -0.285350 0.484554 68 1 84
-0.170072 -0.058557 -0.241410 68 55 129
0.534510 0.376075 0.082998 68 1 84
0.585155 -0.031389 0.249115 68 1 84
0.343731 -0.379433 -0.026801 68 1 84
0.339536 0.116950 -0.169959 34 167 132
0.064663 -0.064819 -0.302188 33 140 141
0.602411 0.053354 0.455376 68 1 84
-0.481945 -0.303510 0.122189 72 29 111
0.195770 -0.454594 -0.134899 68 1 84
0.593036 0.312051 0.209947 68 1 84
0.625847 0.452078 0.314544 68 1 84
0.610087 0.445955 0.268408 68 1 84
0.176586 0.126456 -0.243779 112 206 86
-0.324690 -0.254453 -0.141033 68 1 84
0.316772 0.027720 -0.195889 79 195 105
-0.270312 -0.311575 -0.147068 68 1 84
-0.057677 0.007942 -0.371966 35 135 141
0.580441 0.539394 0.212742 68 1 84
0.532909 -0.089537 0.091702 58 82 139
0.479578 0.008039 -0.047697 30 155 137
0.002589 -0.411196 -0.196530 68 1 84
0.461469 -0.011574 -0.074696 44 177 125
-0.030308 -0.556157 -0.133471 68 1 84
-0.212547 0.069961 -0.229883 31 146 140
-0.541264 -0.281294 0.436891 72 32 113
-0.554770 0.023784 0.052814 69 6 90
0.025988 -0.600166 -0.059776 68 1 84
0.410989 0.108602 -0.126039 31 147 139
0.567485 -0.196079 0.441499 68 1 84
0.443606 -0.194598 -0.040560 50 98 141
-0.460844 0.307911 -0.117512 68 1 84
-0.450507 -0.072531 -0.094282 70 11 94
-0.433087 0.399348 -0.214471 69 5 88
0.457284 -0.401293 0.280789 71 44 123
-0.544672 -0.119293 0.120921 68 1 84
-0.396804 -0.298647 -0.033072 68 1 84
-0.612863 0.194566 0.126155 68 1 84
-0.081188 0.237543 -0.260014 30 158 136
0.383748 -0.150825 -0.133081 34 137 141
0.569379 0.083814 0.155636 68 1 84
-0.172724 0.390082 -0.327118 30 152 138
0.593037 -0.071509 0.343996 68 1 84
0.143613 0.259414 -0.200480 30 151 138
0.274041 0.000735 -0.210941 43 177 125
0.390021 0.180615 -0.128397 30 151 138
-0.600637 -0.082173 0.422636 68 1 84
-0.281640 -0.510770 0.086281 68 1 84
0.049221 0.401231 -0.335353 56 185 118
0.242567 -0.413019 -0.110453 68 1 84
0.382763 -0.410804 0.075790 70 49 126
-0.196629 -0.509285 -0.022047 68 1 84
-0.445313 0.120488 -0.127313 60 77 138
-0.614949 0.299693 0.127369 68 1 84
0.636938 0.434098 0.363998 68 1 84
0.086627 -0.357532 -0.232350 68 1 84
0.511213 -0.295811 0.210714 72 28 110
-0.743274 0.493304 0.279445 68 1 84
0.351819 -0.497999 0.183791 68 1 84
-0.123077 -0.104703 -0.255546 72 32 113
-0.647082 0.480547 0.117967 68 1 84
0.276213 -0.480034 -0.028554 68 1 84
0.586159 0.067669 0.220636 68 1 84
0.597723 0.436907 0.238115 68 1 84
0.540066 -0.298161 0.457159 68 2 85
0.111198 -0.336469 -0.247117 68 1 84
-0.162095 -0.343467 -0.171998 68 1 84
0.362498 -0.465342 0.119673 68 1 84
0.541800 0.517980 0.129341 68 1 84
-0.599553 -0.088102 0.346425 68 1 84
-0.546419 -0.247657 0.275552 68 1 84
0.136719 -0.498253 -0.157256 68 1 84
-0.150141 0.240741 -0.198053 34 138 141
-0.736495 0.368122 0.365843 68 1 84
0.036884 -0.593549 -0.080634 68 1 84
-0.688891 0.437919 0.200814 68 1 84
0.500318 -0.004513 -0.008282 31 147 139
-0.355516 0.065536 -0.185068 49 101 141
0.284480 -0.381738 -0.088597 68 1 84
-0.538172 0.337501 -0.019435 68 1 84
-0.750780 0.385550 0.352845 68 1 84
0.279572 -0.511043 0.025047 68 1 84
0.476126 -0.068847 -0.038564 31 149 139
0.021124 -0.375317 -0.223201 68 1 84
-0.320546 0.148353 -0.174580 34 138 141
0.284245 0.202664 -0.160053 69 191 111
-0.693388 0.270433 0.290047 68 1 84
-0.151085 -0.363814 -0.171240 68 1 84
-0.409959 -0.437041 0.191814 71 40 120
0.641651 0.485748 0.388361 68 1 84
0.305293 -0.127925 -0.193498 33 142 140
-0.533868 -0.292493 0.340010 71 15 98
0.097123 0.279086 -0.251489 40 174 127
-0.625577 0.120005 0.186168 68 1 84
0.526200 -0.292254 0.293846 72 26 108
-0.564116 0.316255 0.027262 68 1 84
0.198295 0.164286 -0.211781 116 208 84
0.578959 -0.091918 0.248854 71 42 121
0.015644 -0.271220 -0.251534 68 1 84
-0.585211 -0.134923 0.422066 68 1 84
-0.647660 0.310734 0.168270 68 1 84
-0.492083 0.326632 -0.089471 68 1 84
-0.138053 0.368493 -0.300638 30 153 138
-0.158914 0.351126 -0.253594 35 168 131
0.248188 -0.012331 -0.217340 33 166 133
-0.615850 0.436526 0.084175 68 1 84
-0.182338 -0.277553 -0.193192 68 1 84
0.233652 0.189846 -0.178038 103 204 92
0.625987 0.392158 0.308931 68 1 84
-0.430892 -0.251903 -0.027475 68 1 84
0.558451 -0.141396 0.514693 68 1 84
0.009936 0.090964 -0.381023 62 188 115
-0.092042 -0.585417 -0.000180 68 1 84
-0.553612 -0.234015 0.288444 68 1 84
0.605973 0.028215 0.376077 68 1 84
0.594513 0.262020 0.215794 68 1 84
0.441471 -0.406754 0.211566 68 1 84
0.112332 -0.165346 -0.303152 56 87 140
-0.507411 0.407105 -0.095481 68 1 84
-0.026515 -0.079287 -0.286485 64 68 135
0.261640 0.375861 -0.238902 46 108 142
0.159473 -0.447462 -0.159040 68 1 84
-0.520882 -0.283103 0.217396 72 25 107
0.392818 -0.415659 0.098134 69 8 91
-0.503383 0.411811 -0.104191 68 1 84
0.492843 0.121096 -0.028560 46 107 142
-0.490279 0.155833 -0.077618 70 9 92
0.222302 -0.419472 -0.125774 68 1 84
-0.464197 -0.379950 0.219276 70 48 125
0.060629 0.255317 -0.287696 96 201 96
-0.368279 -0.125641 -0.165364 68 1 84
0.591433 0.311114 0.205259 68 1 84
0.484289 -0.366726 0.429131 72 30 112
-0.555626 -0.028330 0.093328 68 3 87
0.442566 -0.351252 0.104517 71 21 103
0.458902 0.007975 -0.080686 31 149 139
0.063578 -0.050126 -0.322504 30 151 138
0.210090 0.376704 -0.255848 31 149 139
0.592614 -0.068884 0.319930 68 1 84
-0.109022 0.019399 -0.301957 32 144 140
0.230705 -0.494906 -0.085923 68 1 84
0.021899 -0.534439 -0.154783 68 1 84
-0.324313 -0.507969 0.188234 68 1 84
0.491747 -0.285485 0.132180 61 74 137
-0.089528 -0.119695 -0.269301 72 32 113
-0.280133 -0.217547 -0.190547 68 1 84
-0.796487 0.490627 0.353402 68 1 84
0.496388 -0.258280 0.112298 58 83 139
0.470475 -0.254205 0.056035 52 94 141
0.453339 0.250813 -0.050725 65 65 134
-0.516199 0.302021 -0.039859 68 1 84
-0.616597 -0.039181 0.449337 68 1 84
-0.402741 0.181474 -0.138139 58 83 139
0.520941 0.438929 0.065304 68 1 84
-0.137043 -0.029363 -0.251256 45 111 142
0.375643 0.403091 -0.199999 50 98 141
-0.209359 0.287888 -0.187856 46 108 142
0.422981 -0.279329 -0.008724 68 57 130
-0.253197 0.413223 -0.311515 40 122 142
-0.346440 -0.195382 -0.156842 68 1 84
0.265552 -0.132316 -0.215078 42 117 142
0.442697 -0.255794 0.004139 61 74 137
0.022093 -0.570126 -0.124122 68 1 84
0.531990 0.281389 0.066011 68 1 84
-0.533829 0.426334 -0.041618 68 1 84
-0.175681 -0.336285 -0.165852 68 1 84
-0.463584 -0.206439 -0.010075 68 1 84
0.151025 -0.269710 -0.230510 68 1 84
0.498542 0.466462 0.016178 68 1 84
0.538226 -0.021423 0.081787 54 91 140
-0.545339 -0.271267 0.431794 68 1 84
0.226395 -0.376545 -0.144946 68 1 84
0.531178 -0.085691 0.085578 51 96 141
0.430050 0.430102 -0.149074 72 30 112
-0.675478 0.193241 0.389668 68 1 84
0.470149 -0.169187 -0.008374 54 91 140
-0.071224 -0.282925 -0.228781 68 1 84
0.006878 0.027299 -0.407482 37 171 129
-0.271777 0.341331 -0.228685 33 142 140
-0.363140 -0.479903 0.182389 69 6 90
-0.355599 0.420910 -0.278650 69 50 127
-0.476496 -0.119934 -0.038904 70 12 95
0.622137 0.523948 0.307959 68 1 84
-0.424517 0.359847 -0.211491 72 34 115
-0.552295 -0.112207 0.138698 68 1 84
-0.504186 -0.036615 -0.027004 69 6 90
-0.145086 -0.241483 -0.238109 68 1 84
-0.514096 0.428717 -0.082687 68 1 84
-0.338531 0.006996 -0.199156 72 34 115
0.121522 -0.590601 -0.055341 68 1 84
0.536202 -0.265999 0.273359 70 47 124
0.349506 -0.219088 -0.136325 30 152 138
0.625130 0.239380 0.383004 68 1 84
0.028082 0.104722 -0.375504 129 211 76
0.578024 -0.011994 0.210917 70 11 94
0.581818 -0.145934 0.401446 68 1 84
-0.127191 0.136632 -0.257576 40 174 127
0.390563 -0.013350 -0.152990 30 160 135
-0.226430 0.170132 -0.188654 31 150 139
-0.200021 -0.170528 -0.235070 68 1 84
0.544903 0.462131 0.123835 68 1 84
0.588156 0.465857 0.223004 68 1 84
0.208196 0.007248 -0.226366 41 175 127
-0.187468 0.141617 -0.213164 34 167 132
0.582778 -0.121963 0.426405 68 1 84
-0.281679 -0.434588 -0.022431 68 1 84
-0.609261 -0.047160 0.376556 68 1 84
-0.378676 -0.475096 0.229280 68 1 84
0.509147 0.378817 0.042383 68 1 84
0.355185 -0.380433 -0.011307 70 45 124
0.393681 -0.033931 -0.149034 30 158 136
0.101077 -0.031892 -0.321154 47 179 123
0.549390 0.337799 0.104100 68 1 84
-0.528904 -0.182401 0.119372 71 15 98
-0.567741 -0.117389 0.191191 68 1 84
-0.621206 0.255962 0.137517 68 1 84
0.049075 -0.257450 -0.260342 68 1 84
0.641807 0.469114 0.426976 68 1 84
-0.211359 0.227254 -0.197919 31 161 135
-0.317108 -0.230459 -0.160264 68 1 84
-0.203601 0.396403 -0.317980 34 138 141
-0.563258 0.024044 0.077494 68 1 84
0.224060 -0.491342 -0.097072 68 1 84
0.438295 -0.155770 -0.069066 34 137 141
0.523435 0.380821 0.064558 68 1 84
0.558387 -0.189895 0.239915 67 59 131
0.003890 0.197483 -0.320861 131 211 75
0.298746 -0.436916 -0.037317 68 1 84
-0.350734 0.250450 -0.186565 56 86 139
-0.490262 -0.187196 0.030003 70 9 92
0.328917 -0.359556 -0.059681 68 1 84
0.281560 -0.474806 -0.025745 68 1 84
0.029256 -0.378525 -0.217794 68 1 84
-0.235166 -0.083276 -0.234205 72 26 108
0.449283 0.382780 -0.069793 68 1 84
0.164565 0.006750 -0.314622 73 193 109
-0.510786 0.247649 -0.036421 68 1 84
0.108327 -0.084516 -0.276523 48 103 141
-0.374045 -0.240893 -0.106390 68 1 84
0.168571 -0.039356 -0.263943 32 143 140
0.494361 0.022544 -0.023013 31 150 139
-0.593199 0.006555 0.185442 68 1 84
-0.536940 0.437991 -0.038487 68 1 84
-0.067917 -0.531021 -0.132246 68 1 84
0.484257 0.519680 -0.015099 68 1 84
-0.599275 -0.076261 0.447823 68 1 84
-0.636341 0.071710 0.464347 68 1 84
0.367393 -0.026403 -0.169008 35 169 130
0.566224 0.403530 0.155396 68 1 84
0.293713 -0.108123 -0.201293 34 137 141
-0.558648 0.243610 0.021147 68 1 84
0.363439 0.191964 -0.135982 31 146 140
-0.773206 0.384383 0.369289 68 1 84
0.188015 -0.417934 -0.150511 68 1 84
-0.492315 -0.361215 0.415807 72 33 114
0.629156 0.320259 0.439492 68 1 84
-0.325129 0.198871 -0.179708 44 113 142
0.234930 -0.547110 0.000617 68 1 84
0.569928 0.067589 0.160851 70 14 97
-0.241560 0.330190 -0.202050 40 122 142
-0.550552 0.105852 0.011682 68 1 84
-0.522293 0.435292 -0.067327 68 1 84
0.600959 0.247915 0.238283 68 1 84
-0.189068 -0.415644 -0.111125 68 1 84
-0.225385 0.381299 -0.301493 39 126 142
-0.141676 -0.254859 -0.227487 68 1 84
0.116598 0.344860 -0.262091 36 170 130
-0.551814 0.130529 0.010831 68 1 84
-0.622605 0.020975 0.346520 68 1 84
-0.162581 0.364773 -0.283498 32 145 140
0.593416 0.204775 0.221237 68 1 84
0.206973 0.252373 -0.178972 54 184 119
-0.293049 0.333089 -0.217088 44 113 142
-0.374517 -0.358001 -0.004182 68 1 84
-0.059855 0.036030 -0.363842 38 129 142
0.580845 -0.153131 0.339475 68 1 84
0.439444 0.239011 -0.070266 60 78 138
-0.307546 0.120623 -0.185369 32 143 140
0.235360 0.419330 -0.287769 34 138 141
0.236188 -0.184433 -0.227157 47 106 141
-0.240779 0.390353 -0.307216 38 128 142
-0.250222 -0.427693 -0.058085 68 1 84
-0.672927 0.163953 0.262614 68 1 84
0.269241 0.218343 -0.163808 105 204 91
0.624729 0.216545 0.405911 68 1 84
-0.716383 0.304721 0.444968 68 1 84
0.503291 -0.345445 0.451541 71 43 122
0.516189 -0.201223 0.109266 49 100 141
0.430871 0.454104 -0.150754 68 1 84
-0.673968 0.366105 0.183754 68 1 84
-0.333747 -0.356037 -0.054512 68 1 84
-0.494346 -0.124843 -0.000521 68 1 84
-0.323986 0.339713 -0.249414 53 93 140
0.217623 -0.056289 -0.225810 42 117 142
0.400229 -0.332890 0.006228 71 20 102
0.473456 -0.386709 0.333815 69 54 129
0.115769 -0.449480 -0.179051 68 1 84
0.413746 0.394925 -0.144655 72 33 114
0.110685 -0.446136 -0.181153 68 1 84
0.283053 -0.348766 -0.108616 68 1 84
-0.568483 -0.014471 0.121152 68 1 84
-0.344741 0.014540 -0.195472 70 45 124
0.520556 -0.298838 0.276927 71 40 120
0.438440 -0.422379 0.265751 61 75 137
-0.556062 0.462295 -0.002937 68 1 84
-0.274258 0.085639 -0.205645 30 152 138
-0.692461 0.272645 0.373202 68 1 84
0.135642 0.271369 -0.204617 31 149 139
-0.578163 -0.097274 0.211912 68 1 84
0.138096 0.434314 -0.328897 68 190 112
0.121014 0.386335 -0.311209 50 181 122
0.555363 -0.131210 0.175032 71 43 122
0.225984 -0.557313 0.043145 71 22 105
0.314484 0.220223 -0.149132 31 146 140
0.160951 0.077377 -0.266510 126 210 78
-0.426260 0.265471 -0.117982 72 28 110
0.573740 -0.178495 0.421164 68 1 84
0.460220 0.433653 -0.087697 68 1 84
0.623728 0.232664 0.329527 68 1 84
0.440624 0.515718 -0.117246 68 1 84
0.211432 0.288469 -0.177558 30 156 137
0.621175 0.146469 0.340751 68 1 84
0.613682 0.146789 0.315722 68 1 84
-0.529983 0.370502 -0.042155 68 1 84
-0.036228 -0.532641 -0.148112 68 1 84
-0.082024 0.157423 -0.284075 61 187 116
-0.258745 -0.357778 -0.119366 68 1 84
-0.214801 -0.524501 0.023659 68 1 84
-0.570500 0.111699 0.051420 68 1 84
-0.497563 -0.224221 0.073388 68 1 84
-0.132167 -0.468559 -0.114004 68 1 84
-0.687117 0.220850 0.261237 68 1 84
-0.268137 0.274564 -0.196412 41 120 142
0.154745 -0.582533 -0.043685 68 1 84
0.555219 -0.138537 0.179667 71 44 123
0.515932 -0.218982 0.123337 60 77 138
0.635243 0.364982 0.427633 68 1 84
-0.282565 -0.421210 -0.035956 68 1 84
0.107305 -0.030241 -0.325020 40 174 127
-0.722515 0.364256 0.321627 68 1 84
-0.413538 -0.269830 -0.035689 68 1 84
-0.545117 -0.108230 0.115297 68 2 85
0.632503 0.123488 0.360856 68 1 84
0.623847 0.178284 0.360823 68 1 84
-0.205008 0.168066 -0.194275 30 157 136
-0.379338 -0.189002 -0.131110 68 1 84
-0.604464 -0.064802 0.441946 68 1 84
-0.078948 -0.307233 -0.227977 68 1 84
-0.510034 -0.011438 -0.026644 68 1 84
0.557281 -0.207034 0.481256 68 1 84
0.068704 0.067408 -0.388902 119 208 82
0.325408 0.253404 -0.152265 34 137 141
-0.684124 0.239201 0.388630 68 1 84
-0.555594 0.038120 0.046279 68 1 84
0.531279 -0.264178 0.237459 60 78 138
-0.470591 -0.003627 -0.087594 71 38 118
0.415541 0.433956 -0.173896 71 43 122
0.494196 -0.327602 0.209448 68 1 84
0.543241 0.335079 0.092417 68 1 84
0.429212 -0.099685 -0.100110 30 157 136
-0.421298 -0.324645 0.022353 68 1 84
0.451058 -0.397741 0.225693 69 5 88
0.069226 -0.581624 -0.102146 68 1 84
-0.566052 -0.201304 0.448917 68 1 84
0.470829 -0.304825 0.107596 61 76 137
0.197743 -0.052081 -0.230640 46 109 142
-0.667221 0.168759 0.453605 68 1 84
0.177125 0.140693 -0.238602 119 208 82
-0.089013 -0.453993 -0.149232 68 1 84
0.444631 -0.149783 -0.061999 36 133 141
-0.396768 0.008972 -0.163458 59 80 138
-0.148844 -0.278656 -0.192680 68 1 84
0.146851 0.056421 -0.300305 199 224 31
0.625155 0.190193 0.415640 68 1 84
-0.550952 -0.254715 0.338233 68 1 84
0.196392 0.144092 -0.223397 154 216 60
0.508825 -0.311733 0.242288 72 32 113
0.201931 -0.092786 -0.238914 47 106 141
0.574117 -0.180039 0.335156 68 1 84
-0.270365 0.194436 -0.189215 33 142 140
-0.553876 -0.248195 0.364785 69 6 90
0.611868 0.296119 0.261830 68 1 84
-0.226036 0.343352 -0.225743 33 140 141
0.624650 0.235487 0.344239 68 1 84
0.176846 -0.503703 -0.134894 68 1 84
-0.680160 0.422244 0.182447 68 1 84
-0.452232 0.224530 -0.089776 68 1 84
0.633935 0.390079 0.354692 68 1 84
0.380623 -0.344219 -0.014030 68 1 84
-0.608609 0.210964 0.112168 68 1 84
-0.067517 0.198185 -0.282290 33 167 132
0.084966 0.241891 -0.271504 103 204 92
0.176226 -0.324149 -0.216808 68 1 84
-0.492379 -0.255591 0.090804 68 1 84
0.405803 -0.292968 -0.024453 68 1 84
0.629460 0.444833 0.327118 68 1 84
0.532963 -0.298567 0.479528 71 17 99
0.353386 -0.438447 0.061305 67 60 132
0.596316 0.360053 0.216994 68 1 84
-0.122367 0.363588 -0.297198 30 160 135
