ply
format ascii 1.0
element vertex 1262
property float x
property float y
property float z
property uchar red
property uchar green
property uchar blue
end_header
-0.061202 0.162516 -0.313298 31 161 135
-0.547170 0.106843 0.496854 40 122 142
0.490153 -0.092045 -0.065345 68 1 84
-0.612039 -0.323906 0.210650 68 1 84
-0.081872 0.251532 -0.262488 59 81 138
0.552987 -0.069556 0.034336 68 1 84
0.529774 0.030573 0.026611 68 1 84
-0.473730 0.322878 0.311531 37 131 141
-0.015195 0.078132 -0.384627 39 126 142
-0.073271 0.189162 -0.313766 30 153 138
-0.125620 0.624259 -0.119329 68 1 84
0.586866 -0.345531 0.110280 68 1 84
-0.535418 -0.426629 -0.029069 68 1 84
-0.117057 0.038112 -0.340118 34 137 141
0.002453 -0.473313 -0.311501 94 201 97
-0.607971 -0.226804 0.191696 68 1 84
-0.543082 -0.455073 -0.004310 68 1 84
0.012789 0.069509 -0.367270 46 109 142
0.602632 0.043318 0.456142 58 83 139
0.492751 0.316017 0.399419 70 45 124
0.085907 -0.232259 -0.249103 41 121 142
-0.287115 0.547435 0.161016 68 1 84
0.588310 0.095239 0.273605 71 40 120
0.272718 -0.230084 -0.177896 72 33 114
0.596263 0.023954 0.218506 68 1 84
0.424364 0.187720 -0.038749 68 1 84
0.099559 -0.176651 -0.269831 51 97 141
0.045401 0.369362 -0.228149 68 1 84
-0.614057 -0.194889 0.224262 70 14 97
0.082832 0.203799 -0.304837 62 73 137
-0.616574 -0.288596 0.223814 68 1 84
0.341884 0.461826 0.051145 68 1 84
0.328358 0.055724 -0.172047 68 1 84
0.174698 0.117580 -0.243301 68 1 84
0.284748 0.538807 0.066678 68 1 84
-0.533107 0.122069 0.525851 39 126 142
0.135625 0.017227 -0.261341 72 29 111
0.118876 -0.095281 -0.271863 66 62 133
-0.128664 -0.332312 -0.179228 47 106 141
-0.015438 -0.052885 -0.460944 41 175 127
-0.567963 -0.400476 0.081913 68 1 84
0.052137 0.299171 -0.271045 71 17 99
-0.030200 0.426166 -0.218901 68 1 84
0.661533 -0.163564 0.455834 72 25 107
-0.346656 0.096860 -0.151449 71 43 122
0.274992 0.548080 0.083667 68 1 84
-0.617424 -0.114508 0.305441 68 57 130
0.303084 -0.332772 -0.169431 64 67 135
-0.417630 0.260321 0.015750 69 8 91
0.578497 0.017138 0.142568 68 1 84
0.398370 0.382210 0.062443 68 2 85
0.544140 -0.156756 0.006209 68 1 84
0.135360 -0.251533 -0.177619 60 78 138
-0.623559 -0.122806 0.338846 63 69 135
-0.141390 0.002392 -0.317361 34 139 141
-0.432621 0.048423 -0.081760 71 40 120
-0.018024 0.110220 -0.310458 66 64 133
0.317910 0.033230 -0.179868 68 1 84
0.195089 -0.031323 -0.213139 68 1 84
0.439981 0.289723 0.041095 70 9 92
0.044536 -0.406716 -0.284599 98 202 95
0.531997 -0.354207 0.018117 68 1 84
0.278897 0.459949 -0.064368 68 1 84
-0.618264 -0.277156 0.230063 68 1 84
-0.133099 -0.035588 -0.313763 39 124 142
0.544115 -0.087777 0.012001 68 1 84
0.193337 0.332557 -0.179806 68 1 84
-0.530514 0.126343 0.528794 39 125 142
0.491429 0.312952 0.181692 66 61 132
0.120177 0.343127 -0.216375 68 1 84
-0.037215 0.067661 -0.379500 38 129 142
-0.109260 -0.049451 -0.366693 30 151 138
0.673534 -0.254765 0.375291 70 14 97
0.258867 0.351929 -0.137210 68 1 84
-0.036774 0.063214 -0.427010 33 140 141
0.148824 0.224667 -0.250662 68 3 87
-0.388802 -0.519835 -0.232515 136 213 71
0.172995 -0.428737 -0.249340 116 208 84
-0.419611 -0.396830 -0.167736 44 113 142
0.646457 -0.112998 0.363150 68 3 87
-0.448848 0.310405 0.136419 66 64 133
-0.538087 0.175354 0.379521 37 130 142
0.544225 0.196109 0.455853 61 76 137
-0.611618 -0.100359 0.284501 71 24 106
-0.420389 0.254143 0.015535 71 20 102
-0.255453 0.513171 -0.042264 68 1 84
0.403389 -0.166669 -0.137936 68 1 84
0.058622 -0.238328 -0.316514 44 113 142
0.603881 0.027235 0.481394 67 58 131
-0.130053 -0.191551 -0.247707 32 144 140
-0.316280 0.192695 -0.165964 60 78 138
-0.448700 0.361984 0.273356 58 82 139
0.553817 -0.291952 0.042196 68 1 84
0.331526 0.502938 0.110693 71 22 105
0.194079 -0.006255 -0.212151 68 1 84
0.507492 0.294273 0.391372 61 75 137
-0.192807 0.402227 -0.162913 68 1 84
0.031731 0.333157 -0.255453 70 12 95
-0.383879 0.431847 0.335867 70 12 95
-0.505412 0.246272 0.427471 36 133 141
-0.062707 -0.419031 -0.296157 77 194 107
-0.518692 -0.451526 -0.081199 65 65 134
-0.477055 -0.239642 -0.051238 68 1 84
-0.556350 -0.467384 0.050409 68 1 84
-0.623008 -0.131083 0.488847 55 88 140
0.475464 0.179176 0.021091 71 15 98
-0.346415 -0.024263 -0.162369 70 45 124
-0.082718 0.286286 -0.271250 58 83 139
0.527831 -0.455674 -0.005370 68 2 85
0.218690 0.318222 -0.169734 68 1 84
0.637761 -0.138069 0.282610 68 1 84
-0.063546 -0.362451 -0.272139 33 167 132
0.652916 -0.147804 0.394437 72 28 110
-0.571831 -0.382897 0.093314 68 1 84
-0.428983 -0.466617 -0.189618 36 170 130
0.163267 0.579810 -0.126327 68 1 84
0.065580 -0.249510 -0.284173 39 125 142
0.431853 0.356125 0.095816 71 37 117
0.316921 0.365799 -0.081336 68 1 84
0.351707 0.388692 -0.013117 68 1 84
-0.357494 -0.364866 -0.189101 38 128 142
-0.225300 0.174261 -0.222803 41 121 142
-0.055996 0.384765 -0.222562 68 1 84
-0.072139 0.103592 -0.301070 56 87 140
0.193580 0.236862 -0.197897 68 1 84
-0.110351 -0.143722 -0.307457 30 152 138
0.520712 0.129724 0.064494 71 17 99
0.227873 -0.265291 -0.181566 60 78 138
0.430133 0.396573 0.153206 69 53 128
-0.302450 -0.467460 -0.244769 64 189 114
-0.283806 0.548546 0.176004 68 1 84
-0.008220 0.338924 -0.250740 72 29 111
0.021342 -0.208696 -0.371825 37 131 141
0.646865 -0.163239 0.296615 68 1 84
0.530613 -0.001084 0.014152 68 1 84
0.532683 0.184603 0.136101 72 34 115
-0.611251 -0.398064 0.229997 68 1 84
0.494955 -0.472865 -0.081111 72 32 113
-0.588301 -0.479855 0.163481 68 3 87
0.561832 0.166487 0.422194 60 78 138
0.408473 -0.053031 -0.131728 68 1 84
0.434215 0.136148 -0.050945 68 1 84
-0.688446 -0.331512 0.490838 69 52 127
-0.550089 -0.225138 0.042487 68 1 84
0.542004 0.230570 0.356772 61 74 137
-0.681171 -0.339472 0.388481 65 65 134
-0.445457 0.175322 0.002081 72 33 114
-0.154163 -0.393977 -0.218289 30 152 138
-0.671667 -0.449596 0.360722 68 1 84
-0.437354 0.259591 0.051824 70 48 125
0.282806 0.109227 -0.190423 68 1 84
-0.587140 -0.006493 0.497492 42 118 142
-0.455886 0.351607 0.272979 61 76 137
-0.624797 -0.145298 0.513223 62 73 137
-0.579270 -0.073092 0.123678 68 1 84
-0.391036 0.284500 -0.012303 72 33 114
0.540232 -0.251070 0.014840 68 1 84
-0.391441 -0.089834 -0.132344 71 18 101
-0.329139 0.417458 0.003124 68 1 84
-0.542420 -0.025165 0.044186 68 1 84
-0.217093 0.416025 -0.140589 68 1 84
-0.250335 0.565569 0.059507 68 1 84
-0.428771 0.279969 0.054898 72 35 116
0.515514 -0.458367 -0.037007 68 1 84
-0.115309 -0.403137 -0.262844 51 182 121
0.489852 -0.126028 -0.067407 68 1 84
-0.478176 0.265148 0.503179 55 89 140
-0.382061 0.285347 -0.029716 71 18 101
-0.078519 -0.202746 -0.344571 32 165 133
0.564702 0.176496 0.290565 70 47 124
0.571344 0.140787 0.240622 69 53 128
-0.563412 -0.358105 0.073963 68 1 84
-0.055046 0.381489 -0.224248 69 8 91
-0.445659 -0.288130 -0.077640 68 1 84
-0.011906 0.069994 -0.424845 39 124 142
0.093203 -0.062381 -0.360048 62 73 137
-0.382115 -0.154822 -0.136683 72 33 114
-0.613548 -0.092323 0.496044 51 96 141
0.720300 -0.359186 0.411248 70 12 95
-0.433501 -0.270601 -0.097357 68 1 84
-0.711651 -0.390364 0.478590 66 62 133
0.013996 0.459844 -0.223071 68 1 84
-0.593733 -0.175621 0.148580 68 1 84
-0.294985 0.468824 -0.007428 68 1 84
-0.097355 -0.131083 -0.338582 33 142 140
0.622399 -0.140980 0.205675 68 1 84
-0.452255 0.260386 0.083873 70 47 124
-0.408946 -0.061563 -0.122079 71 17 99
-0.412887 0.122974 -0.080146 69 54 129
-0.651534 -0.249897 0.467834 71 21 103
0.501042 0.310703 0.342092 63 69 135
-0.580696 -0.491969 0.138090 68 1 84
0.589224 -0.213061 0.091825 68 1 84
0.507196 -0.465570 -0.056743 71 18 101
0.108688 -0.370900 -0.203202 33 167 132
-0.664773 -0.284700 0.434728 71 42 121
0.168540 -0.414290 -0.234019 83 197 103
0.331943 0.304051 -0.103570 68 1 84
-0.255364 0.282146 -0.150611 68 1 84
0.324401 -0.293711 -0.177771 71 43 122
0.535338 0.052876 0.046550 68 1 84
-0.429773 -0.318447 -0.094608 68 1 84
0.624673 -0.147981 0.208279 68 1 84
-0.577704 -0.332741 0.109011 68 1 84
0.428982 0.060047 -0.088186 68 1 84
0.668755 -0.248962 0.467651 70 11 94
-0.162365 -0.413210 -0.243160 33 166 133
0.432873 0.201829 -0.020913 68 1 84
-0.520572 0.218437 0.231044 51 97 141
0.314240 -0.366728 -0.198538 51 96 141
0.018392 0.584267 -0.210730 68 1 84
-0.559527 -0.290090 0.070593 68 1 84
-0.629077 -0.153564 0.319659 58 83 139
-0.054079 0.455916 -0.217485 68 1 84
-0.454800 -0.251221 -0.073705 68 1 84
-0.552520 0.007654 0.090531 68 1 84
-0.124544 -0.333039 -0.183500 44 112 142
-0.379198 0.340111 0.016618 72 25 107
-0.556289 -0.182944 0.046139 68 1 84
0.492312 0.325934 0.321970 61 74 137
0.072605 0.038862 -0.397899 49 100 141
0.005536 -0.036598 -0.467140 31 147 139
-0.242313 0.302990 -0.151806 68 1 84
0.538342 0.240712 0.347068 64 68 135
0.586516 0.090481 0.431363 56 87 140
-0.396877 0.401520 0.149741 71 37 117
-0.245801 0.485754 -0.080377 68 1 84
0.646292 -0.250295 0.250501 68 1 84
-0.642292 -0.275218 0.323669 72 34 115
0.249057 0.062545 -0.201654 68 1 84
0.391667 0.451920 0.171467 71 38 118
-0.561924 0.023397 0.132645 72 34 115
-0.409340 0.404924 0.200621 70 48 125
0.353456 0.030913 -0.159125 68 1 84
0.347184 0.016296 -0.164571 68 1 84
-0.612145 -0.207786 0.213671 68 1 84
0.342582 0.353953 -0.056703 68 1 84
0.694225 -0.301440 0.363808 69 8 91
0.358925 0.335020 -0.045503 68 1 84
0.432613 0.036505 -0.092544 68 1 84
-0.472673 -0.392340 -0.115596 44 113 142
-0.588247 -0.450189 0.155852 68 1 84
0.470268 0.127125 -0.011259 68 1 84
-0.271566 -0.291214 -0.161111 47 106 141
0.600359 -0.250220 0.116482 68 1 84
0.516140 0.033859 0.005751 68 1 84
-0.186287 -0.457066 -0.288729 105 204 91
0.664584 -0.344934 0.287798 70 14 97
-0.396626 -0.180121 -0.127681 68 1 84
0.252212 0.154049 -0.209945 68 1 84
-0.505768 -0.362454 -0.036496 68 2 85
0.067091 0.290965 -0.265262 68 1 84
0.621203 -0.099267 0.233146 68 1 84
-0.427285 0.391975 0.260053 60 78 138
0.484458 0.000216 -0.049850 68 1 84
0.213315 -0.053796 -0.208802 69 8 91
0.517161 0.103782 0.041293 68 1 84
0.476472 0.237864 0.064761 68 1 84
0.049401 -0.370928 -0.259227 42 176 126
-0.266077 0.506414 -0.027635 68 1 84
0.350707 0.326722 -0.064244 68 1 84
-0.475943 -0.072294 -0.065730 68 1 84
0.095010 -0.189418 -0.269175 50 98 141
0.137387 0.017081 -0.243232 69 8 91
-0.587740 0.031829 0.382422 39 124 142
-0.549343 0.112364 0.476931 37 130 142
0.232124 0.224716 -0.205320 68 1 84
-0.576562 -0.015682 0.156015 72 25 107
0.130372 0.033779 -0.246119 68 2 85
-0.057710 0.107689 -0.307639 44 112 142
0.057224 0.206609 -0.313187 49 100 141
-0.085828 -0.264263 -0.296739 34 137 141
-0.121297 0.505642 -0.198664 68 1 84
0.436200 0.401724 0.219859 67 59 131
0.518926 0.249477 0.463503 71 37 117
-0.269599 0.315290 -0.138406 68 1 84
-0.115733 -0.211689 -0.262004 35 135 141
0.116484 -0.033534 -0.324868 70 47 124
0.562200 -0.084594 0.051630 68 1 84
-0.511504 0.249635 0.258316 47 105 141
0.646650 -0.108916 0.376955 72 29 111
0.395329 -0.263184 -0.127915 68 1 84
0.541710 -0.049452 0.015694 68 1 84
0.660047 -0.213454 0.423821 71 17 99
0.261101 0.126309 -0.200940 68 1 84
-0.056265 0.640112 -0.149350 68 1 84
0.626783 -0.045577 0.313969 68 1 84
0.024931 -0.418028 -0.296002 121 209 81
0.215362 -0.250143 -0.180327 59 81 138
-0.494789 0.165878 0.083650 72 30 112
-0.528205 -0.228362 0.010150 68 1 84
0.247431 -0.082009 -0.197395 71 22 105
-0.599807 -0.066682 0.227704 71 22 105
0.354070 0.478908 0.112593 72 33 114
-0.627324 -0.149620 0.454280 57 85 139
0.259487 -0.035522 -0.200969 68 1 84
0.680918 -0.270973 0.395292 69 8 91
-0.457272 0.346056 0.319812 49 100 141
-0.659447 -0.270977 0.455582 72 33 114
0.737150 -0.425597 0.404533 70 9 92
0.483966 0.336924 0.338228 66 64 133
-0.255731 0.563649 0.073954 68 1 84
0.555526 0.179762 0.429838 61 75 137
0.510388 0.272816 0.175945 65 66 134
-0.533984 0.196684 0.303266 47 105 141
-0.170320 0.324224 -0.203153 62 72 136
-0.257804 0.370399 -0.126016 68 3 87
-0.539897 -0.026687 0.039032 68 1 84
-0.019238 0.240781 -0.287419 53 92 140
-0.172046 0.573762 -0.127007 68 1 84
0.069896 0.543858 -0.213809 68 1 84
-0.362593 -0.475265 -0.227009 77 194 107
0.470428 0.273254 0.082235 72 29 111
-0.233011 0.392792 -0.136679 68 1 84
-0.600745 -0.426489 0.194625 68 1 84
0.360604 -0.267272 -0.155744 68 1 84
0.137220 0.238389 -0.227355 68 1 84
-0.545658 -0.469526 0.011092 68 1 84
-0.520627 0.155828 0.526761 39 125 142
-0.490778 -0.496118 -0.134565 39 126 142
0.264742 0.227060 -0.193556 68 1 84
-0.513729 -0.163033 -0.029209 68 1 84
-0.553754 -0.432623 0.037231 68 1 84
-0.214893 0.297150 -0.167408 70 14 97
-0.321536 0.511912 0.148119 68 1 84
0.410303 0.172784 -0.063569 68 1 84
0.443095 -0.031413 -0.101897 68 1 84
-0.708505 -0.373762 0.461492 71 39 119
-0.390155 -0.040090 -0.135287 71 37 117
-0.585808 -0.317781 0.128702 68 1 84
-0.279032 -0.293945 -0.159732 54 90 140
0.522863 -0.430638 -0.017152 68 1 84
0.285016 0.399393 -0.094633 68 1 84
0.171494 0.367050 -0.183266 68 1 84
0.289648 0.534782 0.068827 68 1 84
0.184531 0.595311 -0.021769 68 1 84
0.467632 -0.296958 -0.047306 68 1 84
-0.540828 0.177485 0.292954 49 100 141
-0.368860 0.389321 0.060755 70 12 95
-0.389978 -0.394347 -0.187826 32 144 140
0.580780 -0.475408 0.111217 72 35 116
-0.252484 0.538770 -0.013727 68 1 84
0.497812 0.318558 0.295311 62 73 137
0.105730 0.039768 -0.336981 65 65 134
0.385621 -0.095570 -0.146527 68 1 84
-0.641409 -0.473268 0.324187 68 1 84
-0.069593 0.048628 -0.325628 36 132 141
-0.186433 0.341074 -0.185943 72 26 108
0.062748 -0.156669 -0.349223 46 108 142
0.017707 0.066959 -0.415237 48 104 141
0.457452 -0.319209 -0.059227 68 1 84
-0.225538 -0.208233 -0.170055 64 68 135
-0.569167 0.051577 0.488454 35 135 141
-0.302702 0.251965 -0.153644 69 52 127
0.430028 -0.356224 -0.115065 71 24 106
0.417870 -0.378922 -0.146291 69 52 127
-0.359566 -0.067209 -0.150868 68 1 84
0.664180 -0.224524 0.294601 68 1 84
-0.194950 0.221582 -0.223529 44 114 142
0.563550 0.176458 0.358206 61 74 137
-0.578961 -0.180563 0.102268 68 1 84
-0.071763 -0.104531 -0.396731 30 151 138
0.612569 -0.054832 0.225685 68 1 84
-0.634432 -0.502247 0.307699 68 1 84
-0.402412 0.381870 0.130488 66 64 133
-0.138380 -0.033800 -0.299795 38 129 142
-0.160831 0.565710 -0.147890 68 1 84
0.536075 -0.288284 0.017928 68 1 84
0.061989 -0.349069 -0.231201 31 149 139
0.648632 -0.171945 0.292002 68 1 84
-0.389212 -0.498055 -0.227117 136 213 71
0.580529 -0.177673 0.076979 68 1 84
-0.420539 -0.291901 -0.114499 72 26 108
-0.206059 -0.073625 -0.199267 52 94 141
-0.262132 0.325776 -0.138852 68 1 84
0.589210 0.017780 0.180931 68 1 84
0.233961 0.244621 -0.189787 68 1 84
0.056647 0.297235 -0.269419 70 9 92
0.531993 -0.493713 0.007443 68 1 84
-0.233757 0.569691 0.013067 68 1 84
0.556853 -0.015571 0.062117 68 1 84
0.075562 -0.270445 -0.227193 39 126 142
-0.106239 0.410579 -0.201230 68 1 84
-0.580507 0.040641 0.448792 43 116 142
-0.569527 0.046155 0.495450 36 134 141
0.207487 -0.466957 -0.282447 89 199 100
-0.119713 0.635448 -0.076721 68 1 84
0.654798 -0.369437 0.278100 69 5 88
-0.575645 0.017613 0.183605 71 18 101
0.589018 0.065722 0.230755 71 22 105
-0.164315 0.002542 -0.216397 52 95 141
-0.225994 0.313767 -0.160324 69 6 90
-0.411355 0.129151 -0.080008 71 44 123
-0.118466 0.154681 -0.286330 31 147 139
0.165287 0.178467 -0.259534 68 1 84
-0.210642 -0.336005 -0.143397 67 58 131
0.737367 -0.433300 0.403165 69 8 91
-0.629142 -0.131165 0.394015 67 60 132
-0.514461 0.246874 0.294661 44 114 142
0.639565 -0.143543 0.284969 68 1 84
-0.577675 0.062099 0.407960 34 137 141
0.311212 0.516345 0.081923 68 1 84
0.283592 0.264558 -0.165645 68 1 84
0.387841 -0.238902 -0.134514 68 1 84
-0.210127 -0.215923 -0.171685 60 77 138
-0.451721 -0.021724 -0.080937 68 1 84
0.065077 0.045018 -0.384797 59 80 138
-0.481038 0.306047 0.341569 39 124 142
-0.540709 0.177699 0.306845 50 99 141
-0.093009 -0.333197 -0.227229 34 138 141
0.226676 -0.275671 -0.181085 55 88 140
0.164753 0.481250 -0.168153 68 1 84
0.390390 0.373709 0.038914 70 9 92
0.300930 -0.344487 -0.170342 62 73 137
-0.567410 0.056025 0.191923 65 66 134
0.034962 0.619733 -0.180800 68 1 84
-0.582597 -0.109339 0.120853 68 1 84
0.636753 -0.110714 0.302448 68 1 84
-0.201115 0.588883 -0.022923 68 1 84
0.154134 0.234408 -0.224304 68 1 84
-0.311316 -0.278227 -0.160706 59 81 138
-0.036177 0.077845 -0.331782 48 104 141
-0.614043 -0.422284 0.252883 68 1 84
-0.553408 0.030825 0.111008 68 1 84
-0.499684 -0.091570 -0.043202 68 1 84
0.286515 0.506979 0.001495 68 1 84
-0.121356 0.290154 -0.249305 54 91 140
0.087559 -0.273303 -0.202981 49 100 141
-0.657693 -0.265503 0.454130 72 26 108
0.172183 -0.055039 -0.219613 69 6 90
-0.044110 0.015710 -0.467235 35 169 130
0.231462 0.447358 -0.118449 68 1 84
0.539775 0.224120 0.412029 59 80 138
-0.471423 -0.386006 -0.111413 64 67 135
0.134109 0.606873 -0.120660 68 1 84
-0.050914 -0.340930 -0.284909 35 168 131
-0.502849 0.019288 -0.001781 69 6 90
0.579517 -0.446401 0.105875 71 21 103
0.120402 0.441090 -0.195333 68 1 84
-0.275062 -0.205673 -0.163593 49 101 141
-0.530559 -0.319101 0.027451 68 1 84
0.076213 -0.242018 -0.260431 41 121 142
0.170386 -0.098990 -0.218590 71 39 119
0.400209 0.440805 0.167899 71 37 117
0.486785 -0.086045 -0.068259 68 1 84
0.643682 -0.096254 0.422164 71 43 122
-0.103971 -0.132419 -0.324767 30 155 137
0.071886 0.418814 -0.209323 68 1 84
-0.470641 0.124888 0.011965 72 28 110
0.084391 -0.031451 -0.406360 44 114 142
-0.288317 0.519967 0.052071 68 1 84
0.616844 -0.128783 0.193734 68 1 84
0.137431 -0.025856 -0.260987 71 44 123
0.368874 -0.193520 -0.149455 68 1 84
0.553739 0.052604 0.084373 68 1 84
-0.645276 -0.226215 0.364224 72 26 108
0.598046 0.059668 0.408594 62 72 136
-0.097890 -0.327853 -0.217066 33 142 140
-0.104020 0.037847 -0.371600 31 146 140
-0.341044 0.129376 -0.150948 72 29 111
-0.185713 0.156733 -0.245244 33 140 141
-0.707963 -0.413724 0.413813 68 55 129
0.649958 -0.242002 0.257454 68 1 84
0.619412 -0.078062 0.238729 68 1 84
0.741094 -0.447993 0.430744 68 1 84
-0.312600 -0.030116 -0.177290 61 76 137
-0.182301 -0.324701 -0.141770 70 48 125
-0.604009 -0.466094 0.222432 68 1 84
0.446876 -0.412576 -0.137441 71 44 123
0.178632 0.529021 -0.146611 68 1 84
-0.445608 0.270167 0.079786 68 57 130
0.488313 0.118516 0.007024 68 1 84
-0.365659 0.191336 -0.111291 70 48 125
-0.337193 0.435508 0.047049 68 1 84
-0.321693 0.364571 -0.066279 69 5 88
-0.092200 -0.163178 -0.333757 33 141 140
0.552721 0.196506 0.401373 60 78 138
0.078118 0.261875 -0.254205 72 34 115
-0.308543 0.263139 -0.144090 67 59 131
0.453187 0.368817 0.167369 65 66 134
0.447593 0.035908 -0.076730 68 1 84
0.458033 -0.538647 -0.140551 39 125 142
0.461287 -0.104943 -0.094776 68 1 84
-0.262422 0.430806 -0.090409 68 1 84
0.643127 -0.224970 0.237684 68 1 84
-0.031512 -0.206973 -0.379739 30 151 138
0.335884 0.503745 0.138970 72 30 112
-0.396934 0.259986 -0.020145 71 20 102
0.649463 -0.515212 0.246650 64 67 135
-0.515151 0.244712 0.272866 51 97 141
-0.145594 -0.229523 -0.201345 45 111 142
0.221250 -0.146609 -0.192545 71 37 117
0.370399 -0.036773 -0.154794 68 1 84
-0.683044 -0.467398 0.367336 69 6 90
0.610880 -0.486187 0.206327 69 6 90
0.620662 -0.015452 0.450140 68 55 129
-0.090181 -0.337513 -0.233922 32 145 140
0.375010 0.415882 0.059448 71 21 103
-0.224387 0.253735 -0.162488 72 30 112
0.641097 -0.345068 0.244802 68 1 84
-0.434040 -0.501417 -0.198695 96 201 96
-0.264712 -0.099231 -0.179766 54 91 140
-0.004841 0.078040 -0.378344 37 130 142
0.505672 0.299164 0.380042 59 81 138
0.326269 -0.023041 -0.177968 68 1 84
0.014817 0.324857 -0.264895 72 29 111
0.595625 -0.065891 0.151122 68 1 84
0.507029 -0.413135 -0.046440 68 1 84
0.179413 -0.141507 -0.205453 63 71 136
-0.304553 0.529675 0.197949 68 1 84
-0.521470 -0.152182 -0.019421 68 1 84
-0.619271 -0.093998 0.381089 69 50 127
0.070560 0.485358 -0.217487 68 1 84
-0.086069 0.462643 -0.210419 68 1 84
-0.523001 -0.398420 -0.038147 68 2 85
0.014969 0.237174 -0.293152 62 72 136
-0.659557 -0.319075 0.356328 69 52 127
-0.605512 -0.092802 0.242080 72 25 107
0.249114 -0.375499 -0.215565 38 128 142
0.161691 0.534630 -0.163287 68 1 84
-0.308666 0.327339 -0.107867 68 1 84
-0.581433 -0.102269 0.118032 68 1 84
-0.585732 0.038729 0.396763 36 132 141
0.500603 -0.501147 -0.060834 71 38 118
0.378664 -0.521371 -0.231272 35 135 141
-0.607546 -0.223295 0.190713 68 1 84
0.194909 0.435612 -0.153542 68 1 84
-0.536866 -0.035260 0.029535 68 1 84
-0.047250 -0.311928 -0.307275 39 173 128
0.406349 0.436432 0.239998 71 39 119
-0.462811 -0.139622 -0.088913 68 1 84
-0.532946 0.144392 0.160883 59 81 138
-0.581297 -0.148392 0.110245 68 1 84
0.382887 0.242546 -0.067538 68 1 84
0.090835 0.550280 -0.201808 68 1 84
0.402606 0.435251 0.283757 72 35 116
-0.506050 0.263692 0.314788 44 114 142
-0.604384 -0.203490 0.182520 68 1 84
0.528251 0.139782 0.087224 71 21 103
-0.111466 -0.140922 -0.306292 31 147 139
0.602937 0.036972 0.280269 72 33 114
0.587860 -0.203539 0.089403 68 1 84
-0.134380 -0.086310 -0.274488 41 121 142
0.349906 0.218965 -0.120398 68 1 84
-0.131683 0.058481 -0.243398 57 85 139
-0.667403 -0.380196 0.354043 71 39 119
0.508693 0.112766 0.032610 68 1 84
0.094155 0.621443 -0.136423 68 1 84
0.629485 -0.093548 0.276716 68 1 84
0.241578 0.444434 -0.109955 68 1 84
0.332010 0.035541 -0.171865 68 1 84
0.135626 0.359004 -0.203316 68 1 84
0.446547 0.380314 0.173820 68 57 130
-0.429818 0.198044 -0.009360 72 33 114
0.101434 -0.022477 -0.371429 57 85 139
0.373460 0.472530 0.173847 71 44 123
-0.293437 0.267805 -0.149152 71 18 101
-0.395234 0.426515 0.203499 63 71 136
-0.554626 -0.135030 0.038632 68 1 84
-0.131109 0.438031 -0.190137 68 1 84
0.541544 -0.188046 0.004621 68 1 84
-0.186883 0.503986 -0.143062 68 1 84
0.258234 -0.260127 -0.184159 61 74 137
0.485449 0.337875 0.270950 60 77 138
0.136316 -0.309105 -0.151087 66 61 132
-0.097253 0.023613 -0.413764 43 177 125
-0.216313 -0.333410 -0.143557 66 62 133
-0.001105 0.016984 -0.473779 31 148 139
0.106388 -0.206955 -0.235785 46 107 142
-0.317821 0.512414 0.132749 68 1 84
0.573585 -0.007715 0.110507 68 1 84
-0.584057 -0.026086 0.176776 70 12 95
0.187890 0.589360 -0.048000 68 1 84
-0.593064 -0.148148 0.151546 68 1 84
-0.618264 -0.099766 0.345776 69 50 127
0.083918 0.211801 -0.301127 65 65 134
-0.298717 0.085694 -0.178037 70 47 124
-0.599514 -0.009243 0.376193 46 109 142
-0.035447 -0.234913 -0.367286 30 158 136
-0.178756 0.135478 -0.244815 42 119 142
0.270279 0.198000 -0.199638 68 1 84
-0.444313 0.366268 0.299898 59 81 138
0.445000 -0.044037 -0.102563 68 1 84
0.570293 0.087644 0.166257 70 14 97
-0.122477 0.566083 -0.185187 68 1 84
-0.448709 -0.016081 -0.083089 68 1 84
0.043191 -0.391703 -0.275789 47 179 123
0.569281 0.090095 0.164883 70 11 94
0.451088 0.085559 -0.053071 68 1 84
0.056112 0.048874 -0.398614 56 87 140
-0.604929 -0.491903 0.225208 68 1 84
-0.677099 -0.343986 0.376135 67 59 131
0.127924 -0.067571 -0.260324 71 38 118
-0.143093 -0.116624 -0.255124 33 140 141
0.476464 0.350406 0.277872 63 71 136
0.093484 0.533328 -0.205550 68 1 84
0.092916 -0.095142 -0.334822 56 87 140
-0.300460 0.047818 -0.179466 62 73 137
-0.217449 0.558255 -0.063069 68 1 84
-0.294967 -0.044200 -0.181282 61 74 137
-0.115073 0.028047 -0.372871 31 150 139
0.242373 0.428596 -0.116119 68 1 84
-0.127255 0.154762 -0.281153 38 128 142
-0.125844 0.621549 -0.125579 68 1 84
-0.140747 0.065583 -0.238589 60 77 138
-0.343607 0.034456 -0.160907 68 55 129
0.507288 -0.524700 -0.045485 69 53 128
-0.200792 -0.223156 -0.171410 57 84 139
0.346232 0.492059 0.128790 72 34 115
-0.101310 0.348814 -0.233082 71 40 120
0.484443 0.311783 0.154715 67 58 131
-0.583074 0.002710 0.203498 72 32 113
-0.121900 0.291926 -0.249213 55 89 140
0.221768 -0.150199 -0.191407 72 34 115
0.742828 -0.469767 0.443082 68 1 84
0.131028 0.003392 -0.314859 71 43 122
-0.554285 -0.221686 0.049360 68 1 84
-0.150057 -0.020000 -0.271475 30 154 137
0.320487 0.225635 -0.152005 68 1 84
-0.483806 0.298023 0.229032 46 109 142
0.516299 -0.339757 -0.000707 68 1 84
0.059236 0.510533 -0.221773 68 1 84
0.664161 -0.236633 0.286598 68 1 84
0.055619 0.217890 -0.306394 53 93 140
0.501048 -0.255343 -0.026304 68 1 84
-0.136620 -0.164227 -0.248731 40 123 142
-0.406790 0.400452 0.179694 71 39 119
-0.005616 0.334053 -0.256733 68 1 84
-0.513999 0.167256 0.532054 44 113 142
-0.106711 0.384189 -0.210647 69 8 91
-0.140923 0.276505 -0.229727 64 68 135
0.524505 -0.393527 -0.002276 68 1 84
0.171261 -0.342122 -0.153825 67 59 131
0.622493 -0.138416 0.208334 68 1 84
-0.646794 -0.233666 0.404046 71 15 98
-0.402429 0.360669 0.098621 71 44 123
0.537076 0.225201 0.206640 66 64 133
-0.438068 0.210825 0.013158 71 43 122
0.669392 -0.482621 0.262830 67 58 131
-0.001385 0.523900 -0.225490 68 1 84
-0.535482 0.127726 0.147396 57 84 139
-0.505349 -0.108148 -0.039379 68 1 84
-0.036461 0.069908 -0.347100 44 112 142
0.606394 -0.008951 0.236007 68 1 84
0.326401 0.473940 0.036300 68 1 84
-0.630338 -0.472624 0.309154 68 1 84
0.102370 -0.226455 -0.224914 49 101 141
-0.161700 0.577528 -0.138266 68 1 84
-0.327739 0.509319 0.207550 68 1 84
0.604403 -0.347047 0.158581 68 1 84
-0.624540 -0.480864 0.294198 68 1 84
-0.257779 0.453997 -0.082375 68 1 84
0.110916 0.613691 -0.135033 68 1 84
-0.262384 -0.465621 -0.261526 116 208 84
0.654930 -0.512941 0.253484 63 71 136
-0.175387 -0.015898 -0.208982 46 107 142
-0.542248 0.162813 0.387058 33 140 141
-0.376727 -0.072356 -0.141435 72 32 113
-0.202055 0.227493 -0.208841 50 98 141
-0.186606 0.052589 -0.210466 48 104 141
-0.665969 -0.290246 0.458271 72 30 112
0.606030 -0.001312 0.242746 68 1 84
-0.192229 -0.289735 -0.153753 63 69 135
-0.060123 -0.396669 -0.283928 46 178 124
-0.424405 -0.101367 -0.114388 71 15 98
-0.358611 0.125674 -0.138616 71 43 122
-0.117067 -0.117306 -0.303727 34 137 141
0.403273 -0.491703 -0.207889 58 82 139
-0.469825 0.299989 0.446544 50 98 141
0.574468 0.146449 0.298647 70 47 124
0.445796 -0.183509 -0.104976 68 1 84
-0.484001 0.183554 0.075417 72 35 116
-0.380181 0.139644 -0.115680 71 39 119
-0.447184 0.288012 0.103048 67 59 131
0.554298 0.158578 0.477609 64 68 135
-0.666249 -0.396344 0.356367 72 30 112
0.102558 -0.355467 -0.187865 39 124 142
0.447656 0.206503 -0.000242 68 1 84
0.412668 -0.487708 -0.199230 59 81 138
0.080363 -0.193094 -0.296974 44 114 142
0.019292 0.648749 -0.133786 68 1 84
-0.563650 -0.078959 0.069832 68 1 84
-0.382361 0.249455 -0.054744 71 21 103
-0.092568 0.576628 -0.198999 68 1 84
0.545667 0.059787 0.070473 68 1 84
0.535587 -0.431348 0.011347 68 1 84
0.668010 -0.243710 0.360434 68 1 84
-0.603038 -0.076306 0.240883 72 26 108
0.258677 0.555692 0.055761 68 1 84
-0.263738 0.562667 0.117012 68 1 84
-0.255717 0.558318 0.045095 68 1 84
0.513870 0.281305 0.211142 66 64 133
-0.584304 0.037920 0.324404 45 111 142
-0.136790 -0.045818 -0.292647 42 119 142
0.571625 -0.029072 0.094792 68 1 84
-0.570062 -0.095593 0.082836 68 1 84
-0.188887 -0.296596 -0.149802 65 65 134
-0.411381 0.339877 0.089859 70 45 124
-0.594325 -0.424306 0.168953 68 1 84
0.228953 -0.466551 -0.272445 68 190 112
0.057926 0.053741 -0.317626 66 62 133
-0.179154 -0.413169 -0.232401 31 162 134
-0.248616 0.261032 -0.157215 71 40 120
-0.265705 0.525269 -0.004132 68 1 84
0.459170 -0.004821 -0.078765 68 1 84
0.217869 -0.237313 -0.179807 70 47 124
0.715437 -0.350370 0.463128 70 12 95
-0.178739 0.252587 -0.189867 66 61 132
-0.362203 -0.449765 -0.214406 30 158 136
-0.529651 0.194767 0.229947 61 76 137
0.255067 -0.042957 -0.201449 68 1 84
-0.142947 0.164566 -0.274096 30 152 138
0.536377 -0.156323 -0.005651 68 1 84
0.588338 0.068835 0.231205 71 22 105
-0.314362 -0.388144 -0.211406 34 137 141
-0.460673 0.341344 0.318952 47 106 141
-0.038069 -0.471242 -0.312696 186 222 39
-0.421868 -0.532645 -0.207251 77 194 107
-0.520332 -0.147209 -0.021298 68 1 84
0.495483 -0.283166 -0.023697 68 1 84
-0.031677 -0.224554 -0.372437 30 159 136
-0.150857 -0.009210 -0.273874 30 160 135
0.621542 -0.008614 0.336442 69 5 88
0.236022 -0.130714 -0.191132 70 11 94
-0.144563 -0.118880 -0.251899 35 135 141
0.168256 -0.350530 -0.162987 55 88 140
0.587399 -0.350765 0.113245 68 1 84
0.619043 -0.404028 0.224058 72 30 112
0.266927 0.456723 -0.081710 68 1 84
-0.579262 -0.093620 0.112920 68 1 84
0.339959 0.434961 0.012722 68 1 84
-0.109398 -0.234806 -0.259706 33 141 140
0.506729 0.297993 0.375552 60 78 138
0.543964 0.219997 0.393339 63 71 136
-0.219311 0.570407 -0.027358 68 1 84
-0.547529 0.059046 0.116544 68 57 130
0.368167 0.109889 -0.135222 68 1 84
0.621004 -0.013114 0.322686 70 9 92
-0.613457 -0.291148 0.212848 68 1 84
0.280832 -0.134150 -0.179053 68 1 84
0.669032 -0.255330 0.445747 72 26 108
-0.552478 0.133143 0.233267 52 94 141
-0.613742 -0.097944 0.517227 50 98 141
-0.277285 0.134743 -0.191122 59 81 138
0.301884 -0.313453 -0.172765 62 73 137
-0.220664 -0.365758 -0.170490 54 91 140
0.346647 0.452917 0.048669 68 1 84
-0.554337 -0.067495 0.050471 68 1 84
0.051015 -0.157389 -0.365894 43 115 142
-0.154946 -0.162840 -0.222129 49 100 141
-0.627571 -0.247119 0.273146 68 1 84
0.572068 0.132513 0.231600 71 40 120
-0.434586 0.350830 0.434330 64 68 135
0.737298 -0.507091 0.409982 69 6 90
0.548880 -0.061482 0.026975 68 1 84
0.434714 0.287005 0.030118 71 15 98
0.216930 0.423750 -0.138257 68 1 84
-0.344840 0.252013 -0.112102 71 22 105
0.384581 -0.547798 -0.224476 32 145 140
0.168213 0.189602 -0.256078 72 30 112
-0.380107 0.437965 0.170923 70 45 124
-0.336105 0.267947 -0.115189 71 37 117
0.248045 -0.366486 -0.184625 42 118 142
-0.313590 0.519103 0.223809 68 1 84
0.575986 0.120843 0.436760 59 81 138
0.396956 0.446590 0.236691 72 30 112
0.471840 -0.073250 -0.081831 68 1 84
-0.544771 -0.194643 0.025797 68 1 84
-0.294986 0.226106 -0.171573 55 88 140
-0.091857 0.534442 -0.213146 68 1 84
-0.204374 0.129774 -0.228863 40 122 142
0.056589 -0.028954 -0.440990 46 108 142
0.104703 -0.025497 -0.361451 70 48 125
-0.128329 0.552921 -0.185505 68 1 84
-0.519430 -0.492689 -0.085848 59 80 138
0.182105 0.238342 -0.198124 69 8 91
-0.458842 -0.275000 -0.062413 68 1 84
0.371506 0.045325 -0.144460 68 1 84
-0.602624 -0.320922 0.177154 68 1 84
0.021571 -0.125237 -0.412226 31 150 139
-0.491993 0.224565 0.525643 47 106 141
0.400069 -0.005979 -0.132519 68 1 84
-0.226019 0.234863 -0.180268 70 49 126
0.019117 0.150507 -0.313325 62 73 137
-0.690240 -0.484134 0.379074 68 3 87
-0.485670 0.089677 0.013311 68 1 84
0.491165 -0.154150 -0.064174 68 1 84
-0.139378 0.014887 -0.322708 33 142 140
-0.546156 -0.099643 0.025353 68 1 84
-0.520944 -0.037950 0.001095 68 1 84
-0.393060 -0.510314 -0.229644 159 217 56
-0.498845 -0.232020 -0.027560 68 1 84
0.356128 0.263846 -0.094098 68 1 84
-0.326283 -0.216278 -0.153652 56 86 139
0.038578 -0.303027 -0.285194 34 139 141
0.570295 0.160053 0.303614 67 59 131
-0.351554 0.264101 -0.096742 70 45 124
0.538597 -0.135331 -0.002504 68 1 84
0.610154 0.021606 0.444888 62 73 137
0.634755 -0.285933 0.214291 68 1 84
-0.152721 -0.303335 -0.159350 59 81 138
-0.079776 -0.225509 -0.334592 30 158 136
-0.515934 0.221918 0.422956 32 145 140
0.516147 0.170229 0.086065 70 14 97
0.291219 0.538803 0.128334 68 1 84
0.444339 0.392297 0.251192 60 77 138
-0.449004 0.197299 0.022121 72 34 115
0.628519 -0.052366 0.465141 66 64 133
-0.066726 -0.239356 -0.346614 35 168 131
0.289851 0.401158 -0.088830 68 1 84
-0.397107 0.376329 0.108863 68 57 130
0.267220 0.501420 -0.042806 68 1 84
0.014539 -0.320922 -0.296954 32 145 140
-0.451997 0.322177 0.456709 66 62 133
-0.676312 -0.367055 0.366378 70 48 125
0.263325 -0.451790 -0.247923 31 162 134
-0.117169 -0.223305 -0.251957 38 128 142
0.422255 -0.139348 -0.127480 68 1 84
0.036245 -0.092243 -0.421948 42 117 142
0.280348 0.080015 -0.192126 68 1 84
-0.334584 0.373025 -0.038549 68 1 84
-0.438111 0.155469 -0.022048 70 12 95
-0.543860 -0.402024 0.010006 68 1 84
0.026772 -0.290555 -0.316432 30 153 138
-0.097157 -0.372828 -0.244898 31 162 134
-0.109303 0.051210 -0.291560 41 121 142
-0.257882 -0.211643 -0.165946 51 97 141
0.446286 -0.261315 -0.079196 68 1 84
-0.490280 0.098705 0.026819 69 6 90
0.264104 0.489354 -0.060799 68 1 84
0.613857 -0.154107 0.167944 68 1 84
0.136887 -0.438158 -0.276957 96 201 96
0.380823 0.465836 0.192074 72 30 112
0.303865 -0.531037 -0.271032 59 186 117
0.553580 -0.093004 0.030594 68 1 84
-0.611922 -0.206263 0.212773 68 1 84
0.172461 -0.200140 -0.190865 72 34 115
0.568608 -0.223226 0.051273 68 1 84
0.243776 0.546915 -0.018746 68 1 84
0.661952 -0.213944 0.302664 68 1 84
0.227713 -0.106430 -0.197249 71 17 99
0.379932 -0.120698 -0.150254 68 1 84
-0.384101 0.445429 0.271402 72 30 112
-0.652999 -0.369148 0.333186 71 24 106
-0.649190 -0.243126 0.371884 68 57 130
-0.306976 0.530225 0.182703 68 1 84
-0.184417 0.243048 -0.191516 64 68 135
-0.572234 -0.201498 0.085219 68 1 84
-0.553017 0.143006 0.272229 54 91 140
0.296223 -0.301808 -0.177717 63 69 135
-0.643231 -0.348771 0.312947 72 32 113
0.607945 -0.124970 0.165230 68 1 84
0.670570 -0.261923 0.452192 71 22 105
-0.638305 -0.340535 0.298806 68 1 84
-0.193974 0.412117 -0.159351 68 1 84
-0.449727 0.329366 0.170349 57 85 139
0.389781 0.454516 0.230606 72 26 108
-0.100434 0.477352 -0.207424 68 1 84
0.363368 0.330741 -0.041674 68 1 84
0.158299 0.133476 -0.257438 72 29 111
0.070373 0.638469 -0.118586 68 1 84
-0.459776 -0.279272 -0.059808 68 1 84
-0.456428 0.195260 0.033676 72 29 111
-0.304066 0.425704 -0.037593 68 1 84
-0.617306 -0.315777 0.228020 68 1 84
-0.675674 -0.416450 0.368361 71 24 106
0.589070 0.078853 0.249832 71 40 120
0.640445 -0.165767 0.258359 68 1 84
0.552061 -0.058573 0.035097 68 1 84
0.600627 -0.163447 0.127757 68 1 84
-0.063781 0.056808 -0.410192 32 143 140
0.729132 -0.404536 0.367461 71 15 98
0.207171 0.131109 -0.230334 70 9 92
0.152306 -0.458061 -0.290436 87 198 101
0.468506 -0.379085 -0.085983 68 1 84
-0.130590 -0.337801 -0.179077 45 110 142
-0.569445 0.062398 0.212437 65 66 134
-0.442002 -0.537664 -0.191553 56 185 118
-0.307635 -0.197218 -0.157893 59 81 138
0.499557 0.071815 -0.000968 68 1 84
-0.105337 -0.445352 -0.305421 134 212 73
0.043714 0.211873 -0.313654 56 87 140
0.520056 -0.001107 -0.003435 68 1 84
-0.590972 -0.367869 0.148783 68 1 84
-0.309689 -0.390658 -0.213737 33 140 141
0.314750 0.409248 -0.054397 68 1 84
0.674934 -0.289889 0.296011 68 3 87
-0.649244 -0.241812 0.421149 72 28 110
-0.491464 0.119997 0.043010 70 9 92
-0.008189 0.560873 -0.219638 68 1 84
-0.214471 0.058528 -0.201720 49 102 141
0.565246 0.140666 0.458736 59 81 138
-0.348452 -0.021561 -0.161300 71 44 123
-0.577140 0.017952 0.508270 40 123 142
-0.301847 0.532451 0.138496 68 1 84
0.605440 -0.035303 0.208684 68 1 84
0.251174 -0.141705 -0.185471 68 1 84
-0.045638 0.412133 -0.217087 68 1 84
0.072908 0.635498 -0.126201 68 1 84
-0.709139 -0.377362 0.481226 70 49 126
-0.348413 0.480041 0.277519 68 1 84
-0.151672 -0.274437 -0.169421 51 97 141
-0.570891 -0.178721 0.080091 68 1 84
0.073134 -0.029513 -0.422737 52 95 141
-0.114270 -0.025270 -0.377499 37 171 129
0.081427 -0.126703 -0.336300 44 112 142
-0.518844 0.170899 0.150021 61 75 137
0.119723 0.042636 -0.292268 53 92 140
-0.336889 0.397164 -0.004296 69 5 88
0.110074 0.520436 -0.199948 68 1 84
-0.348934 0.483834 0.254508 68 1 84
-0.562998 0.104877 0.393994 31 146 140
0.239801 0.447139 -0.110536 68 1 84
0.298365 0.060508 -0.186793 68 1 84
0.140245 -0.185934 -0.212690 68 55 129
-0.515188 -0.442562 -0.084878 55 89 140
0.555412 0.102733 0.128566 72 28 110
0.250833 -0.501708 -0.288251 68 190 112
0.309238 0.266669 -0.145222 68 1 84
-0.379272 0.362114 0.046972 71 40 120
0.242214 0.277519 -0.172564 68 1 84
0.670366 -0.488490 0.265101 70 49 126
0.378011 0.373824 0.017578 71 15 98
-0.291272 0.525421 0.074569 68 1 84
-0.224567 -0.243457 -0.163971 57 85 139
0.514758 0.238259 0.142883 68 57 130
0.424629 0.005501 -0.109883 68 1 84
0.043807 0.053045 -0.420639 56 86 139
-0.201076 -0.158416 -0.189567 58 83 139
-0.631721 -0.187506 0.436542 68 55 129
0.535247 -0.369358 0.020926 68 1 84
-0.015309 0.244717 -0.282940 56 86 139
-0.468282 -0.186303 -0.076784 68 1 84
0.647681 -0.363503 0.267816 71 22 105
0.391804 -0.290021 -0.130494 70 14 97
0.491891 0.328007 0.287095 65 66 134
-0.310863 -0.227942 -0.158154 63 71 136
-0.506305 -0.085271 -0.033794 68 1 84
0.378866 0.458316 0.136557 72 29 111
-0.151398 -0.188504 -0.218580 47 105 141
-0.642350 -0.235212 0.329268 69 50 127
-0.512161 0.161457 0.119288 71 44 123
0.262469 -0.003188 -0.201481 68 1 84
0.043555 -0.206725 -0.354848 41 121 142
0.370559 -0.307945 -0.147133 68 1 84
0.643196 -0.096525 0.431752 69 50 127
-0.394973 -0.027350 -0.132083 72 28 110
-0.123298 -0.366186 -0.208044 34 139 141
-0.572944 0.025315 0.516820 33 141 140
-0.075603 -0.136115 -0.374202 31 161 135
-0.393700 -0.326779 -0.131723 71 22 105
-0.208167 -0.200736 -0.176463 55 89 140
-0.080547 -0.361864 -0.256284 30 153 138
0.612605 0.002837 0.503535 70 48 125
0.517084 0.272643 0.409132 60 78 138
-0.602137 -0.027412 0.329352 56 86 139
-0.514634 -0.514382 -0.089966 57 85 139
0.069174 -0.174784 -0.327807 37 130 142
0.324699 0.204808 -0.154286 68 1 84
0.635830 -0.075484 0.511973 71 40 120
-0.549706 -0.422310 0.022388 68 1 84
0.007859 -0.200831 -0.380807 35 135 141
-0.560454 -0.368641 0.065436 68 1 84
-0.042061 -0.390210 -0.285880 43 177 125
-0.131606 0.060576 -0.243900 61 76 137
-0.125844 0.035227 -0.336183 37 131 141
-0.068730 0.192473 -0.314911 30 153 138
-0.573081 -0.426529 0.099836 68 1 84
0.536741 -0.392068 0.019007 68 1 84
-0.053794 -0.267839 -0.339204 30 151 138
-0.110967 0.032494 -0.372625 30 155 137
-0.043131 0.430746 -0.216591 68 1 84
-0.272865 -0.517353 -0.284977 241 229 28
-0.215574 0.580382 -0.004976 68 1 84
-0.517678 0.133932 0.103968 71 40 120
-0.479758 -0.299553 -0.030946 68 1 84
0.101423 -0.134751 -0.290986 52 94 141
0.572699 0.147668 0.386216 64 68 135
-0.368438 -0.270545 -0.154213 44 112 142
0.236013 0.333221 -0.158014 68 1 84
0.062105 0.560791 -0.211659 68 1 84
0.586393 0.082849 0.459149 63 71 136
0.333183 0.175523 -0.152298 68 1 84
0.315484 0.184381 -0.167130 68 1 84
0.646707 -0.245322 0.250897 70 9 92
0.529192 -0.500157 0.001242 69 8 91
-0.668368 -0.438982 0.359908 68 1 84
-0.442426 0.357925 0.361005 49 101 141
-0.344751 0.355795 -0.038817 68 1 84
-0.086921 0.645495 -0.105465 68 1 84
-0.470218 -0.270677 -0.049368 68 1 84
-0.075699 0.048417 -0.382792 33 141 140
0.491737 0.256471 0.108924 71 37 117
0.517471 -0.123501 -0.033030 68 1 84
0.419922 0.331444 0.045913 71 38 118
-0.452894 0.081584 -0.039615 68 1 84
-0.216400 0.316071 -0.166915 68 1 84
0.403393 -0.415472 -0.180401 68 55 129
0.392573 0.353056 0.021250 72 32 113
0.088217 0.630891 -0.121754 68 1 84
0.661243 -0.309940 0.279609 68 1 84
0.556800 0.198673 0.309779 63 71 136
-0.397124 0.303295 0.014795 71 15 98
-0.615122 -0.104894 0.305963 71 37 117
-0.381955 -0.280932 -0.148296 63 69 135
0.710948 -0.355139 0.361319 70 12 95
0.612370 -0.074982 0.210401 68 1 84
-0.288446 -0.449161 -0.234204 30 151 138
0.470071 -0.468838 -0.130946 71 39 119
-0.131046 -0.203597 -0.239721 30 154 137
-0.086944 0.068407 -0.293448 47 106 141
-0.112646 0.046557 -0.308569 39 125 142
-0.244302 -0.019413 -0.192720 50 98 141
0.529710 0.246546 0.412526 62 73 137
-0.205540 0.212486 -0.222668 44 112 142
0.387671 -0.513127 -0.224335 44 114 142
0.336766 0.015202 -0.170927 68 1 84
-0.154157 -0.215138 -0.200861 46 107 142
-0.332843 0.040778 -0.166229 71 42 121
0.510116 -0.011446 -0.021270 68 1 84
-0.113612 -0.109822 -0.314442 30 159 136
0.340320 0.413059 -0.010440 68 1 84
-0.042916 0.438736 -0.217431 68 1 84
0.560944 0.152299 0.203794 70 49 126
0.168327 0.226089 -0.231997 68 1 84
-0.142148 -0.149924 -0.246507 44 114 142
-0.180228 -0.161824 -0.199280 54 90 140
0.282281 0.039710 -0.194177 68 1 84
-0.069849 -0.089595 -0.408016 31 146 140
-0.535412 -0.346228 0.025907 68 1 84
-0.016887 -0.028608 -0.471901 35 168 131
-0.559340 -0.409062 0.056811 68 1 84
0.057327 -0.103667 -0.394181 37 130 142
0.257257 -0.181427 -0.178193 71 20 102
-0.108337 -0.446224 -0.305429 151 216 62
0.241987 -0.415264 -0.233797 31 161 135
-0.044648 0.616463 -0.182783 68 1 84
-0.480762 0.311416 0.273291 47 105 141
0.640114 -0.277081 0.234836 69 5 88
0.635146 -0.074261 0.502461 68 55 129
-0.388282 0.027454 -0.131448 71 43 122
-0.146038 0.016014 -0.297318 30 157 136
0.417314 0.303973 0.015908 72 26 108
0.400356 -0.467425 -0.202346 51 97 141
-0.414021 -0.182595 -0.118194 70 12 95
-0.133324 0.504682 -0.190981 68 1 84
0.612482 -0.050307 0.228837 68 1 84
-0.361199 0.450807 0.135042 68 1 84
-0.162935 0.023180 -0.215804 57 85 139
-0.272415 -0.460451 -0.250556 66 190 113
-0.367146 0.359096 0.013470 68 2 85
-0.331297 0.500158 0.148772 71 18 101
0.335528 0.505372 0.151988 72 28 110
0.230086 0.079557 -0.206761 68 1 84
0.064149 0.419837 -0.211190 68 1 84
0.295578 0.534178 0.104702 68 1 84
-0.463647 0.240321 0.087236 66 64 133
-0.606605 -0.051045 0.323383 65 65 134
0.579135 0.128818 0.379418 66 62 133
-0.654593 -0.277564 0.368006 68 55 129
0.464696 -0.289477 -0.051004 68 1 84
0.129982 0.326244 -0.216975 68 1 84
-0.603493 -0.062218 0.499719 46 107 142
-0.259271 -0.108993 -0.179618 59 80 138
-0.360930 -0.031038 -0.153854 71 40 120
-0.617237 -0.449285 0.274275 68 1 84
-0.289683 0.406738 -0.073888 68 1 84
-0.021978 -0.176367 -0.394058 30 151 138
0.096525 -0.193892 -0.262539 49 100 141
0.412182 0.325086 0.026919 72 33 114
0.616333 -0.103870 0.208282 68 1 84
-0.545647 -0.417850 0.008435 68 1 84
-0.321713 -0.232079 -0.156554 60 77 138
-0.388744 -0.259778 -0.140414 70 49 126
-0.051598 0.413481 -0.215721 68 1 84
0.733199 -0.405252 0.463615 69 5 88
-0.300662 0.520761 0.093192 68 1 84
-0.401055 -0.181152 -0.125376 68 1 84
0.074114 -0.320921 -0.202590 39 126 142
-0.007090 0.653925 -0.123356 68 1 84
-0.394435 -0.200567 -0.125725 72 32 113
-0.166267 0.084760 -0.233459 48 103 141
0.521295 -0.076559 -0.023153 68 1 84
-0.002661 -0.168485 -0.397590 34 139 141
-0.635914 -0.192532 0.319133 71 44 123
0.304209 0.415673 -0.063602 68 1 84
0.059662 0.463559 -0.217327 68 1 84
0.328027 -0.521704 -0.260226 41 175 127
-0.130052 -0.062938 -0.293940 43 115 142
-0.589320 -0.449898 0.159366 68 1 84
0.346067 -0.266424 -0.165722 68 1 84
-0.377155 0.037605 -0.138171 69 53 128
0.316041 0.463197 0.000340 68 1 84
0.434023 -0.355416 -0.110379 71 22 105
-0.559113 0.040366 0.138601 71 22 105
0.603024 0.043085 0.416984 60 77 138
0.416556 -0.241838 -0.112855 68 1 84
0.551947 -0.358533 0.048165 68 1 84
-0.394123 0.400915 0.140703 72 30 112
0.480814 0.144626 0.010013 68 1 84
0.554693 0.183058 0.219396 67 58 131
0.688205 -0.288246 0.340737 69 5 88
0.012869 -0.220794 -0.370677 36 132 141
0.256788 -0.123473 -0.187136 71 15 98
-0.292300 -0.284144 -0.160857 55 88 140
-0.307481 0.106032 -0.173909 67 58 131
-0.247561 -0.048139 -0.190972 35 136 141
0.112548 0.142218 -0.286744 72 28 110
0.586394 0.081934 0.239014 71 20 102
0.548646 -0.102273 0.018945 68 1 84
-0.481808 0.278581 0.183121 53 92 140
0.291602 -0.328242 -0.167865 66 64 133
0.111376 0.023080 -0.352337 52 94 141
-0.448559 0.266794 0.082627 70 49 126
0.187811 0.273572 -0.182891 68 1 84
0.159793 0.483628 -0.172034 68 1 84
0.607418 -0.081582 0.186074 68 1 84
-0.504481 0.222173 0.488215 34 138 141
0.314270 0.352634 -0.092595 68 1 84
0.736412 -0.417587 0.456102 70 9 92
-0.004521 0.610398 -0.194887 68 1 84
0.027960 0.591948 -0.205510 68 1 84
0.737799 -0.522773 0.427035 69 6 90
-0.566456 -0.504899 0.084603 68 1 84
0.725967 -0.471527 0.351159 68 1 84
-0.469353 -0.169974 -0.079720 68 1 84
0.212285 0.578523 -0.017260 68 1 84
-0.306664 0.099742 -0.174367 69 54 129
-0.020757 -0.152148 -0.405539 33 140 141
0.035817 0.042988 -0.445333 41 121 142
-0.285319 0.150537 -0.188614 43 116 142
0.022090 -0.333748 -0.283967 35 135 141
-0.073526 -0.196705 -0.354153 33 142 140
0.443067 0.386020 0.335158 66 61 132
0.467111 0.359082 0.335131 62 73 137
-0.193043 -0.209593 -0.178428 54 91 140
0.215643 0.422109 -0.139883 68 1 84
-0.127950 -0.421275 -0.277353 61 187 116
0.727823 -0.458121 0.352616 68 1 84
0.559734 -0.180831 0.032963 68 1 84
0.605937 0.033364 0.296090 72 33 114
-0.282593 -0.021461 -0.186671 58 83 139
-0.222466 -0.019576 -0.196005 43 115 142
-0.006016 0.601889 -0.201532 68 1 84
0.501933 0.195500 0.078107 70 14 97
-0.307948 0.527521 0.148952 68 1 84
-0.444543 0.119719 -0.032059 70 12 95
-0.363305 -0.503827 -0.241826 165 218 53
0.039365 -0.077998 -0.428683 40 123 142
-0.583116 -0.168735 0.114328 68 1 84
-0.129942 0.627336 -0.101107 68 1 84
0.431626 0.278023 0.018975 68 1 84
-0.529961 0.155649 0.166267 58 83 139
0.159477 -0.100469 -0.224488 69 53 128
-0.128321 -0.110080 -0.283612 34 138 141
0.133061 -0.443953 -0.285070 116 208 84
0.105734 0.361440 -0.215801 68 1 84
0.086745 -0.064218 -0.375329 55 88 140
-0.502098 0.246868 0.203164 52 94 141
0.413047 0.113850 -0.086654 68 1 84
0.323364 -0.306579 -0.173169 71 42 121
-0.387144 0.435362 0.306294 70 12 95
-0.480504 -0.276951 -0.033626 68 1 84
-0.599174 -0.008811 0.367633 55 89 140
0.368791 0.464192 0.119681 72 35 116
0.549318 -0.289593 0.035520 68 1 84
0.209289 0.101424 -0.220020 72 34 115
0.155190 -0.089646 -0.228114 67 59 131
0.332681 -0.189588 -0.161809 68 1 84
-0.324468 0.512120 0.207182 68 1 84
-0.489121 -0.429174 -0.119471 51 96 141
0.279112 0.538768 0.047431 68 1 84
-0.156378 0.013691 -0.224330 57 85 139
0.279568 0.099677 -0.191857 68 1 84
0.180278 -0.279774 -0.169884 61 74 137
-0.202311 -0.409122 -0.215191 32 143 140
0.476844 -0.021551 -0.065491 68 1 84
-0.472027 0.313109 0.211142 50 99 141
0.091772 0.043675 -0.322294 69 54 129
0.635834 -0.114620 0.294176 70 9 92
0.507966 -0.365677 -0.018609 68 1 84
-0.450882 0.357887 0.294265 57 85 139
-0.162494 0.060379 -0.223934 66 61 132
-0.166489 0.312750 -0.209546 69 54 129
-0.524136 -0.013291 0.017166 68 1 84
-0.516518 0.177558 0.512432 42 119 142
-0.625312 -0.261780 0.259330 68 1 84
0.617854 -0.008067 0.502353 69 54 129
-0.545703 -0.463199 0.008867 68 1 84
-0.597221 -0.169013 0.161981 68 1 84
0.047216 -0.279259 -0.296302 37 130 142
0.533361 0.142666 0.101506 71 18 101
0.152342 0.580811 -0.140518 68 1 84
0.431596 0.380818 0.126620 70 49 126
0.398292 0.140938 -0.092887 68 1 84
0.699060 -0.441192 0.315442 71 18 101
0.583060 0.102902 0.424996 58 83 139
0.345581 0.392876 -0.020123 68 1 84
-0.399402 0.175452 -0.075421 72 35 116
-0.567127 -0.044760 0.096766 68 1 84
-0.534187 0.195652 0.309567 54 91 140
-0.075664 0.086211 -0.299825 46 108 142
0.638973 -0.090208 0.463850 71 44 123
-0.527415 0.148000 0.146381 60 77 138
-0.616871 -0.094163 0.344714 68 55 129
-0.547673 -0.366943 0.037802 68 1 84
0.087601 -0.305989 -0.188311 46 108 142
-0.246987 -0.365697 -0.179335 48 103 141
0.484280 -0.185652 -0.066466 68 1 84
0.122198 -0.389789 -0.222538 42 176 126
-0.684654 -0.343660 0.394115 62 73 137
0.545513 -0.455504 0.032816 68 1 84
-0.079827 -0.256312 -0.317590 31 163 134
-0.375527 0.448036 0.179089 69 53 128
0.130695 0.028705 -0.258573 70 11 94
0.115855 0.622262 -0.104379 68 1 84
-0.518333 0.128262 0.100649 70 45 124
0.212540 0.544077 -0.085691 68 1 84
-0.473631 0.306066 0.401151 42 117 142
0.403074 -0.254437 -0.122076 68 1 84
0.559507 -0.094707 0.043550 68 1 84
0.696573 -0.309347 0.442401 72 33 114
0.414978 0.050818 -0.106282 68 1 84
-0.457772 0.199211 0.038821 71 18 101
0.534763 0.083267 0.061246 68 1 84
0.554644 0.190703 0.405644 59 80 138
0.130745 0.035441 -0.242513 68 1 84
-0.546746 -0.455644 0.011481 68 1 84
-0.249668 -0.461413 -0.262687 105 204 91
-0.164101 0.592311 -0.118113 68 1 84
-0.507014 0.038288 0.014772 68 1 84
-0.067197 0.363687 -0.231391 71 18 101
-0.111875 0.005971 -0.394068 41 175 127
0.303537 0.377459 -0.088051 68 1 84
-0.237659 0.231333 -0.184222 62 72 136
0.283358 -0.431847 -0.237367 31 162 134
0.469295 0.012674 -0.061778 68 1 84
0.380238 -0.320286 -0.137031 68 1 84
-0.529570 -0.498078 -0.051501 71 40 120
-0.628008 -0.141617 0.439250 50 99 141
0.366515 0.357957 -0.015090 70 12 95
0.575163 0.144821 0.334452 69 54 129
-0.576339 0.004488 0.555341 39 124 142
0.313260 0.497248 0.045094 68 1 84
0.363695 -0.548892 -0.238483 31 150 139
0.231688 -0.074029 -0.202175 68 1 84
-0.517199 -0.510638 -0.084907 53 93 140
0.652957 -0.133459 0.437765 71 39 119
-0.559404 0.007311 0.110569 70 9 92
0.117839 -0.267124 -0.178478 62 73 137
-0.626343 -0.286100 0.257241 68 1 84
-0.237157 0.545222 -0.037761 68 1 84
0.539240 0.242163 0.301214 69 50 127
-0.527734 -0.445057 -0.057159 71 44 123
-0.586137 0.028596 0.437493 41 120 142
-0.464712 0.201367 0.052461 71 39 119
-0.435648 0.184199 -0.008662 70 14 97
-0.029708 -0.227118 -0.371753 30 158 136
-0.455772 0.349149 0.248326 56 87 140
0.129924 -0.162513 -0.231410 57 84 139
0.621037 -0.072759 0.249849 68 1 84
-0.470877 0.113316 0.005385 72 32 113
