ply
format ascii 1.0
element vertex 1274
property float x
property float y
property float z
property uchar red
property uchar green
property uchar blue
end_header
-0.364499 -0.358322 -0.194931 47 106 141
0.530394 -0.004881 -0.024263 32 145 140
-0.108348 0.207898 -0.280087 68 1 84
0.609961 0.025331 0.486802 68 1 84
0.011990 -0.369645 -0.272616 41 120 142
0.405689 0.468482 0.098330 72 28 110
-0.437951 -0.496962 -0.210974 68 1 84
0.583282 0.053370 0.153644 66 64 133
0.080378 -0.176452 -0.276232 68 1 84
0.142106 -0.376287 -0.174787 71 20 102
0.124668 0.079894 -0.237356 71 17 99
0.182870 -0.347130 -0.161254 30 158 136
-0.581454 0.130733 0.303659 68 1 84
0.190078 -0.468751 -0.233541 64 67 135
-0.514156 -0.517629 -0.146975 68 1 84
-0.597150 0.014144 0.512969 68 1 84
0.312308 0.514577 -0.002123 68 1 84
0.622203 -0.105118 0.249702 60 78 138
-0.152893 0.541022 -0.132192 68 1 84
0.633442 -0.464887 0.315542 72 26 108
0.117828 0.584199 -0.162576 68 1 84
-0.516990 -0.339070 -0.046190 68 1 84
-0.363792 0.516292 0.165238 68 1 84
-0.330502 -0.250171 -0.153337 46 178 124
0.453347 -0.547771 -0.146917 52 95 141
-0.611152 -0.010982 0.447998 68 1 84
-0.120134 0.053754 -0.380537 68 1 84
0.548874 0.309734 0.223543 68 1 84
-0.118211 0.154703 -0.257319 68 1 84
0.596394 -0.417700 0.127280 73 193 109
0.490678 0.288418 0.040339 68 1 84
-0.567939 0.057302 0.105137 68 1 84
0.012424 -0.151648 -0.387826 68 1 84
0.158978 0.093137 -0.224003 68 1 84
-0.491757 -0.522569 -0.170476 68 1 84
-0.616610 -0.108191 0.557030 68 1 84
-0.223796 -0.414863 -0.204239 46 109 142
-0.537296 0.083701 0.041317 68 1 84
-0.411771 0.463708 0.343078 68 1 84
0.624440 -0.311596 0.153871 85 198 102
0.537463 -0.471103 -0.000976 37 131 141
0.627094 -0.430729 0.239517 35 136 141
0.554161 0.215461 0.126608 68 1 84
-0.093816 0.435479 -0.188036 68 1 84
0.632833 -0.455659 0.300801 69 52 127
0.070586 -0.205235 -0.270439 68 1 84
0.281386 -0.221674 -0.158360 238 229 27
0.601061 -0.320770 0.102694 48 180 122
-0.564919 0.090266 0.135906 68 1 84
0.589504 0.193413 0.262367 68 1 84
0.359197 -0.202358 -0.141397 87 198 101
0.358205 -0.438150 -0.206294 35 137 141
0.644191 -0.475705 0.426363 66 62 133
-0.460332 0.422452 0.251767 68 1 84
0.623506 -0.079257 0.511403 68 1 84
0.612043 -0.240332 0.109261 30 155 137
0.284932 -0.156693 -0.156080 39 173 128
-0.178975 -0.372244 -0.173919 67 58 131
-0.575301 -0.081024 0.033060 68 1 84
-0.674506 -0.428542 0.292954 68 1 84
-0.516972 -0.101735 -0.047207 68 1 84
-0.599394 -0.430404 0.015780 68 1 84
0.538474 -0.517280 0.008250 44 113 142
0.204709 -0.550231 -0.289227 68 1 84
-0.470452 0.373722 0.405253 68 1 84
0.200576 -0.461312 -0.231824 65 65 134
-0.514529 0.061413 -0.008455 68 1 84
0.240969 0.590539 0.029181 68 1 84
-0.214417 0.449633 -0.120787 68 1 84
-0.235623 -0.427705 -0.214397 53 92 140
-0.622223 -0.060648 0.219930 68 1 84
-0.497885 0.363503 0.246784 68 1 84
-0.460197 0.383017 0.124024 68 1 84
-0.122991 0.464354 -0.168411 68 1 84
0.036288 -0.320200 -0.235592 71 38 118
0.582001 0.132476 0.514290 68 1 84
-0.552788 0.241507 0.322507 68 1 84
0.619623 -0.463981 0.244610 48 104 141
0.633420 -0.472752 0.321939 72 29 111
-0.273695 0.285773 -0.175469 69 6 90
-0.668158 -0.340579 0.256208 68 1 84
0.622442 0.017625 0.394700 68 1 84
0.170574 -0.401419 -0.202352 72 34 115
0.098141 0.050541 -0.309320 68 1 84
0.025881 0.302518 -0.272225 68 1 84
-0.374568 0.394334 -0.013345 68 1 84
0.516322 -0.472945 -0.051438 35 137 141
0.069466 0.455944 -0.201351 68 1 84
-0.676613 -0.378745 0.367095 68 1 84
0.598598 -0.129709 0.078726 58 83 139
0.260443 -0.243029 -0.165933 202 224 30
-0.481648 0.371672 0.167048 68 1 84
-0.185888 0.264592 -0.214070 68 1 84
-0.591046 0.006523 0.580817 68 1 84
-0.616500 -0.089687 0.132043 68 1 84
0.372635 0.517185 0.162198 68 1 84
-0.086829 -0.052829 -0.415113 68 1 84
-0.507871 0.269531 0.112481 68 1 84
-0.568145 -0.293107 0.033460 68 1 84
-0.542199 0.117094 0.076697 68 1 84
-0.087610 -0.156819 -0.334609 68 1 84
-0.489900 0.376299 0.229277 68 1 84
0.469362 0.049192 -0.090530 35 169 130
-0.521703 -0.298139 -0.012036 68 1 84
0.353631 0.143359 -0.166390 225 227 24
-0.653959 -0.276135 0.183081 68 1 84
-0.521665 0.314389 0.343009 68 1 84
-0.465571 -0.048992 -0.083752 68 1 84
-0.660654 -0.298872 0.510156 68 1 84
0.549259 0.306168 0.380540 68 1 84
-0.468277 0.393633 0.360457 68 1 84
-0.073432 0.062853 -0.321007 68 1 84
0.034982 0.091252 -0.426841 68 1 84
-0.011922 -0.042309 -0.456072 68 1 84
0.020336 0.320241 -0.277688 68 1 84
-0.469541 -0.369981 -0.124936 68 1 84
0.390514 0.500295 0.144538 68 1 84
-0.192688 -0.234610 -0.147603 54 91 140
0.323368 0.189078 -0.181150 109 206 88
0.001858 0.564737 -0.186203 68 1 84
0.101314 0.440400 -0.195993 68 1 84
-0.350514 -0.338036 -0.147919 60 77 138
0.388368 0.297456 -0.093055 39 124 142
-0.621780 -0.081614 0.168255 68 1 84
-0.267557 0.494394 -0.037495 68 1 84
-0.259273 0.112276 -0.188173 44 112 142
-0.397491 -0.441810 -0.196387 71 24 106
0.604775 -0.129879 0.099332 39 125 142
0.568015 0.268958 0.252882 68 1 84
0.619879 -0.081856 0.263079 42 118 142
0.168149 0.372794 -0.207139 68 1 84
-0.452170 0.264818 0.002804 68 1 84
-0.358746 0.518792 0.157101 68 1 84
-0.216587 -0.128405 -0.167592 51 96 141
-0.260683 0.323978 -0.154673 68 1 84
-0.417091 -0.220054 -0.100904 72 33 114
-0.275668 -0.324412 -0.156258 48 104 141
0.620013 -0.049078 0.473882 68 1 84
0.174500 -0.048111 -0.217530 52 95 141
-0.400505 0.232114 -0.079981 68 1 84
-0.189110 0.587887 -0.048203 68 1 84
0.061521 0.266197 -0.273002 68 1 84
-0.631608 -0.143014 0.151994 68 1 84
-0.607704 -0.199070 0.080337 68 1 84
0.531307 -0.183767 -0.039836 41 121 142
0.146559 0.229342 -0.267756 68 1 84
-0.181898 0.488306 -0.125273 68 1 84
-0.130963 0.367262 -0.216258 68 1 84
0.512358 0.183253 0.016942 71 20 102
-0.563446 0.206184 0.361210 68 1 84
0.258417 -0.526417 -0.262911 53 93 140
-0.461288 0.382069 0.415947 68 1 84
0.309397 -0.400720 -0.227202 32 144 140
-0.510339 0.067850 -0.012104 68 1 84
0.642918 -0.347402 0.251420 30 160 135
0.507009 -0.469171 -0.067968 41 121 142
-0.508204 0.345820 0.305763 68 1 84
0.591985 -0.371589 0.099229 44 177 125
0.383879 0.299905 -0.097071 39 124 142
0.626973 -0.106568 0.303474 68 57 130
-0.139166 -0.001393 -0.297509 68 1 84
-0.205348 -0.264093 -0.147232 60 78 138
-0.613971 -0.095653 0.563769 68 1 84
0.199894 0.160719 -0.232409 68 1 84
0.587062 0.212791 0.283612 68 1 84
0.552664 -0.123336 -0.013902 31 161 135
-0.608872 -0.411486 0.048287 68 1 84
-0.041578 -0.152501 -0.395355 68 1 84
-0.683373 -0.404352 0.501105 68 1 84
-0.577698 0.150135 0.422961 68 1 84
0.411585 0.466767 0.106988 72 35 116
-0.461113 0.369267 0.456818 68 1 84
0.322392 -0.268089 -0.162539 189 222 38
0.341096 0.214150 -0.164511 33 166 133
0.059146 -0.411699 -0.242274 52 94 141
0.610197 0.007999 0.503943 68 1 84
0.185954 0.235129 -0.238625 68 1 84
0.619443 0.031152 0.361075 68 1 84
0.640132 -0.175412 0.454580 68 1 84
-0.202466 0.384610 -0.163224 68 1 84
0.262915 -0.512084 -0.249909 62 73 137
0.640369 -0.202700 0.501116 68 1 84
-0.123505 -0.411004 -0.252455 68 1 84
-0.221920 -0.428896 -0.220364 57 84 139
-0.579415 0.101232 0.242516 68 1 84
0.361605 -0.404950 -0.195424 39 125 142
-0.433075 0.178489 -0.071760 68 1 84
0.610344 -0.089916 0.174568 36 132 141
0.033359 -0.349024 -0.241072 71 18 101
-0.405977 0.482945 0.201957 68 1 84
-0.536414 0.097546 0.047703 68 1 84
-0.040331 0.305084 -0.268627 68 1 84
-0.388767 -0.082329 -0.125649 67 59 131
-0.027188 0.125335 -0.310008 68 1 84
0.281708 -0.399605 -0.204876 41 121 142
0.653767 -0.354438 0.319146 44 113 142
0.434720 -0.550524 -0.168922 56 87 140
0.073901 0.346402 -0.275229 68 1 84
-0.158065 -0.469359 -0.286519 68 1 84
0.214584 -0.235423 -0.162354 73 193 109
-0.664488 -0.426407 0.222865 68 1 84
-0.236838 -0.181766 -0.144166 31 147 139
-0.589033 0.062196 0.489710 68 1 84
0.223027 -0.506621 -0.259675 36 132 141
0.355616 0.526689 0.148343 68 1 84
-0.219014 0.588686 0.065157 68 1 84
-0.073967 0.083738 -0.291069 68 1 84
-0.023420 0.569283 -0.181886 68 1 84
-0.585161 0.110867 0.302804 68 1 84
-0.070266 -0.345402 -0.276629 72 30 112
0.214654 0.031278 -0.210679 49 102 141
-0.159032 -0.494610 -0.293802 68 1 84
0.530680 -0.017616 -0.026779 42 176 126
-0.138855 0.132091 -0.233787 68 1 84
-0.588600 -0.156749 0.047584 68 1 84
-0.315465 0.147057 -0.165995 66 64 133
0.549325 0.079246 0.038619 70 11 94
0.056069 -0.274616 -0.225490 68 1 84
-0.229475 -0.443797 -0.238239 41 120 142
0.446183 0.394357 0.065310 68 1 84
0.617509 0.042280 0.412348 68 1 84
0.593617 0.081024 0.206866 68 1 84
0.174103 0.146518 -0.238239 68 1 84
0.494932 0.262488 0.030453 68 1 84
-0.459435 0.249326 0.002905 68 1 84
0.033378 -0.382621 -0.253642 60 77 138
0.537811 0.210397 0.081474 70 11 94
0.467889 0.437550 0.208450 68 1 84
0.571705 0.084704 0.114470 68 1 84
0.447160 0.085254 -0.108623 46 107 142
-0.180782 0.134224 -0.215202 71 44 123
0.375783 -0.132286 -0.143591 48 180 122
0.090188 -0.208079 -0.236699 68 1 84
0.197695 0.539346 -0.131378 69 8 91
0.609149 0.070692 0.455321 68 1 84
0.396430 0.499222 0.162648 68 1 84
0.633173 -0.237286 0.173655 31 150 139
-0.084500 0.555958 -0.172782 68 1 84
0.372265 0.511668 0.132579 68 1 84
-0.094938 -0.158443 -0.316092 68 1 84
0.404510 0.197849 -0.113367 44 114 142
0.261405 -0.480968 -0.238888 52 94 141
0.569890 -0.462861 0.077273 43 177 125
-0.662577 -0.257513 0.362766 68 1 84
-0.625531 -0.068569 0.222590 68 1 84
0.138616 -0.109151 -0.234090 62 73 137
0.432812 -0.552671 -0.170448 54 91 140
0.556430 -0.451027 0.043188 53 183 120
0.473568 0.431866 0.311104 68 1 84
-0.596233 -0.168430 0.060396 68 1 84
0.109214 0.047591 -0.341202 68 1 84
0.025763 -0.275205 -0.298611 68 1 84
-0.546323 0.258159 0.332406 68 1 84
0.552753 0.302885 0.368629 68 1 84
0.606065 -0.408797 0.151072 68 190 112
-0.151865 0.018547 -0.256311 68 1 84
0.632780 -0.137131 0.310848 56 86 139
0.402153 -0.275818 -0.112784 33 141 140
0.319637 0.532041 0.063380 68 1 84
-0.026199 0.587431 -0.167127 68 1 84
0.052773 -0.167125 -0.325685 68 1 84
0.371874 -0.393968 -0.173899 44 113 142
0.249072 0.030868 -0.207685 70 47 124
0.635186 -0.165323 0.488730 68 1 84
-0.679606 -0.426335 0.340964 68 1 84
0.096040 0.005820 -0.405106 68 1 84
-0.127788 -0.204793 -0.224455 72 35 116
-0.597905 0.047435 0.312633 68 1 84
-0.110622 -0.318436 -0.192157 70 12 95
0.485050 0.348655 0.081497 72 32 113
-0.637718 -0.406408 0.125575 68 1 84
-0.107455 0.314856 -0.236748 68 1 84
0.438103 0.277919 -0.042587 55 88 140
-0.626495 -0.067512 0.236723 68 1 84
-0.273204 -0.472598 -0.260390 67 60 132
0.004572 -0.044228 -0.454058 68 1 84
-0.638843 -0.116021 0.221257 68 1 84
0.577146 -0.391434 0.075850 51 182 121
-0.613421 -0.031254 0.277081 68 1 84
-0.270132 0.564378 0.095458 68 1 84
0.610890 -0.483736 0.224496 45 110 142
-0.264767 -0.344072 -0.174170 40 123 142
0.642981 -0.233570 0.502640 68 1 84
-0.423903 -0.376647 -0.188941 67 58 131
-0.542170 0.097393 0.060998 68 1 84
0.225790 -0.007617 -0.208472 69 54 129
0.477575 0.251804 -0.002455 72 30 112
0.369749 -0.486012 -0.203794 47 106 141
0.506191 -0.498772 -0.071770 51 96 141
0.522531 0.364055 0.336983 68 1 84
0.038444 0.088490 -0.431025 68 1 84
0.604018 -0.035094 0.204115 57 84 139
0.254981 0.066115 -0.208234 51 96 141
-0.247317 0.384060 -0.135908 68 1 84
-0.545520 -0.231412 0.004507 68 1 84
-0.537408 -0.322444 -0.007559 68 1 84
0.049489 -0.411828 -0.252381 45 110 142
-0.007818 0.623637 -0.120646 69 8 91
-0.659516 -0.491769 0.184871 68 1 84
0.568303 0.197654 0.158501 68 1 84
0.496604 -0.075314 -0.075761 36 133 141
-0.137081 0.036917 -0.350383 68 1 84
0.132964 0.081703 -0.231273 68 1 84
-0.574881 -0.366182 0.007834 68 1 84
-0.028505 0.112919 -0.404015 68 1 84
0.646673 -0.214729 0.277815 60 77 138
0.636810 -0.118968 0.379976 68 1 84
-0.301966 0.549606 0.113032 68 1 84
-0.047738 0.439074 -0.195174 68 1 84
0.559973 0.241778 0.471790 68 1 84
-0.288911 0.295531 -0.161156 70 11 94
-0.698556 -0.489716 0.476202 68 1 84
-0.384476 0.406947 0.016469 68 1 84
-0.416810 0.455747 0.144930 68 1 84
0.004695 -0.334639 -0.284806 68 1 84
0.441583 0.326664 -0.009195 69 6 90
-0.667839 -0.383908 0.247942 68 1 84
0.061864 -0.289696 -0.198278 57 85 139
-0.530353 -0.092168 -0.032161 68 1 84
-0.001731 0.349522 -0.275008 68 1 84
0.582440 -0.150775 0.038046 65 66 134
-0.665894 -0.396516 0.234102 68 1 84
0.564768 -0.505253 0.078740 30 157 136
-0.535002 0.198584 0.537211 68 1 84
0.107267 -0.105781 -0.272964 68 1 84
-0.694169 -0.467796 0.440627 68 1 84
-0.551588 -0.227500 0.009718 68 1 84
0.088945 -0.065585 -0.336230 68 1 84
-0.067273 -0.362245 -0.276584 70 9 92
0.003617 0.381665 -0.236012 70 49 126
-0.010252 0.140897 -0.304388 68 1 84
-0.425676 -0.299008 -0.101558 68 1 84
-0.392570 0.492227 0.295553 68 1 84
0.649288 -0.215492 0.317805 60 78 138
-0.499864 0.284969 0.106990 68 1 84
0.561699 0.293426 0.311477 68 1 84
-0.185250 -0.166942 -0.168650 49 102 141
-0.666708 -0.294063 0.375358 68 1 84
0.477709 0.425446 0.207601 68 1 84
0.652922 -0.403021 0.345940 61 74 137
-0.617491 -0.033994 0.362476 68 1 84
0.197840 -0.050840 -0.208939 54 90 140
-0.136597 0.607476 -0.093775 68 1 84
0.487750 -0.083748 -0.084497 35 168 131
-0.659051 -0.358447 0.192417 68 1 84
0.255369 0.048134 -0.206816 53 93 140
0.430696 0.425192 0.078587 68 1 84
-0.304330 -0.492069 -0.266233 68 1 84
-0.291965 0.247350 -0.174284 71 42 121
0.131591 0.509172 -0.184875 68 1 84
0.337319 0.511388 0.051379 68 1 84
-0.400379 -0.167652 -0.112185 70 47 124
-0.324401 0.229760 -0.146932 68 1 84
0.644093 -0.197475 0.306077 67 58 131
-0.126117 -0.492747 -0.298477 68 1 84
-0.172085 -0.046805 -0.219010 68 1 84
-0.177594 0.424275 -0.157568 68 1 84
-0.070746 -0.367538 -0.274272 71 17 99
-0.443555 -0.052948 -0.099445 72 25 107
0.640084 -0.508785 0.352750 68 1 84
-0.117369 0.342090 -0.233648 68 1 84
-0.061980 -0.421610 -0.289018 68 1 84
-0.209106 -0.199816 -0.146295 46 108 142
0.016094 0.370503 -0.253319 72 35 116
0.180094 -0.141920 -0.186877 35 168 131
-0.641224 -0.489311 0.115882 68 1 84
0.549971 -0.466226 0.029549 41 121 142
-0.190782 0.603812 0.059000 68 1 84
0.643470 -0.242046 0.506382 68 1 84
-0.621721 -0.342964 0.097364 68 1 84
-0.156177 0.592398 -0.091791 68 1 84
0.367572 0.172523 -0.151637 83 197 103
0.016650 0.104460 -0.364591 68 1 84
-0.517280 -0.052906 -0.039987 68 1 84
-0.506130 -0.197168 -0.043146 68 1 84
0.026452 -0.231455 -0.336497 68 1 84
-0.456437 0.117126 -0.068128 68 1 84
-0.493701 0.362251 0.199041 68 1 84
0.266055 -0.209645 -0.158014 253 231 36
0.336366 -0.017485 -0.176097 52 95 141
0.091435 0.568865 -0.181512 68 1 84
0.198118 0.544701 -0.128651 70 9 92
0.484444 0.015043 -0.078514 41 121 142
0.516276 -0.162500 -0.059147 30 152 138
-0.272708 0.220189 -0.189165 69 52 127
0.551876 0.167345 0.093430 68 1 84
-0.310464 0.467064 -0.018451 68 1 84
0.299264 -0.153618 -0.154697 131 211 75
0.595591 -0.547601 0.200454 48 103 141
-0.243713 -0.091056 -0.170219 53 92 140
-0.533866 0.292670 0.274166 68 1 84
0.278061 -0.310352 -0.175775 189 222 38
0.166401 0.214069 -0.256502 68 1 84
0.139347 -0.241535 -0.163349 61 74 137
-0.578239 -0.410388 -0.022363 68 1 84
0.013770 -0.281043 -0.312429 68 1 84
0.617406 0.024360 0.447855 68 1 84
0.265926 0.030970 -0.204668 63 71 136
0.429223 0.166852 -0.103606 32 145 140
-0.644018 -0.166386 0.228324 68 1 84
-0.294974 0.101666 -0.178357 47 106 141
0.423723 0.482595 0.215349 68 1 84
0.659884 -0.394562 0.404554 64 68 135
0.238298 -0.097503 -0.182036 40 122 142
0.059526 -0.285322 -0.207130 56 87 140
-0.407482 -0.292758 -0.120703 60 77 138
-0.056898 0.529548 -0.192403 68 1 84
-0.260992 0.279516 -0.184620 68 1 84
0.002923 0.261786 -0.290686 68 1 84
-0.639867 -0.115586 0.327475 68 1 84
-0.268943 -0.476288 -0.267386 64 67 135
0.510853 0.383854 0.319048 68 1 84
0.238260 0.493617 -0.111702 71 17 99
0.436086 -0.523365 -0.170563 60 78 138
-0.633375 -0.376456 0.114187 68 1 84
0.584333 -0.513039 0.142586 45 111 142
-0.350140 0.501962 0.093254 68 1 84
-0.192157 0.168104 -0.221405 71 40 120
-0.291169 0.221111 -0.176067 69 54 129
0.287256 0.059570 -0.200560 42 119 142
0.138710 -0.103306 -0.235251 59 80 138
0.526441 0.189729 0.045301 69 50 127
-0.244255 -0.434050 -0.218874 36 133 141
-0.668445 -0.338314 0.260137 68 1 84
-0.186554 -0.018358 -0.207856 68 1 84
0.626415 -0.094687 0.473735 68 1 84
0.477077 0.406744 0.153667 68 1 84
0.621168 -0.044833 0.309948 68 1 84
-0.546605 0.246033 0.247049 68 1 84
-0.564559 0.196234 0.392238 68 1 84
0.525451 -0.303147 -0.009418 35 135 141
-0.656710 -0.514789 0.168202 68 1 84
0.230330 0.428760 -0.142932 68 1 84
-0.596088 0.042221 0.281967 68 1 84
0.557426 0.281653 0.402759 68 1 84
0.326675 -0.279399 -0.163914 79 195 105
-0.120130 0.440114 -0.177972 68 1 84
0.095849 0.060361 -0.287659 68 1 84
0.606399 0.067734 0.477439 68 1 84
0.610655 -0.111991 0.139617 44 113 142
0.601960 0.133743 0.286669 68 1 84
-0.666069 -0.279362 0.283824 68 1 84
-0.188883 0.325945 -0.180825 68 1 84
-0.487895 0.179999 0.001803 68 1 84
0.117617 -0.380066 -0.174216 69 8 91
-0.418321 0.054736 -0.113219 68 1 84
0.585531 -0.389400 0.091443 96 201 96
0.344606 -0.229250 -0.144346 210 225 27
0.612051 -0.318596 0.124769 103 204 92
-0.494626 0.099738 -0.023988 68 1 84
-0.215022 0.295161 -0.176258 68 1 84
-0.465655 -0.366489 -0.127115 68 1 84
-0.074801 0.083134 -0.412184 68 1 84
0.642524 -0.259717 0.471734 61 74 137
-0.441626 0.167559 -0.067261 68 1 84
-0.552352 -0.477951 -0.096164 68 1 84
0.421564 -0.580750 -0.176832 44 113 142
0.610396 0.057347 0.462406 68 1 84
0.559104 -0.073836 0.006213 33 140 141
-0.456156 0.329992 0.058694 68 1 84
0.084744 0.636212 -0.080941 70 12 95
-0.450484 -0.003490 -0.090811 68 2 85
0.065883 0.353890 -0.270902 68 1 84
-0.694956 -0.525132 0.403736 68 1 84
0.430080 -0.191106 -0.119153 71 192 110
0.141116 -0.109225 -0.231398 51 96 141
0.071796 -0.238882 -0.234565 68 1 84
0.640940 -0.273013 0.204593 47 105 141
-0.071817 -0.063960 -0.422408 68 1 84
0.617760 -0.040120 0.479276 68 1 84
-0.012875 0.243310 -0.306760 68 1 84
0.074889 -0.458174 -0.272194 65 65 134
0.151130 0.228938 -0.264394 68 1 84
-0.548338 0.243264 0.375919 68 1 84
0.577760 -0.303354 0.056674 44 177 125
-0.371941 0.202097 -0.117338 70 48 125
-0.307220 -0.375839 -0.204867 40 122 142
-0.183222 -0.034388 -0.211026 68 1 84
0.643412 -0.195494 0.445637 68 1 84
0.619041 -0.095107 0.239267 45 110 142
-0.252630 0.513867 -0.038386 68 1 84
0.488976 0.415550 0.228332 68 1 84
0.218975 -0.102248 -0.186795 43 116 142
0.373442 -0.554385 -0.221798 71 24 106
-0.271655 -0.276041 -0.156253 32 165 133
-0.246836 0.163914 -0.196891 51 97 141
-0.494734 -0.341708 -0.071569 68 1 84
-0.353411 -0.347003 -0.160300 71 43 122
0.295951 0.467674 -0.068151 68 1 84
-0.617134 -0.135034 0.108917 68 1 84
0.600485 -0.141238 0.081572 46 108 142
-0.497060 0.359228 0.209396 68 1 84
0.068465 -0.422898 -0.243423 72 35 116
-0.640685 -0.428231 0.133392 68 1 84
0.067653 -0.133667 -0.321021 68 1 84
0.601541 -0.473104 0.178831 75 194 108
0.593496 -0.518138 0.179414 45 111 142
0.341835 0.290580 -0.141826 53 92 140
0.058509 0.130514 -0.303791 68 1 84
0.003202 0.575644 -0.179710 68 1 84
0.052288 0.335158 -0.279330 71 24 106
-0.288233 -0.452345 -0.226468 34 139 141
0.021098 0.097238 -0.364976 68 1 84
-0.648475 -0.503083 0.135924 68 1 84
0.197909 0.231560 -0.233994 71 40 120
-0.117839 0.118355 -0.239388 68 1 84
-0.532890 0.054433 0.017387 68 1 84
0.629135 -0.188796 0.172669 45 111 142
-0.533798 -0.437503 -0.116398 68 1 84
0.360470 -0.563762 -0.229836 68 1 84
0.661131 -0.353242 0.354124 69 54 129
-0.671335 -0.328712 0.349621 68 1 84
-0.386076 0.204382 -0.105306 72 32 113
0.527351 0.345817 0.381232 68 1 84
0.531743 -0.353340 0.007589 44 112 142
-0.214510 -0.138054 -0.163706 49 100 141
-0.589854 -0.361035 0.036244 68 1 84
-0.016488 0.117318 -0.416191 68 1 84
-0.555279 0.233876 0.320818 68 1 84
-0.095214 0.124823 -0.261698 68 1 84
0.648740 -0.236722 0.416253 72 28 110
-0.529546 0.302910 0.307538 68 1 84
0.023147 -0.117113 -0.399862 68 1 84
-0.548383 -0.332898 -0.003013 68 1 84
0.594089 -0.480537 0.157218 44 177 125
-0.545845 0.010572 0.019513 68 1 84
-0.642387 -0.374490 0.129435 68 1 84
-0.097528 0.027200 -0.446874 68 1 84
-0.567067 0.083556 0.137426 68 1 84
0.650570 -0.219767 0.318283 69 54 129
-0.044233 0.144020 -0.300959 68 1 84
-0.007442 0.118914 -0.397358 68 1 84
0.609271 0.099937 0.353681 68 1 84
0.140245 0.622814 -0.094933 72 33 114
0.576852 0.022941 0.098732 43 115 142
0.019571 -0.157859 -0.379917 68 1 84
-0.073421 0.089395 -0.288788 68 1 84
-0.354364 -0.531284 -0.254123 68 1 84
-0.682506 -0.512431 0.321795 68 1 84
0.145837 0.548156 -0.166026 68 1 84
0.608990 0.040394 0.480319 68 1 84
0.147868 0.039391 -0.231783 71 38 118
-0.386371 -0.338907 -0.155485 69 52 127
-0.249151 0.507765 -0.047831 68 1 84
0.187525 -0.071647 -0.209430 35 136 141
-0.693108 -0.471033 0.422956 68 1 84
0.164522 -0.511216 -0.287193 68 1 84
0.084834 0.323269 -0.274024 68 1 84
0.156307 0.328645 -0.229925 68 1 84
0.211546 -0.213213 -0.159937 48 103 141
-0.039362 0.103979 -0.321298 68 1 84
-0.132719 0.008752 -0.346111 68 1 84
0.620347 0.014942 0.437702 68 1 84
-0.128865 0.587171 -0.125088 68 1 84
-0.410153 -0.036965 -0.117722 69 50 127
-0.640334 -0.129159 0.369187 68 1 84
-0.128005 -0.051613 -0.273435 68 1 84
0.102498 0.274246 -0.253099 68 1 84
-0.673649 -0.379089 0.308330 68 1 84
0.359143 0.279057 -0.130978 30 153 138
-0.382319 0.507695 0.252715 68 1 84
0.096914 0.276502 -0.254995 68 1 84
-0.348470 0.034211 -0.155591 71 18 101
0.524099 -0.212243 -0.042360 34 139 141
0.419995 0.425045 0.061625 68 1 84
-0.668034 -0.295453 0.297186 68 1 84
-0.448718 0.337508 0.052057 68 1 84
0.628984 -0.545222 0.320078 68 1 84
-0.669825 -0.341112 0.276343 68 1 84
-0.108433 -0.352131 -0.213454 71 15 98
0.585693 0.180606 0.223680 68 1 84
-0.293677 0.541610 0.078168 68 1 84
0.276707 0.556920 0.005271 68 1 84
-0.631796 -0.182019 0.531868 68 1 84
0.132031 -0.376245 -0.172380 68 1 84
0.380750 -0.284102 -0.128632 37 171 129
-0.638236 -0.106902 0.311741 68 1 84
-0.108337 -0.057296 -0.352821 68 1 84
-0.165739 -0.354641 -0.162177 72 30 112
-0.267003 0.569914 0.108856 68 1 84
-0.418616 -0.230983 -0.100016 70 45 124
-0.485431 -0.355833 -0.094805 68 1 84
-0.674382 -0.354693 0.447704 68 1 84
0.521608 0.344485 0.420262 68 1 84
0.521523 -0.172086 -0.052613 34 137 141
0.256313 -0.086575 -0.181239 49 100 141
-0.462735 0.024617 -0.078340 68 1 84
0.323957 0.440917 -0.060812 68 1 84
0.359989 -0.321389 -0.147679 66 190 113
0.023436 0.624550 -0.117027 71 39 119
0.314952 0.536041 0.063634 68 1 84
0.024999 0.574537 -0.182181 68 1 84
-0.654100 -0.379415 0.172827 68 1 84
-0.070605 -0.391241 -0.277323 69 5 88
0.649021 -0.351267 0.292769 33 141 140
0.524888 0.055214 -0.017536 36 132 141
0.398378 0.122156 -0.141468 87 198 101
-0.157559 0.603338 -0.072773 68 1 84
-0.424708 0.407212 0.081379 68 1 84
0.116314 0.342930 -0.258602 68 1 84
-0.150646 -0.142330 -0.225845 68 1 84
0.332474 0.116880 -0.182170 157 217 58
0.144502 0.485772 -0.180349 68 1 84
-0.393623 0.496067 0.266260 68 1 84
0.028995 -0.264670 -0.302458 68 1 84
0.611351 -0.256646 0.109908 38 172 129
0.402774 0.209541 -0.110459 59 80 138
-0.640815 -0.138185 0.385995 68 1 84
-0.099431 -0.252094 -0.246905 69 6 90
-0.404633 0.472260 0.336623 68 1 84
0.078271 -0.226114 -0.238569 68 1 84
0.601376 0.146862 0.303179 68 1 84
-0.256984 -0.434165 -0.215635 32 145 140
0.311437 -0.321520 -0.170047 66 190 113
-0.561103 0.133191 0.169783 68 1 84
-0.577775 -0.146835 0.029825 68 1 84
0.230165 0.587704 -0.044840 68 1 84
-0.316676 -0.433957 -0.215671 37 130 142
0.574788 -0.250686 0.037763 32 165 133
0.436258 0.447435 0.125781 68 1 84
-0.625989 -0.090742 0.438619 68 1 84
-0.141210 0.065281 -0.255598 68 1 84
-0.231496 0.052595 -0.193421 70 49 126
-0.231884 0.107940 -0.194618 71 43 122
-0.389433 0.498894 0.198863 68 1 84
-0.141603 0.401074 -0.189908 68 1 84
-0.061251 0.075414 -0.379604 68 1 84
0.486333 -0.296392 -0.046546 43 115 142
-0.403241 -0.147536 -0.114124 57 85 139
-0.425417 0.462970 0.279780 68 1 84
0.291811 -0.452610 -0.249289 47 105 141
0.092398 0.596583 -0.160120 68 1 84
0.452223 0.104511 -0.100804 72 26 108
0.586754 0.173422 0.222843 68 1 84
-0.024861 0.358659 -0.268237 68 1 84
0.599417 0.164319 0.339785 68 1 84
-0.548796 0.169347 0.532534 68 1 84
-0.376782 -0.461124 -0.212461 72 28 110
-0.582220 0.132538 0.405702 68 1 84
0.639760 -0.201757 0.228075 66 62 133
0.619425 -0.044244 0.473627 68 1 84
-0.045248 0.238790 -0.302344 68 1 84
-0.240807 -0.267568 -0.154052 30 153 138
0.352106 0.044145 -0.175298 35 135 141
-0.202387 0.209946 -0.224309 68 3 87
0.460950 -0.008128 -0.103450 36 133 141
-0.344067 0.316122 -0.102399 68 1 84
0.077471 0.047954 -0.351904 68 1 84
0.595693 0.125159 0.235992 68 1 84
-0.512085 0.318645 0.387219 68 1 84
0.510465 0.374945 0.196671 68 1 84
0.010329 0.128588 -0.313638 68 1 84
-0.011044 -0.217797 -0.372245 68 1 84
-0.007486 -0.009089 -0.471988 68 1 84
-0.093307 -0.121764 -0.333590 68 1 84
0.578289 -0.469150 0.101320 53 183 120
-0.355824 0.102437 -0.150030 68 1 84
-0.299464 -0.382041 -0.205218 32 165 133
0.528256 0.351072 0.216734 68 1 84
0.421154 0.330060 -0.035420 72 28 110
-0.193843 0.388245 -0.167223 68 1 84
-0.297452 -0.383899 -0.205369 31 161 135
-0.495502 0.108090 -0.019689 68 1 84
-0.471106 0.125640 -0.048299 68 1 84
0.358732 -0.580406 -0.228473 68 1 84
0.458872 0.197160 -0.056943 71 20 102
-0.552728 0.030847 0.042419 68 1 84
0.396120 -0.355081 -0.113390 31 161 135
-0.211412 0.519805 -0.083696 68 1 84
-0.285158 0.180800 -0.179223 67 59 131
-0.460941 0.414984 0.314476 68 1 84
0.353330 0.114206 -0.170848 81 196 104
0.077448 -0.433917 -0.247543 65 66 134
0.583919 0.159660 0.479716 68 1 84
0.585813 0.033206 0.156074 64 68 135
-0.388898 -0.238708 -0.125711 47 106 141
0.068669 -0.095008 -0.357779 68 1 84
0.650319 -0.432314 0.398916 39 126 142
0.618006 0.008436 0.454951 68 1 84
0.030995 0.541202 -0.199680 68 1 84
-0.287133 -0.377114 -0.201086 54 184 119
0.124516 0.054036 -0.303367 68 1 84
-0.434254 0.441446 0.337909 68 1 84
0.486766 -0.008328 -0.079386 114 207 85
-0.114769 -0.203956 -0.251083 68 1 84
0.595786 -0.027424 0.163290 52 94 141
0.054683 0.336181 -0.279335 71 17 99
-0.668402 -0.298971 0.299188 68 1 84
-0.241437 0.582893 0.107178 68 1 84
-0.572078 0.178771 0.333116 68 1 84
0.655498 -0.238779 0.361896 71 15 98
0.350618 0.306900 -0.126597 35 169 130
-0.673509 -0.454185 0.272952 68 1 84
0.051045 -0.178282 -0.323699 68 1 84
-0.294354 -0.061427 -0.159246 44 112 142
-0.499834 0.315084 0.136756 68 1 84
-0.461663 0.342501 0.079823 68 1 84
-0.306554 -0.407151 -0.211970 31 146 140
-0.340700 -0.004038 -0.154399 65 66 134
0.645808 -0.157402 0.385154 68 1 84
0.539837 0.203036 0.082405 68 1 84
-0.489717 0.144419 -0.014303 68 1 84
0.409003 0.490077 0.172807 68 1 84
0.135222 -0.130382 -0.230043 68 1 84
0.652926 -0.305294 0.284145 32 145 140
-0.490167 -0.354571 -0.088829 68 1 84
-0.664380 -0.313139 0.522561 68 1 84
-0.667203 -0.307831 0.403990 68 1 84
0.297172 0.403755 -0.109071 68 1 84
0.313514 -0.305716 -0.171770 146 215 65
-0.518327 0.276027 0.148296 68 1 84
0.126898 0.525334 -0.184177 68 1 84
-0.626084 -0.414279 0.091385 68 1 84
-0.649304 -0.292027 0.157059 68 1 84
0.602325 -0.198321 0.082041 59 186 117
0.612672 0.021295 0.473466 68 1 84
0.052227 0.261004 -0.282294 68 1 84
-0.149068 0.557816 -0.127950 68 1 84
-0.626577 -0.154164 0.539189 68 1 84
0.380046 -0.010552 -0.157483 55 88 140
-0.501770 0.277501 0.104861 68 1 84
0.570266 0.223601 0.455781 68 1 84
0.448477 0.462330 0.267580 68 1 84
-0.339181 0.420993 -0.033612 68 1 84
0.557587 0.143007 0.095762 68 1 84
0.488367 0.371339 0.117933 68 1 84
-0.600019 -0.051713 0.106276 68 1 84
0.603056 0.139341 0.368808 68 1 84
-0.222888 0.062908 -0.194246 71 15 98
0.461309 -0.252900 -0.084099 31 163 134
0.360991 0.279347 -0.129098 33 141 140
0.379091 -0.124137 -0.143121 53 183 120
0.643948 -0.356777 0.264093 32 144 140
0.604540 -0.570635 0.245499 58 83 139
0.414046 0.412949 0.037252 70 49 126
-0.324922 0.194143 -0.152634 68 1 84
0.088154 0.047440 -0.356874 68 1 84
0.063693 -0.388761 -0.216580 69 50 127
0.401281 0.017139 -0.147063 36 133 141
0.051769 -0.369573 -0.217877 70 45 124
0.296843 -0.270167 -0.171107 199 224 31
-0.152122 0.615518 -0.048254 68 1 84
0.602745 0.111210 0.429082 68 1 84
-0.509606 0.268433 0.501402 68 1 84
-0.111191 -0.227122 -0.240719 68 1 84
0.027861 0.372908 -0.249584 69 50 127
0.592103 0.161236 0.431170 68 1 84
0.444534 0.093322 -0.110152 44 114 142
-0.141320 0.354100 -0.213948 68 1 84
0.373191 0.099817 -0.161499 48 180 122
-0.210202 -0.412395 -0.204617 70 48 125
-0.139935 -0.082854 -0.253847 68 1 84
-0.023396 0.468773 -0.198700 68 1 84
-0.681094 -0.536209 0.304353 68 1 84
-0.152766 0.618124 -0.028839 68 1 84
0.653301 -0.307081 0.450906 70 48 125
0.262588 0.259766 -0.196198 71 18 101
0.216011 -0.415663 -0.235200 57 85 139
-0.468765 0.313928 0.067499 68 1 84
-0.233127 0.547333 -0.031934 68 1 84
-0.327039 -0.364894 -0.208527 38 129 142
0.495644 0.166896 -0.020806 67 58 131
-0.154289 0.618230 -0.010946 68 1 84
0.494990 0.410340 0.268200 68 1 84
0.665442 -0.427113 0.461841 70 9 92
-0.514927 0.267321 0.483649 68 1 84
0.353890 -0.149097 -0.147218 53 183 120
0.233171 0.501870 -0.113729 71 20 102
-0.628016 -0.142798 0.137503 68 1 84
0.175654 0.491213 -0.161245 68 1 84
0.053902 -0.253798 -0.254273 68 1 84
0.182139 0.349561 -0.207541 68 1 84
0.390164 0.140713 -0.143265 57 185 118
-0.504935 0.297641 0.458751 68 1 84
-0.634780 -0.108378 0.383225 68 1 84
0.227127 0.567741 -0.086377 68 1 84
0.460352 0.441264 0.190099 68 1 84
0.031068 -0.183190 -0.355300 68 1 84
-0.485746 0.241768 0.041942 68 1 84
-0.658123 -0.267224 0.438721 68 1 84
-0.294942 -0.130459 -0.139624 45 111 142
0.031056 0.403150 -0.209879 68 1 84
0.221793 -0.429105 -0.248376 46 108 142
0.463817 -0.399444 -0.082559 53 93 140
-0.587404 -0.412037 -0.002846 68 1 84
0.355779 0.203949 -0.153565 89 199 100
-0.614965 -0.033601 0.441101 68 1 84
-0.695057 -0.529252 0.403234 68 1 84
0.098583 -0.250479 -0.176186 69 52 127
0.061649 -0.321633 -0.187739 59 80 138
0.647498 -0.429683 0.382200 51 97 141
0.624663 -0.080099 0.327035 72 34 115
0.124439 0.097242 -0.239967 72 29 111
-0.337411 -0.049824 -0.145929 52 95 141
0.561885 -0.005899 0.031684 39 124 142
0.389899 -0.176735 -0.136263 36 170 130
-0.558445 0.188992 0.483524 68 1 84
-0.364295 0.519506 0.187561 68 1 84
0.403683 -0.353806 -0.104740 31 162 134
-0.159503 -0.254007 -0.149652 63 69 135
-0.377160 0.395718 -0.007887 68 1 84
-0.688921 -0.435980 0.437424 68 1 84
-0.474450 0.401285 0.235337 68 1 84
0.590631 -0.570211 0.182724 72 26 108
-0.373360 0.178885 -0.123579 68 1 84
0.483974 0.390970 0.140671 68 1 84
-0.108148 -0.060157 -0.347421 68 1 84
-0.457243 0.405209 0.368146 68 1 84
0.668770 -0.356163 0.404358 72 29 111
0.637396 -0.151492 0.333435 64 67 135
-0.092169 0.073883 -0.281624 68 1 84
-0.563556 0.182802 0.473323 68 1 84
0.623322 -0.056822 0.329593 71 24 106
-0.105286 0.502796 -0.173446 68 1 84
-0.167374 -0.385203 -0.188645 70 49 126
0.476651 0.434007 0.252559 68 1 84
0.420906 -0.458998 -0.162648 32 143 140
0.582121 0.232234 0.352673 68 1 84
-0.283477 -0.222549 -0.150526 37 171 129
0.024928 -0.277057 -0.298400 68 1 84
-0.102475 0.364000 -0.237896 68 1 84
0.012106 -0.044553 -0.452898 68 1 84
-0.664664 -0.282473 0.256148 68 1 84
0.322827 -0.340321 -0.162089 47 179 123
0.602557 -0.243204 0.087945 40 122 142
-0.073436 -0.103994 -0.389437 68 1 84
0.369348 0.511740 0.123847 68 1 84
-0.505218 0.193706 0.044365 68 1 84
-0.144858 -0.049343 -0.243554 68 1 84
-0.106313 -0.107118 -0.308064 68 1 84
-0.262399 -0.464000 -0.253304 38 127 142
0.594377 -0.368122 0.103012 212 225 26
-0.674526 -0.356938 0.413637 68 1 84
-0.562039 -0.185010 0.011613 68 1 84
0.101759 -0.494235 -0.292427 67 59 131
0.494536 0.018331 -0.066859 31 146 140
-0.546310 -0.478748 -0.106532 68 1 84
0.425445 0.048421 -0.130279 32 143 140
-0.584576 -0.207231 0.045608 68 1 84
-0.089696 0.641236 -0.045993 68 1 84
-0.682070 -0.396325 0.449552 68 1 84
0.592192 -0.420657 0.117263 30 153 138
0.055215 -0.438826 -0.268439 58 82 139
0.096683 0.590456 -0.165474 70 11 94
0.198356 0.242696 -0.227155 71 42 121
-0.255525 -0.268196 -0.156601 31 146 140
-0.423992 0.270843 -0.033394 68 1 84
0.377649 -0.418619 -0.186460 58 82 139
0.505191 -0.538253 -0.064148 39 125 142
-0.185714 -0.477162 -0.285648 68 1 84
0.619787 0.020161 0.339950 68 1 84
-0.087717 -0.106482 -0.359249 68 1 84
0.322443 0.339576 -0.128921 30 153 138
-0.472665 -0.098783 -0.083925 71 38 118
0.449665 -0.027744 -0.113058 36 170 130
-0.364429 0.478718 0.078196 68 1 84
0.326088 0.149986 -0.182551 91 200 98
-0.633201 -0.127511 0.172677 68 1 84
0.633902 -0.145587 0.299336 57 84 139
0.514931 -0.479205 -0.055050 40 122 142
-0.559304 -0.156256 0.003464 68 1 84
0.417107 -0.196131 -0.123694 81 196 104
0.326708 0.097873 -0.185903 73 193 109
0.412128 -0.057849 -0.136031 45 110 142
0.052633 0.196120 -0.311974 68 1 84
0.166427 -0.525268 -0.290089 71 18 101
-0.154271 0.136457 -0.227779 71 21 103
0.403102 0.410678 0.016540 67 58 131
-0.105192 -0.205152 -0.271504 68 1 84
-0.662888 -0.351083 0.213762 68 1 84
0.044335 0.073491 -0.399359 68 1 84
-0.483600 0.376091 0.186981 68 1 84
-0.061841 0.404095 -0.215137 68 1 84
-0.217217 0.136178 -0.202179 68 57 130
0.491714 -0.470501 -0.095560 30 152 138
0.469693 0.007974 -0.094081 49 101 141
0.639528 -0.534469 0.341525 68 1 84
-0.369730 0.386842 -0.027991 68 1 84
-0.157846 0.275580 -0.206814 68 1 84
-0.662587 -0.305912 0.533249 68 1 84
0.609737 0.000780 0.252942 72 33 114
-0.665286 -0.319386 0.533826 68 1 84
0.147494 -0.199817 -0.175271 70 9 92
-0.632937 -0.089319 0.319345 68 1 84
0.282975 0.045772 -0.201413 58 83 139
-0.054095 -0.255569 -0.342274 68 1 84
-0.341241 -0.457772 -0.220015 65 65 134
0.371623 0.322694 -0.099483 39 124 142
0.599564 -0.056543 0.145098 50 99 141
-0.100790 -0.277672 -0.224673 71 43 122
0.390424 0.321711 -0.079616 46 109 142
-0.206616 0.425550 -0.140459 68 1 84
-0.541382 0.271849 0.274729 68 1 84
-0.627002 -0.186350 0.119229 68 1 84
0.075967 0.275421 -0.262763 68 3 87
0.477216 0.157258 -0.053661 56 86 139
0.649492 -0.286457 0.440030 71 40 120
-0.533648 -0.139397 -0.029184 68 1 84
0.110080 0.181912 -0.290039 68 1 84
0.432708 -0.072836 -0.123725 96 201 96
0.247963 -0.305308 -0.177221 154 216 60
-0.301532 0.430188 -0.064976 68 1 84
0.611437 -0.184428 0.105919 40 174 127
-0.600446 0.051799 0.418073 68 1 84
-0.272976 -0.494290 -0.278022 69 5 88
-0.091533 0.262038 -0.256160 68 1 84
-0.190173 0.603617 0.052178 68 1 84
-0.445770 -0.515621 -0.208891 68 1 84
-0.480895 0.362364 0.147952 68 1 84
0.386018 0.201572 -0.128259 94 201 97
-0.214741 0.196131 -0.217324 68 1 84
-0.673224 -0.351336 0.341110 68 1 84
-0.588303 0.089086 0.295712 68 1 84
-0.682064 -0.441786 0.349924 68 1 84
-0.140382 0.013720 -0.320987 68 1 84
-0.156853 0.040252 -0.216652 68 1 84
0.297859 0.556042 0.092320 68 1 84
0.523148 -0.169626 -0.051066 40 123 142
0.560153 0.244773 0.465887 68 1 84
0.129585 0.444860 -0.189021 68 1 84
0.030319 0.393098 -0.219115 70 11 94
0.660614 -0.366878 0.353331 55 88 140
0.525684 0.127515 0.014742 68 1 84
-0.610118 -0.016056 0.301051 68 1 84
0.635318 -0.419101 0.262275 39 124 142
-0.586529 -0.348043 0.038475 68 1 84
-0.086623 0.355986 -0.252057 68 1 84
0.531817 0.250269 0.092591 68 1 84
0.643791 -0.292871 0.220116 30 153 138
0.651553 -0.257589 0.259416 44 114 142
-0.279487 0.567375 0.134573 68 1 84
0.574300 -0.404274 0.073199 69 191 111
-0.456864 0.241793 -0.006484 68 1 84
-0.639105 -0.321395 0.122705 68 1 84
-0.027649 0.035416 -0.481054 68 1 84
0.611352 -0.071621 0.213669 59 81 138
0.610658 0.002923 0.510994 68 1 84
0.622549 -0.098982 0.262096 47 106 141
0.574910 0.052615 0.112286 72 35 116
0.594577 0.101494 0.497010 68 1 84
-0.435618 0.424118 0.128404 68 1 84
-0.594480 0.024900 0.224440 68 1 84
-0.494839 0.077815 -0.030464 68 1 84
-0.373518 0.215400 -0.111310 68 1 84
0.658304 -0.304484 0.355284 72 33 114
-0.318936 -0.346930 -0.159929 44 112 142
-0.570961 0.007356 0.069304 68 1 84
-0.041615 0.580211 -0.172555 68 1 84
-0.602533 -0.418753 0.029550 68 1 84
0.275919 -0.541191 -0.267127 71 37 117
0.554961 -0.477612 0.043365 42 117 142
0.575330 -0.579274 0.126807 61 75 137
0.607767 -0.080513 0.170206 40 123 142
-0.470359 0.252838 0.022692 68 1 84
0.334383 0.192865 -0.173104 50 181 122
-0.250737 0.474484 -0.073274 68 1 84
-0.446538 0.432566 0.186388 68 1 84
0.590574 -0.027665 0.124107 45 111 142
0.421534 0.462091 0.119792 68 1 84
-0.053380 0.129263 -0.298311 68 1 84
-0.408583 0.016214 -0.120495 68 1 84
0.526579 0.129130 0.017334 68 1 84
0.650140 -0.374081 0.300028 47 105 141
-0.212017 0.362580 -0.163850 68 1 84
0.570068 -0.227415 0.024774 40 174 127
-0.331774 0.340798 -0.102543 68 1 84
0.594224 -0.424924 0.124842 35 137 141
0.655645 -0.423839 0.413672 49 102 141
0.606737 0.041762 0.493497 68 1 84
-0.126671 0.055526 -0.359560 68 1 84
-0.094096 -0.161643 -0.317162 68 1 84
0.129550 0.061831 -0.264895 68 1 84
-0.284718 0.564535 0.134112 68 1 84
0.384805 0.495553 0.113237 68 1 84
0.206356 0.609757 -0.012233 68 1 84
0.616528 -0.415179 0.188900 33 167 132
0.570561 0.253414 0.394906 68 1 84
-0.666986 -0.533178 0.208878 68 1 84
0.564329 -0.054796 0.021007 30 155 137
-0.547845 -0.024896 0.006015 68 1 84
0.536543 0.149293 0.048886 68 1 84
-0.459581 0.374955 0.446938 68 1 84
0.491950 0.374395 0.133273 68 1 84
-0.511907 0.318006 0.184963 68 1 84
0.355841 0.528284 0.161353 68 1 84
0.407264 0.398335 0.007565 68 1 84
-0.443006 -0.440659 -0.179581 68 1 84
-0.260357 0.435382 -0.095862 68 1 84
-0.104988 -0.124997 -0.305825 68 1 84
0.091609 -0.504569 -0.297401 67 59 131
-0.522322 -0.028212 -0.029054 68 1 84
-0.188749 0.227264 -0.230078 69 5 88
-0.678543 -0.436506 0.323582 68 1 84
0.533916 0.349048 0.309884 68 1 84
-0.664069 -0.409016 0.222552 68 1 84
-0.591541 0.038294 0.229913 68 1 84
-0.134590 -0.442115 -0.273684 68 1 84
0.219306 0.163989 -0.226069 71 20 102
0.559389 -0.169562 -0.002568 30 152 138
-0.402323 -0.407933 -0.194750 63 69 135
-0.440187 0.381493 0.079860 68 1 84
-0.551904 0.008008 0.029518 68 1 84
0.539393 -0.332499 0.012476 33 166 133
-0.018855 0.063521 -0.476542 68 1 84
-0.399680 -0.214186 -0.112041 56 86 139
0.495251 -0.012741 -0.070914 53 183 120
0.052181 0.587034 -0.170316 68 1 84
-0.578076 0.151443 0.378782 68 1 84
-0.226423 -0.051746 -0.188994 60 77 138
-0.125653 -0.017233 -0.331538 68 1 84
0.218361 -0.152760 -0.166808 36 170 130
0.659960 -0.392879 0.401289 63 71 136
-0.671352 -0.338702 0.306259 68 1 84
0.610715 0.071781 0.429976 68 1 84
0.084262 -0.045169 -0.391820 68 1 84
0.476627 -0.504493 -0.123363 35 136 141
-0.634636 -0.120655 0.413161 68 1 84
-0.146721 0.269627 -0.220381 68 1 84
-0.256235 -0.106485 -0.157526 42 119 142
-0.496720 -0.181491 -0.055674 68 1 84
0.350470 0.314664 -0.122756 31 162 134
0.036968 -0.374813 -0.244154 70 47 124
0.099769 -0.053463 -0.313783 68 1 84
0.611180 -0.207592 0.104890 32 144 140
0.108409 -0.166927 -0.242891 68 1 84
0.553885 0.244753 0.494825 68 1 84
0.358582 0.105626 -0.169261 98 202 95
-0.450200 0.313784 0.035272 68 1 84
-0.150025 0.047658 -0.294425 68 1 84
0.574718 0.256158 0.337609 68 1 84
0.620265 -0.058067 0.526905 68 1 84
-0.639121 -0.187761 0.473596 68 1 84
-0.097803 -0.021256 -0.423935 68 1 84
-0.605344 -0.013838 0.219728 68 1 84
0.535111 -0.470135 -0.006802 39 125 142
-0.299804 0.313448 -0.143870 68 1 84
0.653504 -0.467364 0.468869 72 32 113
0.064277 -0.377858 -0.206507 68 1 84
0.573167 -0.251229 0.035324 40 174 127
0.558921 0.283303 0.223154 68 1 84
0.298714 0.310050 -0.155620 61 74 137
0.169907 -0.065105 -0.218531 38 128 142
-0.397603 -0.246248 -0.120856 46 109 142
0.186042 -0.356809 -0.166795 54 90 140
0.203759 -0.145794 -0.174620 51 96 141
0.575625 -0.136045 0.025686 53 92 140
0.560547 0.013842 0.036348 49 102 141
0.276631 0.210355 -0.207397 46 108 142
0.638761 -0.187866 0.504214 68 1 84
0.547771 -0.046977 -0.006369 37 131 141
-0.618325 -0.446483 0.057275 68 1 84
-0.307281 0.073081 -0.174956 71 15 98
0.659395 -0.442464 0.468689 68 1 84
-0.643679 -0.127146 0.288976 68 1 84
-0.438832 0.365158 0.060944 68 1 84
-0.564113 0.152783 0.507382 68 1 84
-0.690232 -0.458446 0.409313 68 1 84
-0.259106 0.295343 -0.173998 68 1 84
-0.081194 0.074669 -0.398811 68 1 84
-0.381294 0.380643 -0.017821 68 1 84
0.010459 0.053017 -0.477113 68 1 84
0.607197 0.089687 0.426590 68 1 84
0.532233 0.342677 0.362551 68 1 84
0.024827 0.561614 -0.189004 68 1 84
0.317889 0.545050 0.106382 68 1 84
0.462577 -0.558162 -0.132058 58 83 139
-0.277659 0.175025 -0.183405 42 117 142
0.000743 0.123834 -0.319283 68 1 84
-0.481766 -0.496954 -0.181756 68 1 84
0.665612 -0.407136 0.445076 68 1 84
0.025760 0.382244 -0.233523 70 48 125
-0.456694 -0.386437 -0.150201 71 38 118
-0.248736 -0.426867 -0.211332 39 125 142
-0.296529 0.559687 0.137921 68 1 84
-0.116591 -0.443040 -0.280877 68 1 84
-0.110450 0.025282 -0.424118 68 1 84
0.154262 -0.306506 -0.152816 49 102 141
0.327217 0.300327 -0.146885 62 72 136
0.100330 -0.000674 -0.393980 68 1 84
-0.533142 0.162513 0.090965 68 1 84
-0.633842 -0.252652 0.122584 68 1 84
0.140780 0.234233 -0.269195 68 1 84
-0.543623 0.267224 0.316596 68 1 84
0.276250 0.513059 -0.063574 68 1 84
0.650345 -0.282259 0.249356 38 129 142
0.469434 -0.135450 -0.100372 77 194 107
0.631883 -0.109795 0.451958 68 1 84
-0.074087 -0.067827 -0.416915 68 1 84
0.390807 0.482521 0.096274 68 1 84
-0.214490 0.552658 -0.056402 68 1 84
-0.509782 0.320832 0.179314 68 1 84
0.128789 0.049653 -0.315383 68 1 84
0.590401 -0.250664 0.065544 56 185 118
-0.418655 -0.414287 -0.183241 70 11 94
0.311007 -0.245084 -0.158990 210 225 27
-0.653352 -0.178906 0.308122 68 1 84
0.115559 0.142449 -0.268823 68 1 84
-0.514889 -0.123062 -0.050056 68 1 84
-0.651683 -0.211998 0.409902 68 1 84
0.102979 -0.057715 -0.300010 68 1 84
0.418169 -0.422824 -0.144875 38 128 142
-0.384885 0.306931 -0.061749 68 1 84
0.326293 -0.279204 -0.164045 79 195 105
0.456517 -0.200404 -0.103759 47 179 123
0.510649 0.328879 0.116925 68 1 84
0.166590 -0.104295 -0.211587 31 147 139
-0.602687 -0.467240 0.010490 68 1 84
-0.317886 -0.192559 -0.138662 38 128 142
0.332211 0.196348 -0.174290 54 184 119
-0.562873 0.208369 0.304458 68 1 84
0.518656 0.200093 0.035635 71 38 118
0.091741 0.297355 -0.263176 68 1 84
-0.446466 -0.066801 -0.099087 72 30 112
0.023678 0.632311 -0.098391 68 1 84
0.456425 0.066729 -0.101730 46 109 142
0.061255 0.241975 -0.300620 68 1 84
-0.397822 0.101469 -0.124315 68 1 84
-0.201244 -0.166180 -0.158106 39 124 142
0.594140 0.015686 0.187281 48 103 141
0.223457 0.478208 -0.128969 71 39 119
-0.648250 -0.157268 0.258716 68 1 84
0.626635 -0.095415 0.332319 70 9 92
0.557663 -0.257474 0.014043 33 166 133
0.605483 0.124816 0.363115 68 1 84
0.405020 0.385084 -0.010552 68 1 84
0.214335 0.605357 -0.007546 68 1 84
-0.132094 0.258829 -0.242675 68 1 84
-0.642772 -0.204460 0.171579 68 1 84
-0.651488 -0.179859 0.354199 68 1 84
-0.415296 0.475946 0.258306 68 1 84
0.340024 0.392301 -0.083869 70 14 97
0.582298 -0.024996 0.082138 33 167 132
-0.392107 0.245414 -0.082292 68 1 84
0.642805 -0.201710 0.258439 54 91 140
-0.260929 -0.027666 -0.180423 56 87 140
-0.154541 0.041530 -0.222645 68 1 84
0.496424 -0.244103 -0.060884 136 213 71
0.584655 0.208493 0.400178 68 1 84
0.560888 -0.305851 0.032207 44 177 125
0.188574 0.041773 -0.210516 66 62 133
0.232804 0.147581 -0.218231 66 62 133
0.167318 0.415242 -0.184867 68 1 84
-0.213678 0.585282 0.026994 68 1 84
-0.658457 -0.263041 0.427433 68 1 84
-0.070966 -0.220262 -0.347447 68 1 84
0.626388 -0.088662 0.342168 69 54 129
0.558825 0.235380 0.157707 68 1 84
0.634758 -0.116901 0.440651 68 1 84
0.618434 -0.235823 0.124811 34 139 141
0.002729 0.322057 -0.277415 68 1 84
0.547082 0.018492 0.009820 60 77 138
0.281879 0.372321 -0.136981 71 20 102
-0.431376 -0.527529 -0.220279 68 1 84
0.045661 0.524079 -0.204005 68 1 84
0.487027 -0.519614 -0.103581 30 154 137
0.609727 -0.547783 0.273866 53 92 140
-0.103833 0.338313 -0.245869 68 1 84
-0.577627 0.150698 0.411076 68 1 84
0.114133 0.012092 -0.372587 68 1 84
-0.057157 -0.161142 -0.383155 68 1 84
-0.394790 -0.540223 -0.237298 68 1 84
-0.211945 -0.413241 -0.205063 68 57 130
0.421300 0.470208 0.140233 68 1 84
0.440287 0.329749 -0.008898 68 3 87
-0.649436 -0.181836 0.383330 68 1 84
0.272640 -0.400983 -0.211504 38 127 142
-0.642036 -0.170819 0.206049 68 1 84
-0.139483 0.453403 -0.163991 68 1 84
0.042998 0.158223 -0.304958 68 1 84
-0.202644 -0.140676 -0.169769 65 65 134
-0.608770 -0.153584 0.085242 68 1 84
-0.558221 0.160136 0.518733 68 1 84
0.492584 -0.126343 -0.081969 36 170 130
-0.644493 -0.139322 0.340707 68 1 84
-0.445316 0.437863 0.296299 68 1 84
-0.439071 -0.282115 -0.083495 68 1 84
-0.105453 -0.242097 -0.240377 72 29 111
-0.251371 0.458577 -0.085571 68 1 84
-0.013627 -0.168250 -0.392216 68 1 84
0.578861 0.180993 0.477088 68 1 84
0.408829 -0.288369 -0.105413 30 159 136
-0.221750 -0.201099 -0.145947 36 134 141
-0.497456 0.197390 0.030841 68 1 84
-0.353652 -0.327169 -0.145961 69 54 129
0.278912 0.242620 -0.200895 72 32 113
-0.304552 -0.280223 -0.154349 30 158 136
-0.663048 -0.254935 0.348093 68 1 84
0.180094 -0.080392 -0.210460 31 146 140
-0.557495 -0.001649 0.035100 68 1 84
-0.630646 -0.128222 0.459443 68 1 84
-0.674355 -0.521918 0.253205 68 1 84
0.409455 -0.057633 -0.137399 40 122 142
-0.150803 0.307688 -0.199866 68 1 84
-0.406843 0.467642 0.145819 68 1 84
-0.516868 0.097508 0.009661 68 1 84
-0.144716 0.489867 -0.151439 68 1 84
-0.698673 -0.530731 0.479769 68 1 84
0.257491 -0.537386 -0.270446 70 14 97
-0.465539 0.050358 -0.071646 68 1 84
0.598965 0.164408 0.311731 68 1 84
-0.038746 0.642919 -0.064861 68 1 84
0.156466 0.576067 -0.144516 68 1 84
0.621234 -0.012762 0.450909 68 1 84
-0.086222 -0.470560 -0.302085 68 1 84
0.384281 -0.419541 -0.177734 46 108 142
-0.104172 -0.184583 -0.285581 68 1 84
0.070399 -0.506211 -0.300831 71 40 120
-0.077888 0.641384 -0.062579 68 1 84
-0.405734 -0.371439 -0.214346 68 55 129
0.585893 -0.047977 0.079795 54 91 140
-0.277752 -0.137442 -0.141449 30 153 138
0.150224 0.204980 -0.268360 68 1 84
-0.616790 -0.085561 0.507075 68 1 84
-0.098317 0.584937 -0.147742 68 1 84
-0.280155 0.402172 -0.104736 68 1 84
0.646720 -0.257971 0.233515 35 136 141
0.362198 -0.132838 -0.146896 43 177 125
-0.043350 0.066948 -0.471896 68 1 84
-0.650453 -0.175204 0.250423 68 1 84
0.208205 0.605989 -0.033918 68 1 84
0.577516 0.058095 0.127090 71 39 119
0.210318 -0.488849 -0.247006 53 92 140
-0.123246 -0.392329 -0.233007 68 1 84
0.341478 -0.195752 -0.146274 114 207 85
0.656443 -0.264076 0.382975 72 35 116
-0.394879 -0.199247 -0.113026 57 85 139
0.393757 -0.207014 -0.130235 154 216 60
-0.604088 -0.383541 0.051627 68 1 84
0.423927 -0.387117 -0.110897 65 65 134
-0.211951 -0.474215 -0.277857 54 91 140
-0.571772 0.151783 0.258598 68 1 84
-0.063590 0.064989 -0.341372 68 1 84
0.331111 -0.074451 -0.164874 61 74 137
-0.602264 -0.028988 0.527931 68 1 84
-0.305574 -0.244754 -0.155405 64 189 114
0.443761 0.388798 0.054553 68 1 84
0.025556 -0.017486 -0.464423 68 1 84
0.657643 -0.257403 0.302315 67 59 131
-0.670277 -0.470620 0.242666 68 1 84
-0.211893 0.259576 -0.210153 68 1 84
-0.075384 -0.227080 -0.336964 68 1 84
-0.581058 -0.359389 0.022516 68 1 84
-0.520664 -0.229725 -0.019867 68 1 84
0.488339 0.404336 0.371183 68 1 84
0.583738 0.033224 0.146270 64 68 135
-0.334361 0.122755 -0.159328 68 1 84
0.409514 -0.123508 -0.133037 35 169 130
-0.137049 -0.286673 -0.155698 59 81 138
-0.414167 -0.402917 -0.189432 71 37 117
0.583933 -0.068697 0.061899 30 151 138
-0.436069 0.448948 0.294790 68 1 84
0.032739 0.080708 -0.387890 68 1 84
-0.240631 -0.046828 -0.183219 70 47 124
-0.175439 0.422214 -0.159957 68 1 84
-0.138516 0.189762 -0.256712 68 1 84
0.164571 0.425601 -0.181663 68 1 84
0.541061 -0.223637 -0.017969 36 170 130
0.652102 -0.242896 0.396942 70 12 95
0.637248 -0.482001 0.380020 54 91 140
0.581296 -0.108226 0.042634 30 151 138
0.061385 -0.469971 -0.287266 68 1 84
0.018697 0.547763 -0.196712 68 1 84
0.509013 -0.057617 -0.061471 83 197 103
0.606971 -0.023634 0.228678 72 33 114
-0.531993 -0.530358 -0.122928 68 1 84
-0.555785 0.188785 0.207758 68 1 84
-0.670468 -0.324986 0.304430 68 1 84
-0.288079 0.534023 0.051935 68 1 84
-0.547316 0.137045 0.115345 68 1 84
-0.468266 0.411466 0.258312 68 1 84
-0.620248 -0.419271 0.073423 68 1 84
-0.670159 -0.313454 0.338555 68 1 84
0.429040 0.180286 -0.098352 49 101 141
0.630915 -0.131745 0.290094 63 71 136
