ply
format ascii 1.0
element vertex 1256
property float x
property float y
property float z
property uchar red
property uchar green
property uchar blue
end_header
-0.343254 0.424138 -0.042164 68 1 84
-0.573371 -0.455631 -0.014831 70 49 126
-0.240120 -0.049142 -0.190416 68 1 84
-0.574303 0.165616 0.494181 233 228 25
-0.177414 0.091735 -0.227278 68 1 84
0.255602 0.173997 -0.187139 68 1 84
0.376968 -0.213076 -0.126448 68 1 84
0.448968 0.185868 -0.030231 58 83 139
0.099374 -0.187096 -0.277007 68 1 84
-0.191182 0.353429 -0.185860 68 1 84
0.043727 0.367527 -0.213354 68 1 84
-0.655371 -0.447896 0.161635 50 98 141
-0.355283 -0.344048 -0.209734 71 22 105
-0.503924 -0.450528 -0.122503 71 39 119
0.518931 0.129997 0.060275 31 149 139
0.308684 0.530444 0.115567 68 1 84
-0.341114 0.509539 0.087119 68 1 84
-0.226697 0.061470 -0.202663 68 1 84
-0.395994 -0.433282 -0.238913 72 26 108
-0.302415 0.529693 0.036085 68 1 84
-0.675276 -0.387615 0.348192 36 132 141
0.527479 0.280786 0.260553 35 168 131
-0.372455 -0.125270 -0.134634 68 1 84
0.623337 -0.498407 0.099525 68 1 84
-0.316238 0.065998 -0.169755 70 12 95
-0.311928 0.375034 -0.102535 68 1 84
-0.583699 0.155214 0.251956 103 204 92
0.490048 0.272790 0.095925 50 98 141
0.637509 -0.375635 0.162261 71 24 106
-0.692953 -0.459600 0.404006 40 123 142
0.670004 -0.404113 0.346007 61 75 137
0.274424 0.512253 -0.055414 68 1 84
0.518495 -0.360277 -0.040407 71 21 103
0.585066 -0.443575 0.026675 68 1 84
0.550094 0.067226 0.099780 30 154 137
-0.679319 -0.567549 0.237441 49 102 141
0.091321 -0.195182 -0.288697 68 1 84
0.328187 0.185937 -0.143598 72 34 115
0.664010 -0.375363 0.406032 54 90 140
0.206459 0.231952 -0.204531 68 1 84
0.542700 0.149078 0.130953 32 164 133
-0.181805 0.577191 -0.071687 68 1 84
0.232585 0.014405 -0.195517 68 1 84
0.079839 0.374305 -0.212037 68 1 84
0.558390 0.189882 0.386871 66 190 113
0.152556 0.290947 -0.216328 68 1 84
0.279871 0.544266 0.038069 68 1 84
0.118065 -0.062292 -0.291178 68 1 84
-0.279730 0.271784 -0.153348 68 1 84
0.087976 -0.364852 -0.322890 72 35 116
-0.639928 -0.342152 0.132999 44 114 142
0.434086 -0.058965 -0.089121 38 129 142
0.379695 -0.453479 -0.262097 68 1 84
0.545401 -0.187867 0.030159 46 107 142
-0.663674 -0.313863 0.310481 30 153 138
-0.034960 0.328500 -0.232864 68 1 84
0.325480 -0.206964 -0.166260 67 59 131
0.447344 0.188033 -0.031558 61 75 137
0.621121 -0.077525 0.460022 32 164 133
0.484012 0.316780 0.438270 45 110 142
-0.625007 -0.316016 0.103243 55 88 140
0.625536 -0.150805 0.226060 40 123 142
0.582832 0.051946 0.196074 47 179 123
-0.017774 -0.099484 -0.441487 60 78 138
0.630348 -0.309890 0.164995 66 62 133
0.516018 -0.344187 -0.032837 71 43 122
-0.055051 0.586312 -0.218751 68 1 84
0.106348 0.564782 -0.202520 68 1 84
0.597884 0.067091 0.352011 38 172 129
0.343179 0.360471 -0.080549 68 1 84
-0.264869 0.144474 -0.192959 68 1 84
0.483768 0.266909 0.076598 48 103 141
0.274934 0.042610 -0.183547 68 1 84
0.472449 -0.073826 -0.053358 39 124 142
0.082208 0.544407 -0.231826 68 1 84
-0.653465 -0.188382 0.342300 77 194 107
0.336662 -0.157728 -0.148517 71 42 121
-0.011603 0.387665 -0.216209 68 1 84
-0.540071 -0.048314 0.010578 31 150 139
-0.117997 -0.339166 -0.243819 68 1 84
0.050152 0.255914 -0.258918 68 1 84
-0.187889 -0.393986 -0.302238 68 1 84
-0.619557 -0.152548 0.152115 31 163 134
0.173000 0.542132 -0.159422 68 1 84
-0.466427 0.307335 0.064649 35 135 141
-0.147994 0.436374 -0.205218 68 1 84
0.155617 0.321101 -0.212700 68 1 84
-0.649558 -0.211096 0.504474 34 167 132
0.487124 -0.417621 -0.136365 68 2 85
-0.647348 -0.363358 0.150985 44 114 142
-0.649594 -0.198924 0.461465 57 185 118
0.094872 -0.349260 -0.293718 68 1 84
-0.015759 0.024516 -0.483734 59 80 138
0.562261 0.182085 0.248848 30 158 136
-0.224017 -0.243355 -0.202389 68 1 84
-0.536696 0.271236 0.436823 83 197 103
0.495704 0.203174 0.055233 43 116 142
0.190528 0.283188 -0.188169 68 1 84
0.257643 0.530252 -0.056437 68 1 84
0.540792 -0.006998 0.051205 33 141 140
0.435425 0.143041 -0.060706 57 84 139
0.009794 -0.344627 -0.345796 71 21 103
0.051685 0.043809 -0.408892 68 1 84
0.408707 0.428895 0.100464 68 1 84
-0.162814 -0.028050 -0.229232 68 1 84
-0.655563 -0.254802 0.266072 32 164 133
-0.603296 -0.006418 0.184807 47 179 123
0.104008 -0.209934 -0.252474 68 1 84
-0.297746 0.274933 -0.145122 68 1 84
-0.659494 -0.348040 0.439392 32 143 140
0.003973 -0.066548 -0.458776 44 113 142
0.606320 -0.184276 0.146510 46 108 142
-0.280842 0.533875 -0.004318 68 1 84
0.219375 0.456705 -0.144188 68 1 84
-0.612793 -0.214681 0.113930 34 137 141
-0.481661 0.301810 0.089012 40 122 142
0.556332 -0.065594 0.064504 36 133 141
0.254432 -0.369699 -0.268898 68 1 84
-0.656951 -0.336604 0.197845 40 123 142
-0.651016 -0.249477 0.431432 34 167 132
0.698101 -0.540015 0.408053 66 61 132
-0.040409 0.488080 -0.256284 68 1 84
-0.139619 0.431304 -0.208140 68 1 84
-0.591830 -0.059855 0.113457 56 185 118
-0.071331 0.241477 -0.275286 68 1 84
0.573706 0.141685 0.394937 98 202 95
0.493464 0.342911 0.262402 30 153 138
-0.682002 -0.405918 0.349020 39 125 142
0.115128 -0.163300 -0.261696 68 1 84
-0.676763 -0.526362 0.220735 49 100 141
-0.617783 0.014368 0.388190 175 220 46
0.621620 -0.065477 0.450781 51 182 121
-0.353695 0.495468 0.079578 68 1 84
0.618328 -0.070215 0.251192 30 155 137
-0.220378 0.239326 -0.186680 68 1 84
0.190320 -0.385906 -0.293116 68 1 84
-0.655114 -0.322605 0.407980 30 157 136
-0.604047 -0.505036 0.036215 67 58 131
0.015392 0.491808 -0.255027 68 1 84
-0.599162 -0.222214 0.082530 38 127 142
-0.145326 -0.034253 -0.271999 68 1 84
-0.599364 0.097056 0.279807 178 221 44
-0.214609 0.348808 -0.174658 68 1 84
-0.497898 0.341117 0.434697 91 200 98
0.249937 0.014020 -0.190480 68 1 84
-0.440783 0.182373 -0.046028 31 146 140
0.458299 -0.042176 -0.065833 42 119 142
-0.640684 -0.255729 0.179902 30 151 138
-0.356399 0.485894 0.061149 68 1 84
0.529642 0.269787 0.236058 30 153 138
0.495314 -0.200583 -0.023161 62 73 137
-0.308172 0.242203 -0.148219 68 1 84
0.482616 0.315282 0.126715 51 97 141
-0.133654 0.330943 -0.221305 68 1 84
0.641388 -0.187998 0.411247 30 154 137
-0.636131 -0.550104 0.111382 55 89 140
0.065648 -0.219629 -0.332036 64 68 135
0.447116 0.398162 0.181633 64 68 135
-0.269430 -0.484713 -0.337403 71 20 102
-0.657076 -0.249352 0.345142 66 190 113
0.609148 0.025961 0.361362 69 191 111
0.507599 0.292486 0.401081 30 153 138
-0.498697 -0.294495 -0.038713 72 30 112
-0.302220 0.229204 -0.155196 68 1 84
0.103995 0.439930 -0.208299 68 1 84
-0.552594 0.197520 0.166321 165 218 53
-0.337864 0.382862 -0.073932 68 1 84
-0.212802 -0.032490 -0.203012 68 1 84
-0.554266 -0.494022 -0.051642 70 47 124
-0.360983 0.248036 -0.106716 72 28 110
0.034997 0.604619 -0.184831 68 1 84
-0.045141 0.271052 -0.259581 68 1 84
-0.060486 0.543376 -0.249266 68 1 84
-0.309070 -0.335186 -0.222925 68 1 84
0.517469 0.174348 0.082989 35 136 141
0.485730 -0.203235 -0.030846 56 87 140
-0.065014 -0.190554 -0.338128 68 1 84
0.445491 0.403913 0.204303 60 78 138
-0.458605 0.412717 0.346829 36 132 141
0.035039 -0.439129 -0.371492 52 95 141
-0.080459 0.004427 -0.440077 70 12 95
-0.046451 0.600254 -0.199094 68 1 84
0.185430 0.567447 -0.111101 68 1 84
0.392230 -0.418087 -0.240506 68 1 84
-0.027666 0.234124 -0.298591 68 1 84
-0.123121 0.539765 -0.219888 68 1 84
0.495950 0.319438 0.377858 30 153 138
-0.626294 -0.450774 0.085548 57 84 139
-0.320348 -0.069139 -0.155916 68 1 84
0.555934 -0.508376 -0.038377 68 1 84
0.181358 0.325974 -0.198028 68 1 84
0.019006 -0.441352 -0.371855 56 87 140
0.559845 0.184561 0.390245 35 168 131
0.448553 0.386095 0.144094 62 72 136
0.035055 -0.114058 -0.418095 61 74 137
-0.567222 -0.217026 0.030496 62 72 136
0.212112 -0.360270 -0.263871 68 1 84
-0.403447 0.465914 0.163813 71 37 117
0.148571 -0.055037 -0.238645 68 1 84
0.416187 0.327320 -0.001414 70 48 125
-0.162261 0.320298 -0.211551 68 1 84
-0.639377 -0.156200 0.225213 34 167 132
0.382593 -0.310501 -0.152547 68 1 84
0.473675 0.320574 0.108486 59 81 138
0.555985 -0.171578 0.047207 48 103 141
-0.127387 -0.137043 -0.255728 68 1 84
0.218818 -0.130217 -0.182481 68 1 84
0.443454 -0.343267 -0.122703 68 1 84
0.073041 0.589583 -0.193361 68 1 84
0.694723 -0.530777 0.418993 67 58 131
-0.678182 -0.411777 0.291713 39 124 142
-0.680486 -0.459261 0.296600 39 124 142
0.417269 0.428946 0.310401 61 75 137
0.644273 -0.302126 0.436913 48 103 141
0.436742 -0.301483 -0.083017 68 1 84
0.110556 -0.167396 -0.267442 68 1 84
-0.291050 -0.158790 -0.168992 68 1 84
-0.648909 -0.208282 0.428763 85 198 102
-0.286961 0.166792 -0.178429 68 1 84
-0.183680 -0.212417 -0.193532 68 1 84
-0.425700 0.451735 0.304413 42 118 142
-0.352828 0.422032 -0.030892 68 1 84
0.587881 0.103465 0.333045 83 197 103
0.344378 -0.499878 -0.292729 68 1 84
0.227431 -0.270427 -0.195325 68 1 84
-0.496374 -0.521465 -0.139426 69 50 127
0.275225 0.520658 -0.041132 68 1 84
-0.182303 -0.376968 -0.276003 68 1 84
-0.298813 0.132665 -0.173591 70 9 92
-0.414483 0.416437 0.072417 71 42 121
0.552678 -0.156307 0.044178 53 93 140
0.345898 -0.198104 -0.147658 71 43 122
0.586909 0.010260 0.529108 53 183 120
-0.069885 -0.132616 -0.366044 72 33 114
-0.153001 0.576549 -0.142735 68 1 84
-0.622354 -0.008591 0.319737 194 223 34
0.179443 0.568017 -0.120342 68 1 84
0.295870 0.233019 -0.154101 72 28 110
0.557940 0.206620 0.318008 75 194 108
-0.654521 -0.283578 0.378649 33 167 132
-0.296497 -0.191223 -0.174673 68 1 84
0.261888 0.019743 -0.187052 67 59 131
-0.492314 0.369775 0.304047 51 182 121
0.500647 0.314951 0.369551 31 163 134
-0.496789 0.310438 0.131454 73 193 109
0.582271 -0.180727 0.090335 47 105 141
0.669631 -0.388471 0.395124 51 96 141
-0.202126 0.286629 -0.189694 68 1 84
0.662986 -0.544245 0.215787 71 21 103
0.588132 0.079859 0.254902 33 166 133
0.330196 -0.107628 -0.148784 53 92 140
0.601722 -0.451499 0.057151 68 1 84
-0.174344 0.309183 -0.207807 68 1 84
-0.090460 -0.308107 -0.240804 68 1 84
-0.155786 -0.451778 -0.365420 53 92 140
0.243030 -0.383193 -0.276879 68 1 84
-0.257799 0.538742 -0.041013 68 1 84
0.639934 -0.183960 0.278593 47 106 141
0.571302 -0.377964 0.023675 72 32 113
0.370728 0.052475 -0.134562 47 106 141
-0.533500 0.264420 0.484681 64 189 114
-0.138719 0.460921 -0.217100 68 1 84
-0.430180 -0.369777 -0.161503 72 26 108
-0.061074 0.042141 -0.345284 68 1 84
0.614755 -0.425789 0.089534 72 26 108
-0.241343 0.026253 -0.197704 68 1 84
-0.474499 0.059217 -0.046480 36 132 141
0.418686 0.415713 0.104283 68 1 84
0.616165 -0.203696 0.168321 59 81 138
0.435712 0.058723 -0.077804 52 95 141
-0.045070 0.102743 -0.333646 68 1 84
0.608941 -0.097090 0.526764 39 126 142
-0.609266 -0.361886 0.061526 64 68 135
0.598542 -0.207135 0.117805 45 110 142
-0.671034 -0.370728 0.298697 39 124 142
0.140909 0.032804 -0.297500 71 20 102
0.357830 -0.229032 -0.147380 68 2 85
0.451587 0.200136 -0.020564 60 78 138
0.115549 0.170786 -0.266912 68 1 84
-0.037143 0.575177 -0.233123 68 1 84
0.564652 0.042212 0.126298 32 164 133
-0.578957 -0.390001 0.010993 62 72 136
0.305173 0.350228 -0.118068 68 1 84
0.532712 0.024259 0.045121 33 166 133
-0.282112 -0.018583 -0.179190 68 1 84
0.602786 0.040871 0.411612 73 193 109
-0.630900 -0.114169 0.538170 41 175 127
-0.250131 -0.433256 -0.322925 69 8 91
-0.630801 -0.080214 0.440575 136 213 71
0.053369 -0.127348 -0.392439 64 68 135
0.523201 0.213150 0.516616 46 107 142
-0.264682 0.015321 -0.189586 68 1 84
0.321219 -0.480173 -0.305883 68 1 84
0.395955 -0.304991 -0.132017 68 1 84
0.383713 0.184711 -0.102650 36 132 141
-0.003373 -0.443247 -0.372415 59 81 138
-0.425389 0.103534 -0.087792 40 122 142
-0.568446 0.113572 0.148558 91 200 98
-0.232097 -0.239394 -0.202792 68 1 84
0.619625 -0.068579 0.459961 43 177 125
-0.239447 -0.107226 -0.180949 68 1 84
0.595817 -0.182628 0.119824 42 117 142
-0.230892 0.468977 -0.143053 68 1 84
0.352229 0.492968 0.095303 68 1 84
-0.356564 0.496371 0.091707 68 1 84
0.227978 -0.118846 -0.179884 68 1 84
0.637442 -0.255669 0.520424 59 80 138
0.261288 -0.105869 -0.170233 68 1 84
0.524438 0.225580 0.494257 35 136 141
0.439577 0.043506 -0.075743 51 97 141
-0.617030 -0.041750 0.546505 61 187 116
0.106954 -0.065542 -0.322425 68 1 84
-0.426558 0.430954 0.134601 51 96 141
0.393731 -0.423616 -0.241774 68 1 84
-0.355520 -0.116600 -0.141472 68 1 84
0.604479 0.004593 0.254127 30 157 136
-0.274983 0.387159 -0.128493 68 1 84
-0.549905 -0.114380 0.013604 33 142 140
0.068689 -0.306837 -0.296474 68 1 84
-0.358830 0.489688 0.077918 68 1 84
0.056383 0.079443 -0.312417 68 1 84
0.024211 0.081586 -0.356531 68 1 84
-0.643091 -0.371312 0.135630 36 134 141
-0.511384 0.336674 0.333706 121 209 81
0.526883 0.022655 0.034532 42 176 126
0.419081 -0.001329 -0.099057 46 108 142
-0.466047 0.120001 -0.038375 34 139 141
-0.699988 -0.477062 0.374704 46 108 142
-0.573008 0.206911 0.301688 134 212 73
-0.401188 -0.113302 -0.121512 71 39 119
-0.104253 0.345902 -0.221955 68 1 84
0.451790 -0.427195 -0.191520 70 9 92
-0.483405 -0.360180 -0.086489 70 14 97
0.333939 -0.211700 -0.162008 72 32 113
-0.607900 -0.462434 0.045861 66 61 132
0.381588 0.417624 0.017044 68 1 84
-0.537777 -0.019267 0.015509 33 142 140
-0.233542 -0.050433 -0.192472 68 1 84
-0.195950 0.484148 -0.172612 68 1 84
-0.505130 0.346521 0.231977 79 195 105
0.212804 -0.357198 -0.262819 68 1 84
-0.191605 0.093633 -0.220938 68 1 84
0.100508 -0.070922 -0.335431 72 30 112
0.457878 0.112889 -0.041530 47 105 141
0.501298 0.278237 0.468121 40 123 142
0.574316 -0.062128 0.103698 35 135 141
0.684461 -0.490400 0.366568 71 20 102
-0.209581 0.069965 -0.208548 68 1 84
-0.615231 -0.236041 0.111788 44 113 142
-0.498057 0.358862 0.234544 37 171 129
0.038211 0.057698 -0.349776 68 1 84
0.118247 -0.236744 -0.216593 68 1 84
0.649025 -0.537638 0.172346 68 1 84
-0.388407 -0.354766 -0.192769 72 34 115
-0.056942 -0.357946 -0.333860 68 1 84
0.421120 -0.288302 -0.091430 68 1 84
-0.146427 0.079582 -0.239169 68 1 84
0.346381 0.092164 -0.146785 57 84 139
0.080564 -0.135530 -0.341301 66 62 133
0.675140 -0.481974 0.276836 72 32 113
0.584644 -0.505935 0.014028 68 1 84
-0.205983 0.061169 -0.208382 68 1 84
-0.445636 -0.043916 -0.091830 43 116 142
0.664508 -0.366210 0.375985 47 105 141
-0.405604 0.185927 -0.083888 50 99 141
-0.602149 0.077755 0.265602 139 213 70
-0.669306 -0.524377 0.200260 48 104 141
-0.663295 -0.375840 0.412760 35 136 141
0.622446 -0.108183 0.239266 31 146 140
-0.637652 -0.088931 0.306404 139 213 70
0.188478 -0.297898 -0.199486 68 1 84
-0.521980 -0.150432 -0.025148 53 92 140
0.279268 0.189555 -0.172104 70 12 95
-0.357924 0.479069 0.049211 68 1 84
0.570304 0.132038 0.215624 46 178 124
0.502077 0.269329 0.486882 45 110 142
-0.055617 0.037430 -0.447663 72 25 107
-0.640357 -0.152011 0.453533 83 197 103
0.552536 0.071137 0.108107 36 170 130
-0.075419 0.031125 -0.413944 68 1 84
-0.621772 -0.051437 0.479641 165 218 53
0.030542 -0.140211 -0.408904 63 69 135
-0.621227 -0.008101 0.406737 207 225 28
0.442974 0.405194 0.296975 52 95 141
-0.489698 0.000397 -0.043203 34 138 141
0.260786 -0.399682 -0.288544 69 5 88
0.623801 -0.197358 0.197342 53 93 140
-0.656112 -0.245689 0.354698 47 179 123
-0.189073 -0.197547 -0.190486 68 1 84
-0.108018 -0.065183 -0.348214 68 1 84
-0.314517 0.534846 0.124770 68 1 84
-0.512139 -0.349838 -0.050517 72 26 108
-0.445605 0.294709 0.020415 37 130 142
-0.246062 0.374831 -0.150545 68 1 84
0.275038 0.550560 0.069113 68 1 84
0.558631 -0.440382 -0.021494 68 1 84
0.491689 0.195507 0.043233 47 106 141
-0.531535 -0.088024 -0.008565 32 143 140
0.024398 -0.229839 -0.369380 59 80 138
0.577386 -0.434208 0.015026 69 6 90
-0.635932 -0.117842 0.237626 48 180 122
0.074685 0.534956 -0.238839 68 1 84
0.290919 -0.013820 -0.171595 71 44 123
-0.173714 -0.243184 -0.196554 68 1 84
-0.060904 -0.354671 -0.330127 68 1 84
0.320949 0.443998 -0.052932 68 1 84
0.584057 -0.103455 0.114777 38 129 142
0.093501 -0.264622 -0.239758 68 1 84
-0.393278 -0.383584 -0.210164 72 34 115
-0.223727 0.569299 -0.003729 68 1 84
0.696351 -0.568303 0.385574 68 1 84
-0.160405 -0.123469 -0.219474 68 1 84
0.463081 0.230938 0.013317 61 76 137
0.427790 0.108047 -0.077946 51 97 141
-0.639728 -0.168033 0.528032 62 188 115
0.436593 -0.102323 -0.088196 38 129 142
0.415894 0.050748 -0.098417 49 100 141
0.495469 -0.295593 -0.026169 70 11 94
-0.588694 0.101442 0.508514 170 219 50
-0.432258 0.051420 -0.091646 46 107 142
-0.398400 0.476673 0.255470 49 100 141
0.599404 0.040401 0.274257 32 164 133
0.468806 0.243551 0.031087 60 78 138
-0.530690 0.302165 0.344948 121 209 81
0.624717 -0.048635 0.411215 48 180 122
-0.657503 -0.299893 0.362193 30 157 136
-0.497589 0.364056 0.268841 40 174 127
0.698234 -0.538888 0.396203 72 32 113
-0.522816 0.207213 0.100006 33 167 132
0.139607 0.074957 -0.226177 68 1 84
0.196212 0.562941 -0.102708 68 1 84
-0.072514 0.594884 -0.196092 68 1 84
-0.584166 0.131227 0.493155 149 215 63
-0.613625 0.030830 0.402202 225 227 24
-0.387609 0.039594 -0.128710 65 66 134
-0.459914 0.416669 0.307461 33 142 140
-0.653199 -0.243331 0.450710 34 167 132
-0.171965 -0.428189 -0.353350 67 58 131
0.562522 -0.395581 0.003334 70 11 94
-0.632415 -0.550498 0.100612 59 81 138
-0.404680 0.470542 0.277271 57 84 139
0.579721 0.133955 0.320693 35 168 131
0.603299 0.018870 0.267018 33 167 132
0.589734 -0.023652 0.168188 44 177 125
0.422451 0.324959 0.007464 66 62 133
-0.655609 -0.261946 0.259298 30 156 137
0.095637 -0.318752 -0.248131 68 1 84
-0.635928 -0.095436 0.425116 131 211 75
-0.058797 -0.264076 -0.315152 68 1 84
-0.631122 -0.115562 0.485443 157 217 58
0.242326 0.308202 -0.162133 68 1 84
0.136073 -0.217892 -0.204468 68 1 84
-0.082311 -0.048520 -0.423202 72 33 114
-0.665465 -0.420465 0.200475 46 109 142
0.594952 -0.016215 0.518689 35 169 130
-0.605227 -0.063851 0.153617 35 168 131
0.000610 -0.118499 -0.432173 66 64 133
-0.012830 0.101235 -0.353349 68 1 84
0.599561 -0.158068 0.137359 40 123 142
0.489361 0.330771 0.179460 43 115 142
-0.160461 0.126650 -0.246146 68 1 84
0.292192 0.107839 -0.172984 71 39 119
0.233107 -0.135070 -0.178980 68 1 84
0.021433 -0.190657 -0.388797 65 66 134
0.467452 0.081713 -0.037067 39 126 142
-0.126566 -0.142300 -0.254359 68 1 84
0.660629 -0.389607 0.245572 71 17 99
-0.409294 -0.247630 -0.112814 72 33 114
-0.569725 0.196042 0.422755 159 217 56
-0.000293 0.044636 -0.472587 66 61 132
0.156914 0.335071 -0.208330 68 1 84
-0.015145 -0.346363 -0.344868 68 1 84
-0.570627 0.193304 0.423185 157 217 58
-0.478531 0.183818 0.007142 30 159 136
-0.154388 -0.232666 -0.197010 68 1 84
0.348423 -0.086289 -0.141761 54 90 140
0.126166 0.593727 -0.132483 68 1 84
-0.372813 0.452211 0.033946 68 1 84
0.545528 -0.379584 -0.015019 72 26 108
-0.386954 -0.271588 -0.137197 71 15 98
-0.393468 0.449143 0.075202 68 1 84
-0.319633 -0.167944 -0.160534 68 1 84
0.349665 0.449601 -0.004393 68 1 84
0.081287 0.349815 -0.222551 68 1 84
0.358274 -0.067186 -0.137762 43 116 142
0.497424 -0.402972 -0.108486 68 1 84
-0.414625 0.394635 0.046411 69 50 127
0.091594 0.171214 -0.280121 68 1 84
0.481489 0.345764 0.357098 39 124 142
0.146824 0.077767 -0.222909 68 1 84
0.313783 0.053825 -0.167236 71 44 123
-0.570745 0.194592 0.416034 154 216 60
0.577634 0.049729 0.522922 34 167 132
-0.655760 -0.303596 0.489542 32 145 140
0.667188 -0.390414 0.426279 58 82 139
-0.149999 0.108043 -0.246319 68 1 84
0.641710 -0.211031 0.272265 47 105 141
0.106695 -0.067212 -0.320703 68 1 84
-0.053547 0.036810 -0.451450 71 37 117
-0.487943 0.353556 0.430359 33 166 133
-0.102024 -0.386290 -0.341366 71 21 103
0.495216 -0.181273 -0.026577 47 106 141
0.570335 0.130005 0.446811 61 187 116
-0.640398 -0.297345 0.154678 41 121 142
0.425229 -0.514770 -0.228677 72 34 115
-0.367627 -0.174768 -0.137950 70 9 92
-0.546452 0.253772 0.414771 165 218 53
-0.046260 0.097289 -0.338547 68 1 84
-0.629207 -0.038420 0.376011 157 217 58
-0.032025 0.417446 -0.229666 68 1 84
0.642939 -0.154040 0.353588 40 123 142
0.653756 -0.376656 0.222916 72 28 110
-0.493091 0.030046 -0.031938 34 139 141
0.626442 -0.177971 0.533961 47 106 141
0.363775 -0.259697 -0.150869 68 1 84
0.520590 -0.364785 -0.040989 69 5 88
-0.585767 -0.364857 0.027195 53 93 140
-0.164471 -0.310575 -0.205776 68 1 84
-0.551140 -0.411411 -0.035217 69 50 127
0.340686 0.252794 -0.120048 58 82 139
0.623389 -0.040275 0.406852 42 176 126
-0.504888 0.232188 0.081415 32 165 133
0.164940 -0.229737 -0.196045 68 1 84
-0.598866 -0.431900 0.032657 62 72 136
-0.510084 0.029381 -0.010950 33 142 140
0.536574 -0.203129 0.018601 52 95 141
0.484553 -0.082940 -0.040698 30 155 137
0.287524 0.528118 0.003405 68 1 84
-0.145341 0.486537 -0.216276 68 1 84
-0.349340 0.369367 -0.068654 68 1 84
0.665549 -0.546679 0.225041 70 12 95
-0.392534 0.465754 0.115197 68 1 84
0.624986 -0.155882 0.221202 43 116 142
0.145337 0.598578 -0.067991 68 1 84
-0.405442 0.291657 -0.041936 66 61 132
0.298450 0.504780 -0.022713 68 1 84
0.203470 0.299125 -0.184385 68 1 84
-0.009458 -0.158741 -0.407295 60 78 138
0.033288 0.057268 -0.422725 68 1 84
-0.491752 0.310937 0.119661 31 149 139
0.142024 0.004397 -0.283204 69 5 88
0.573223 0.144661 0.390035 109 206 88
0.226554 0.011070 -0.196986 68 1 84
0.076663 -0.260989 -0.277869 68 1 84
0.123349 0.084163 -0.238670 68 1 84
0.031562 0.393303 -0.214536 68 1 84
-0.092713 -0.347797 -0.289380 68 1 84
0.200281 -0.300072 -0.203750 68 1 84
0.144439 -0.380319 -0.310341 68 1 84
0.584019 0.011845 0.170935 50 181 122
0.093327 0.558588 -0.216553 68 1 84
0.459904 0.333946 0.089218 66 64 133
-0.685991 -0.430877 0.398657 40 122 142
0.528973 0.279764 0.291858 36 170 130
-0.392991 -0.330878 -0.163104 70 12 95
-0.469725 0.022264 -0.060458 31 148 139
0.508166 0.192559 0.073742 42 119 142
0.620963 -0.045546 0.294846 48 180 122
0.669927 -0.430713 0.292913 72 33 114
-0.367477 0.483464 0.085527 68 1 84
0.293493 0.170021 -0.166437 72 35 116
-0.598518 -0.538976 0.021215 71 42 121
-0.238089 -0.089437 -0.184070 68 1 84
-0.197203 0.387228 -0.174624 68 1 84
-0.216340 0.552195 -0.085689 68 1 84
-0.057719 0.609087 -0.160731 68 1 84
0.428971 0.261638 -0.021471 72 30 112
0.629262 -0.079235 0.308906 32 164 133
0.622539 -0.055310 0.436695 68 190 112
-0.639713 -0.103425 0.404593 131 211 75
-0.555270 -0.051645 0.035088 30 156 137
-0.117199 -0.192046 -0.240405 68 1 84
0.474447 0.199524 0.014177 54 90 140
-0.098185 0.602214 -0.138264 68 1 84
-0.223195 0.566641 -0.025847 68 1 84
0.588125 -0.012133 0.170329 33 167 132
-0.524292 0.305779 0.377839 103 204 92
0.273697 0.259899 -0.160760 68 1 84
0.247622 0.160549 -0.191137 68 1 84
-0.695254 -0.520164 0.314433 46 109 142
0.576999 0.025090 0.155571 33 166 133
0.077945 0.222337 -0.285358 68 1 84
0.616923 -0.028509 0.436749 62 188 115
0.625664 -0.443324 0.110922 69 8 91
-0.136138 0.374968 -0.202553 68 1 84
-0.355660 0.362030 -0.065894 68 1 84
0.193095 0.326322 -0.190808 68 1 84
0.631620 -0.117017 0.278655 34 138 141
0.538560 0.177346 0.140504 42 176 126
-0.662267 -0.370644 0.409620 33 141 140
-0.583369 0.164173 0.371650 119 208 82
-0.562814 -0.205011 0.025294 53 92 140
0.590813 0.037340 0.482996 43 177 125
0.203525 -0.320342 -0.239344 68 1 84
0.380427 -0.180943 -0.122153 69 50 127
-0.556187 0.252290 0.314161 112 206 86
0.339430 0.122048 -0.147156 65 66 134
-0.273474 0.433771 -0.116825 68 1 84
-0.670573 -0.369999 0.321684 30 153 138
0.018671 0.533301 -0.252612 68 1 84
0.614568 -0.042205 0.259382 33 166 133
0.212154 0.307677 -0.179578 68 1 84
0.515733 -0.105327 -0.003479 36 134 141
0.452891 -0.052892 -0.071897 42 117 142
-0.362299 0.404808 -0.029999 68 1 84
0.254233 0.481071 -0.106294 68 1 84
0.070137 0.020285 -0.428548 70 48 125
-0.587178 0.122770 0.481516 178 221 44
-0.114111 -0.075118 -0.315582 68 1 84
0.546629 -0.377196 -0.012244 70 14 97
-0.318693 0.364584 -0.101674 68 1 84
-0.593175 -0.386548 0.032196 49 101 141
-0.424268 0.321225 0.004094 58 83 139
-0.548678 0.251999 0.399797 170 219 50
0.691477 -0.547013 0.355147 68 1 84
-0.569217 0.058134 0.114262 61 187 116
0.609344 -0.003958 0.275108 41 175 127
-0.494130 -0.036471 -0.045703 33 140 141
-0.369291 0.266604 -0.094433 70 14 97
0.560364 0.098569 0.532025 33 166 133
0.457083 0.065804 -0.053112 45 110 142
-0.401318 -0.024107 -0.121681 49 101 141
-0.589498 0.116615 0.469622 238 229 27
0.684829 -0.472582 0.393169 67 59 131
-0.667403 -0.349386 0.320671 34 139 141
-0.597788 0.028868 0.189077 87 198 101
0.574694 0.083910 0.498661 34 167 132
0.371926 0.397554 -0.017782 68 1 84
0.266272 0.141809 -0.181584 71 24 106
-0.247291 -0.206352 -0.192194 68 1 84
0.253977 0.505165 -0.090961 68 1 84
-0.597206 0.100530 0.264937 144 214 67
0.030567 0.462571 -0.247271 68 1 84
-0.177379 0.129739 -0.237823 68 1 84
0.231465 0.547563 -0.070188 68 1 84
0.046992 0.564861 -0.234106 68 1 84
-0.081931 -0.126967 -0.346668 71 15 98
0.680122 -0.442593 0.462226 61 74 137
-0.071093 -0.091574 -0.402727 68 1 84
-0.641805 -0.103302 0.339429 159 217 56
-0.148173 -0.068305 -0.246621 68 1 84
-0.224138 0.525713 -0.119170 68 1 84
0.631207 -0.125241 0.268950 31 150 139
-0.679445 -0.409430 0.311280 33 140 141
-0.016981 -0.442327 -0.371844 51 96 141
0.609275 0.025289 0.352924 50 181 122
0.345765 0.276145 -0.110689 71 42 121
-0.193960 -0.277625 -0.196105 68 1 84
0.640076 -0.278590 0.484877 46 107 142
-0.556884 -0.221538 0.016681 62 73 137
-0.013187 0.218935 -0.301442 68 1 84
-0.683339 -0.436623 0.422892 42 119 142
0.096437 -0.022241 -0.394875 59 81 138
0.016346 -0.406500 -0.364113 61 75 137
0.609658 -0.067635 0.214688 31 161 135
0.214290 0.151360 -0.207574 68 1 84
-0.177054 -0.148049 -0.198960 68 1 84
-0.028660 -0.285499 -0.341402 68 1 84
0.454258 -0.384804 -0.156561 69 6 90
0.272897 -0.321781 -0.202316 68 1 84
-0.184078 0.355331 -0.188713 68 1 84
0.490203 0.249350 0.076586 46 109 142
-0.709311 -0.521070 0.379005 45 111 142
0.635011 -0.096784 0.347571 31 163 134
-0.631581 -0.383687 0.101638 47 106 141
0.317179 0.438551 -0.061854 68 1 84
-0.097161 0.089996 -0.287732 68 1 84
0.112477 0.589831 -0.160547 68 1 84
-0.259762 0.539472 -0.035480 68 1 84
0.466661 0.204708 0.004122 58 83 139
0.130675 0.242678 -0.237255 68 1 84
-0.703402 -0.582416 0.333994 55 88 140
0.073816 0.018748 -0.424142 63 71 136
0.458835 0.023725 -0.057692 41 121 142
0.291014 0.495725 -0.049340 68 1 84
0.262572 -0.419166 -0.309726 68 1 84
0.482342 -0.204053 -0.033448 62 73 137
-0.613795 -0.025487 0.216634 103 204 92
0.637855 -0.114937 0.350060 30 153 138
-0.386672 -0.411897 -0.234261 71 22 105
-0.109089 0.598331 -0.136965 68 1 84
0.631362 -0.106428 0.287903 31 163 134
-0.549559 0.212996 0.523399 56 185 118
-0.611643 0.008413 0.474565 207 225 28
-0.207624 0.229432 -0.206146 68 1 84
0.695140 -0.536258 0.371452 71 18 101
0.639163 -0.275925 0.520033 54 90 140
0.303829 0.143048 -0.163854 71 17 99
-0.119252 -0.198353 -0.233155 68 1 84
-0.318026 0.531731 0.114620 68 1 84
-0.599126 0.033565 0.516693 124 210 79
0.534781 -0.037763 0.033165 35 137 141
-0.286606 0.008457 -0.180829 68 1 84
0.519377 -0.480337 -0.102273 68 1 84
-0.225384 0.548295 -0.078774 68 1 84
0.070101 0.591599 -0.191734 68 1 84
-0.102876 -0.273369 -0.221320 68 1 84
-0.057859 -0.267480 -0.315655 68 1 84
0.002982 0.266156 -0.259792 68 1 84
0.354544 0.344580 -0.076467 68 1 84
-0.274715 -0.415010 -0.290562 68 1 84
0.441869 0.150922 -0.050637 52 95 141
-0.468334 -0.531379 -0.175848 71 39 119
-0.178511 0.185748 -0.243708 68 1 84
-0.283531 -0.454520 -0.321901 68 1 84
-0.000012 0.614721 -0.162467 68 1 84
0.653734 -0.316773 0.377570 59 80 138
0.639852 -0.333511 0.187336 71 38 118
-0.282761 -0.464016 -0.327405 68 2 85
0.208628 -0.269998 -0.194265 68 1 84
-0.000925 0.523165 -0.256257 68 1 84
0.252872 -0.217858 -0.194564 68 1 84
-0.636936 -0.150772 0.491947 105 204 91
0.602686 0.006575 0.245276 31 150 139
-0.060366 -0.386863 -0.350585 70 12 95
-0.479061 0.205781 0.019534 31 163 134
-0.207883 -0.327247 -0.231884 68 1 84
-0.093529 0.603607 -0.133336 68 1 84
-0.159725 0.446640 -0.200162 68 1 84
-0.604704 0.073348 0.284228 126 210 78
0.698074 -0.540231 0.410060 67 60 132
-0.210532 0.148151 -0.225461 68 1 84
-0.433279 0.066214 -0.088035 51 96 141
-0.584478 -0.225761 0.055524 45 111 142
-0.610289 0.053774 0.319305 157 217 58
-0.636012 -0.173676 0.201089 32 164 133
-0.614605 -0.091456 0.167548 38 172 129
0.692038 -0.498214 0.457777 71 24 106
0.481918 -0.515262 -0.165407 68 2 85
0.083337 -0.019838 -0.417932 47 106 141
0.081804 -0.355435 -0.316653 68 3 87
0.591522 0.044636 0.472391 96 201 96
0.575488 -0.198755 0.073580 49 101 141
0.620264 -0.034918 0.425338 75 194 108
-0.630342 -0.061526 0.282353 112 206 86
0.428571 -0.088470 -0.095007 40 122 142
-0.300700 -0.479902 -0.320906 68 1 84
-0.708515 -0.581772 0.363570 57 85 139
0.527055 0.263395 0.384832 30 160 135
0.643754 -0.359910 0.190482 71 24 106
0.515294 -0.410943 -0.082300 71 24 106
-0.011560 0.000708 -0.487524 49 102 141
0.302593 -0.022297 -0.165844 60 77 138
-0.640588 -0.227083 0.194341 36 134 141
-0.221611 -0.459958 -0.350462 70 48 125
-0.407026 0.468584 0.199041 60 78 138
0.560167 -0.012698 0.089083 34 137 141
0.371058 0.482305 0.159833 68 1 84
0.591832 -0.064243 0.152811 32 145 140
0.506317 0.172620 0.057904 41 121 142
0.096802 0.052271 -0.308338 68 1 84
-0.417469 0.371787 0.031390 59 80 138
-0.539392 0.289637 0.294824 149 215 63
-0.463506 -0.356834 -0.107681 69 6 90
-0.672009 -0.432161 0.235633 44 113 142
0.553644 0.126602 0.525266 42 119 142
-0.282777 0.259912 -0.156900 68 1 84
-0.087990 0.188986 -0.292380 68 1 84
-0.582337 0.145250 0.461850 248 230 33
-0.423833 0.240267 -0.042333 39 125 142
0.113885 -0.324321 -0.236897 68 1 84
0.586501 0.053687 0.212547 56 185 118
0.179711 -0.011817 -0.211815 72 25 107
0.629471 -0.492741 0.115742 68 1 84
-0.301648 -0.473028 -0.319329 68 1 84
0.579450 0.129385 0.367085 71 192 110
-0.111417 0.021427 -0.377714 68 1 84
-0.373401 0.349264 -0.051460 68 1 84
0.615956 -0.382485 0.101883 71 18 101
0.637471 -0.144118 0.292328 37 131 141
-0.517998 0.152024 0.055018 42 176 126
-0.504421 0.219880 0.072009 31 162 134
0.252003 -0.462368 -0.339961 71 15 98
0.011063 -0.110681 -0.433420 61 74 137
-0.560260 -0.306501 0.009184 66 62 133
0.161988 0.081006 -0.217054 68 1 84
-0.485267 0.358775 0.422784 31 162 134
0.335060 0.013909 -0.155673 49 101 141
0.596406 -0.011939 0.505607 64 189 114
0.608836 -0.324198 0.102469 66 64 133
-0.558672 0.246387 0.297994 170 219 50
-0.636335 -0.333257 0.125522 48 103 141
0.672022 -0.508964 0.242987 72 30 112
-0.605607 -0.000939 0.531336 83 197 103
0.554502 0.053392 0.103654 30 158 136
0.636127 -0.103651 0.371309 36 170 130
0.569607 -0.087480 0.085974 36 133 141
0.164433 0.144416 -0.232768 68 1 84
-0.392885 -0.521603 -0.255014 70 49 126
0.005795 0.326210 -0.231499 68 1 84
-0.451679 0.035063 -0.076407 35 136 141
0.648871 -0.228367 0.343219 38 127 142
-0.421424 0.061769 -0.099478 48 103 141
0.521427 0.285740 0.348854 30 155 137
-0.137880 -0.040278 -0.297657 68 1 84
0.274512 0.549479 0.050213 68 1 84
0.638602 -0.499280 0.144418 68 1 84
-0.132035 -0.219367 -0.204835 68 1 84
-0.535121 0.101963 0.058174 51 182 121
-0.065721 -0.131261 -0.375210 70 11 94
0.514742 0.270683 0.425801 31 148 139
-0.132632 0.246913 -0.232998 68 1 84
-0.270955 -0.469282 -0.333084 71 40 120
-0.537910 0.289126 0.257219 124 210 79
0.338437 -0.477069 -0.294785 68 1 84
-0.708867 -0.516799 0.410743 45 111 142
-0.657899 -0.279888 0.262869 30 153 138
-0.138416 0.173607 -0.266916 68 1 84
0.164411 -0.437525 -0.360808 56 86 139
0.082104 -0.197377 -0.307714 71 20 102
-0.588923 0.113265 0.488321 225 227 24
-0.456460 -0.174597 -0.081863 67 60 132
-0.101063 -0.044619 -0.395070 68 1 84
0.475870 0.304159 0.094825 65 65 134
0.528365 0.256223 0.197887 31 149 139
-0.529698 -0.376867 -0.046234 70 45 124
0.444911 0.392149 0.145439 62 72 136
0.568817 0.078328 0.526438 31 149 139
-0.588927 0.020326 0.149968 47 179 123
-0.539266 0.223106 0.151620 103 204 92
-0.209981 0.512837 -0.147497 68 1 84
0.303458 -0.183578 -0.168899 70 12 95
0.375284 -0.000091 -0.131167 46 109 142
-0.481933 -0.450576 -0.155555 69 6 90
0.264251 0.075054 -0.185899 72 35 116
0.639338 -0.494479 0.147162 68 1 84
0.466434 -0.412145 -0.163214 71 17 99
-0.325769 -0.146786 -0.155051 68 1 84
-0.580209 0.172915 0.382228 139 213 70
-0.293291 0.357035 -0.124295 68 1 84
-0.651740 -0.192466 0.281003 36 170 130
0.333941 0.056490 -0.156928 54 91 140
0.113355 -0.352478 -0.277356 68 1 84
0.363874 0.484592 0.114242 68 1 84
0.282614 0.327778 -0.139877 68 1 84
0.289477 0.263174 -0.151548 68 1 84
0.454899 -0.458532 -0.200277 70 9 92
0.641095 -0.253110 0.432486 46 109 142
-0.676291 -0.511648 0.218739 58 82 139
-0.603773 0.073425 0.273573 149 215 63
0.624975 -0.047942 0.324893 39 173 128
0.612882 -0.111167 0.530993 52 95 141
-0.627737 -0.086908 0.475098 139 213 70
-0.182222 0.431498 -0.183222 68 1 84
-0.160348 -0.238655 -0.196442 68 1 84
0.513188 -0.325593 -0.024533 72 25 107
-0.208855 -0.314469 -0.210132 68 1 84
0.480598 -0.312816 -0.046264 68 1 84
0.142751 -0.380774 -0.312460 68 1 84
0.141680 0.075758 -0.225229 68 1 84
0.321686 0.445842 -0.050545 68 1 84
0.291042 0.535229 0.034170 68 1 84
0.451411 -0.292761 -0.061651 68 1 84
-0.451623 -0.346788 -0.112734 68 1 84
0.491750 -0.483962 -0.153955 68 1 84
0.304609 -0.237138 -0.188647 69 54 129
0.433973 0.330266 0.032376 66 62 133
0.131672 -0.069992 -0.262874 68 1 84
0.407439 -0.395457 -0.215880 68 1 84
0.647693 -0.274529 0.389256 49 100 141
0.522640 0.291032 0.260815 33 166 133
-0.388766 0.360623 -0.023147 71 24 106
-0.605664 -0.445035 0.043434 67 58 131
-0.013845 -0.228802 -0.370727 71 40 120
-0.647463 -0.317977 0.168471 48 103 141
-0.337784 -0.216428 -0.165291 68 1 84
-0.320347 0.532987 0.151553 68 1 84
-0.645121 -0.179659 0.456333 103 204 92
-0.330637 0.515690 0.074789 68 1 84
-0.385593 0.352833 -0.033256 72 25 107
-0.453068 -0.426711 -0.179368 68 1 84
0.633736 -0.388734 0.146062 70 14 97
0.392292 -0.074100 -0.119791 43 115 142
0.413986 0.010973 -0.102882 49 100 141
0.409067 0.443684 0.266366 61 76 137
0.651382 -0.355514 0.453536 59 80 138
0.651104 -0.272076 0.345711 45 111 142
-0.490486 0.362898 0.372695 44 177 125
-0.064299 0.596806 -0.198481 68 1 84
-0.270813 0.353768 -0.141107 68 1 84
0.462312 0.104309 -0.038004 40 122 142
0.492790 0.333936 0.341050 34 138 141
-0.274021 -0.276395 -0.197566 68 1 84
-0.607199 0.056121 0.420323 253 231 36
-0.601898 0.010432 0.537350 89 199 100
-0.073159 -0.416477 -0.365790 69 54 129
-0.584136 -0.046895 0.097580 48 180 122
0.357925 -0.381386 -0.239177 71 21 103
0.064910 0.006355 -0.446222 59 81 138
0.631572 -0.074761 0.370787 32 165 133
-0.494504 0.358562 0.362574 61 187 116
-0.470193 -0.378774 -0.118904 71 22 105
0.147473 -0.347039 -0.246429 68 1 84
-0.313513 -0.088358 -0.156480 68 1 84
-0.004405 0.213143 -0.300085 68 1 84
0.040572 0.098591 -0.321192 68 1 84
0.098119 0.034341 -0.341481 68 1 84
0.349726 0.343590 -0.082411 68 1 84
-0.407122 0.397344 0.035164 70 47 124
0.283776 -0.163488 -0.172462 68 3 87
-0.385895 -0.472316 -0.261278 68 1 84
-0.156267 0.044664 -0.229829 68 1 84
0.394349 -0.031093 -0.118328 34 137 141
0.258174 0.065035 -0.187870 70 11 94
-0.620771 -0.046270 0.482097 144 214 67
0.584427 -0.477488 0.017929 68 1 84
-0.623626 -0.063087 0.485295 119 208 82
0.325783 0.375858 -0.089715 68 1 84
-0.607877 -0.268322 0.084050 42 119 142
-0.628655 -0.099282 0.541132 46 178 124
0.408164 -0.224366 -0.098232 68 1 84
0.520355 -0.419913 -0.078810 68 1 84
-0.445863 0.061373 -0.076880 42 117 142
0.591687 -0.443344 0.039389 69 6 90
0.599671 -0.032366 0.199351 32 145 140
0.650802 -0.284552 0.287714 49 100 141
0.384679 -0.269342 -0.124841 68 1 84
-0.049398 -0.094788 -0.427125 72 33 114
-0.340182 -0.286842 -0.180890 68 1 84
0.580723 0.125045 0.367825 66 190 113
-0.250400 -0.380490 -0.275050 68 1 84
0.319830 -0.011464 -0.160004 50 98 141
0.615728 -0.172637 0.179899 39 126 142
-0.531768 -0.328472 -0.024117 70 47 124
-0.371168 0.499757 0.198356 71 44 123
0.579870 -0.280425 0.063409 50 99 141
0.094494 0.021537 -0.388597 72 35 116
-0.464385 -0.273021 -0.060588 68 3 87
-0.062848 0.605683 -0.174512 68 1 84
0.468115 0.341722 0.123754 64 67 135
0.360468 0.389926 -0.039600 68 1 84
-0.658735 -0.330582 0.211152 51 97 141
0.138349 0.016140 -0.323018 61 74 137
0.120044 0.065891 -0.255320 68 1 84
0.035012 0.054930 -0.409180 68 1 84
0.010863 -0.130345 -0.422704 66 64 133
0.407481 0.064838 -0.104970 43 116 142
-0.162213 -0.394763 -0.321383 68 1 84
-0.223228 0.451938 -0.152797 68 1 84
-0.613583 0.036540 0.320585 139 213 70
-0.317828 -0.342505 -0.234731 69 6 90
0.019922 0.598945 -0.204691 68 1 84
0.584682 0.083110 0.236153 30 156 137
-0.638114 -0.132158 0.237026 46 178 124
0.499261 -0.334903 -0.044661 71 20 102
-0.380092 0.217865 -0.097835 67 59 131
-0.181813 -0.090609 -0.211237 68 1 84
0.614240 -0.099382 0.491915 35 135 141
0.423861 -0.148354 -0.093451 54 91 140
0.257805 -0.478044 -0.340949 69 6 90
0.648114 -0.472925 0.178062 71 22 105
0.597111 -0.039358 0.184532 33 140 141
0.158631 0.365901 -0.197736 68 1 84
-0.642457 -0.260773 0.183261 34 138 141
-0.655543 -0.234997 0.284611 36 170 130
-0.456272 -0.461032 -0.191069 68 1 84
0.417749 -0.324906 -0.131975 68 1 84
0.357278 0.430564 -0.010801 68 1 84
0.699721 -0.546351 0.386592 71 15 98
0.400999 0.071392 -0.110259 46 109 142
-0.453404 0.295278 0.033484 39 126 142
0.547258 0.168983 0.161321 30 156 137
0.056358 0.416078 -0.218364 68 1 84
-0.623969 -0.053232 0.243190 109 206 88
0.597247 0.064780 0.310499 30 159 136
0.643634 -0.186547 0.393498 30 154 137
0.109229 0.115680 -0.257836 68 1 84
-0.590230 0.142347 0.329256 144 214 67
-0.160845 0.266597 -0.210555 68 1 84
0.422609 -0.157110 -0.092652 65 66 134
-0.080165 0.504677 -0.250855 68 1 84
-0.473908 0.395099 0.242203 38 172 129
-0.338604 -0.493347 -0.298688 68 1 84
0.544125 0.209098 0.192464 34 167 132
0.432231 0.206297 -0.043699 53 92 140
-0.050944 -0.396464 -0.357555 68 2 85
0.140622 -0.185843 -0.209557 68 1 84
-0.416944 0.269476 -0.037717 50 99 141
-0.315398 -0.160990 -0.160903 68 1 84
0.084597 0.422888 -0.210638 68 1 84
-0.647851 -0.194453 0.501685 30 158 136
-0.121419 0.588960 -0.155254 68 1 84
-0.490095 -0.257540 -0.042348 71 40 120
0.484679 0.349023 0.210616 46 109 142
-0.648892 -0.208728 0.426098 83 197 103
-0.588275 -0.231513 0.061131 46 108 142
-0.073583 -0.017270 -0.451327 72 30 112
-0.230644 -0.339255 -0.254639 68 1 84
-0.524847 0.295861 0.197489 121 209 81
0.079423 0.438117 -0.218969 68 1 84
0.352646 0.150437 -0.134391 54 91 140
0.205215 0.563345 -0.085297 68 1 84
-0.210189 -0.161553 -0.185474 68 1 84
-0.479538 0.221242 0.029083 30 160 135
-0.623204 -0.032964 0.271187 134 212 73
0.542119 0.230257 0.215000 35 168 131
-0.043071 -0.303231 -0.327787 68 1 84
-0.503952 0.320914 0.462889 83 197 103
0.424265 -0.287126 -0.086848 68 1 84
-0.093073 -0.036088 -0.416231 71 22 105
-0.639475 -0.334601 0.134119 49 102 141
-0.556606 -0.376890 -0.015122 70 49 126
0.298448 0.495112 -0.036861 68 1 84
-0.539674 0.043032 0.039491 32 165 133
-0.500426 0.342230 0.400933 66 190 113
-0.563841 -0.314038 0.011262 64 68 135
-0.461133 0.411047 0.237570 38 129 142
-0.486005 0.361321 0.409327 47 179 123
0.226106 -0.406211 -0.310327 68 1 84
-0.504334 -0.039470 -0.034500 34 138 141
0.458912 0.374304 0.355861 42 117 142
-0.655576 -0.217809 0.480364 37 171 129
0.300687 0.120183 -0.168251 70 9 92
0.549300 0.228224 0.262108 30 160 135
-0.114539 -0.398851 -0.350488 69 5 88
0.230952 -0.189325 -0.187813 68 1 84
-0.510358 0.323692 0.418247 81 196 104
0.416810 0.377437 0.041786 71 17 99
-0.048965 0.607570 -0.177632 68 1 84
-0.506349 0.336695 0.208337 75 194 108
0.136950 -0.028186 -0.261251 68 1 84
-0.478157 0.356544 0.143681 33 167 132
0.021445 -0.292495 -0.344659 71 15 98
-0.644846 -0.171390 0.435781 85 198 102
-0.573003 0.205124 0.282895 131 211 75
-0.288048 -0.406512 -0.279025 68 1 84
0.540168 -0.066061 0.036495 35 135 141
0.136742 -0.016449 -0.290756 68 1 84
-0.329167 -0.023572 -0.159259 71 17 99
-0.645132 -0.222964 0.216553 45 111 142
0.269387 0.553434 0.061017 68 1 84
0.566318 0.153479 0.422342 64 189 114
0.222675 -0.397307 -0.298573 68 1 84
-0.081622 -0.373150 -0.335297 68 1 84
0.525115 0.064493 0.044244 32 165 133
0.103496 0.453575 -0.213201 68 1 84
-0.506512 0.126058 0.020483 30 156 137
0.207701 -0.083787 -0.194566 70 9 92
-0.657576 -0.339822 0.428961 30 152 138
0.553975 -0.385009 -0.005398 71 22 105
-0.668728 -0.377416 0.232215 31 146 140
-0.397100 -0.258119 -0.126325 69 8 91
-0.530222 0.305890 0.261407 98 202 95
0.579213 -0.301847 0.056099 60 78 138
-0.574238 0.192874 0.377006 154 216 60
-0.295913 -0.239820 -0.195912 68 1 84
0.504914 0.180768 0.059948 49 101 141
0.011003 0.523527 -0.255254 68 1 84
0.311063 0.506927 0.007842 68 1 84
-0.184583 -0.118811 -0.202249 68 1 84
-0.412388 -0.164572 -0.112127 66 62 133
-0.327040 0.199919 -0.144480 70 12 95
-0.588811 -0.418533 0.018628 61 75 137
-0.601827 0.094023 0.333079 116 208 84
0.378681 0.471775 0.128449 68 1 84
0.670092 -0.457280 0.252820 69 6 90
-0.449274 0.381751 0.104121 67 60 132
0.085747 0.028000 -0.382995 68 1 84
-0.334329 0.484649 0.006861 68 1 84
-0.121124 0.487241 -0.231129 68 1 84
0.566271 0.145955 0.211945 32 164 133
-0.550617 0.158864 0.131125 32 165 133
0.139544 0.297709 -0.225978 68 1 84
-0.492451 -0.318463 -0.050712 72 26 108
-0.646690 -0.141231 0.379442 126 210 78
-0.419047 0.438968 0.130105 54 91 140
0.401512 0.298971 -0.040434 69 53 128
0.116514 0.091987 -0.244682 68 1 84
0.281185 0.318175 -0.142851 68 1 84
0.520653 0.003455 0.020981 38 172 129
0.549835 0.150877 0.513197 34 138 141
0.541032 0.240106 0.365011 30 160 135
-0.711547 -0.578618 0.398622 66 61 132
0.268974 -0.436614 -0.321459 71 18 101
0.669518 -0.432928 0.265871 71 17 99
-0.126514 -0.227752 -0.207295 68 1 84
-0.693977 -0.502029 0.324142 42 117 142
-0.046305 -0.290630 -0.326798 68 1 84
-0.291122 0.337612 -0.132142 68 1 84
-0.253497 0.244176 -0.172299 68 1 84
-0.043607 0.409043 -0.222968 68 1 84
-0.273046 0.003654 -0.185463 68 1 84
-0.654837 -0.202104 0.336210 47 179 123
0.526675 -0.254104 0.005643 68 55 129
0.083314 -0.292671 -0.254854 68 1 84
0.554021 -0.503743 -0.041246 68 1 84
0.063087 0.087691 -0.301913 68 1 84
-0.069070 0.504319 -0.253927 68 1 84
0.646849 -0.279841 0.399040 50 99 141
0.552854 0.140570 0.155756 40 174 127
0.480349 -0.323571 -0.054743 68 1 84
-0.557274 0.248756 0.275880 149 215 63
0.217188 0.559876 -0.069657 68 1 84
-0.171883 0.365695 -0.191649 68 1 84
-0.243686 -0.444368 -0.336390 71 44 123
0.542176 -0.193762 0.025845 55 88 140
-0.496863 -0.400008 -0.101037 72 34 115
0.499232 0.329140 0.313662 30 152 138
0.473044 0.372269 0.256107 39 125 142
-0.687057 -0.436425 0.328234 36 133 141
-0.102145 0.408365 -0.212847 68 1 84
0.038038 -0.157731 -0.395334 52 94 141
-0.525055 0.317290 0.272600 77 194 107
0.243244 0.493019 -0.111304 68 1 84
-0.582866 0.072948 0.164609 131 211 75
-0.359316 0.207371 -0.118721 64 67 135
-0.654470 -0.212006 0.478254 33 166 133
-0.077813 0.379063 -0.212308 68 1 84
0.599350 -0.052902 0.548249 35 136 141
-0.187738 0.023668 -0.212138 68 1 84
-0.194051 0.053565 -0.211639 68 1 84
-0.130904 0.334031 -0.220822 68 1 84
0.263437 -0.429562 -0.318662 70 14 97
0.597431 -0.080832 0.162570 34 167 132
0.599113 -0.005997 0.215367 30 160 135
0.599614 -0.170909 0.133294 41 121 142
0.448143 0.381558 0.374905 56 86 139
0.165895 0.379224 -0.190413 68 1 84
-0.669184 -0.359619 0.303012 35 137 141
0.653799 -0.351687 0.425027 50 98 141
-0.268177 -0.395947 -0.279286 68 1 84
-0.365250 0.089116 -0.139720 68 57 130
-0.598007 0.111175 0.313146 131 211 75
0.090336 0.602705 -0.141672 68 1 84
-0.345682 0.516908 0.142011 68 1 84
-0.588657 0.100428 0.509964 134 212 73
-0.458175 0.411986 0.217171 43 115 142
0.455198 -0.243987 -0.050304 68 1 84
-0.658028 -0.302491 0.233023 31 149 139
-0.488956 0.112076 -0.011088 33 142 140
-0.548767 -0.035002 0.029418 30 158 136
0.589549 0.097112 0.326291 66 190 113
-0.455591 0.081189 -0.061688 40 122 142
0.652144 -0.358622 0.459299 56 86 139
-0.256632 0.514441 -0.086444 68 1 84
0.622427 -0.157444 0.527386 40 123 142
0.421607 -0.169824 -0.090814 70 45 124
-0.594240 0.055747 0.516643 131 211 75
0.019868 0.103998 -0.334167 68 1 84
0.609083 0.004365 0.436958 56 185 118
0.556189 -0.272453 0.033481 59 81 138
0.455286 0.199464 -0.015691 56 87 140
0.146234 0.594223 -0.098053 68 1 84
0.601633 -0.190855 0.131665 52 95 141
-0.646499 -0.157570 0.403395 112 206 86
-0.497035 -0.302095 -0.041815 72 26 108
0.402527 0.036809 -0.111242 44 113 142
-0.653020 -0.278572 0.443879 31 161 135
0.282930 0.075064 -0.179354 71 38 118
-0.619241 -0.310088 0.093020 54 90 140
0.137891 0.323449 -0.220806 68 1 84
-0.555227 -0.066028 0.031047 30 151 138
0.500810 0.284655 0.139566 33 142 140
-0.070587 0.148360 -0.299331 68 1 84
0.413311 0.435683 0.147308 68 1 84
-0.335003 -0.213193 -0.165748 68 1 84
0.570764 0.080812 0.517846 33 142 140
-0.178614 0.353445 -0.192262 68 1 84
-0.486230 -0.412701 -0.125359 70 48 125
-0.605222 0.035929 0.233845 191 223 36
-0.155834 -0.368381 -0.270791 68 1 84
-0.318269 0.534447 0.155205 68 1 84
0.329829 0.290922 -0.119329 68 1 84
0.043246 -0.299325 -0.330884 70 9 92
0.684167 -0.458265 0.392914 66 61 132
0.064918 -0.086565 -0.399818 62 73 137
-0.141781 -0.398783 -0.339437 68 1 84
-0.316108 0.532666 0.110748 68 1 84
-0.565273 0.161671 0.533667 144 214 67
-0.475938 0.394016 0.303835 33 166 133
-0.234900 0.467735 -0.139665 68 1 84
-0.034097 0.466996 -0.252817 68 1 84
-0.434122 0.047597 -0.090628 39 124 142
0.371679 -0.060922 -0.131181 35 135 141
-0.593632 -0.188361 0.079171 33 142 140
-0.182508 0.156519 -0.241058 68 1 84
0.379810 -0.369460 -0.215883 68 1 84
0.488522 0.311960 0.140367 46 109 142
-0.076119 0.607725 -0.135775 68 1 84
-0.705549 -0.504481 0.410386 45 110 142
-0.451259 0.421954 0.225397 42 118 142
-0.296403 -0.310480 -0.197262 68 1 84
0.450345 0.395454 0.306410 48 104 141
0.305152 0.381125 -0.105657 68 1 84
-0.532368 0.248970 0.157861 154 216 60
-0.485260 0.231284 0.044946 30 153 138
-0.529190 0.057078 0.026731 31 163 134
-0.345288 -0.508243 -0.294938 68 1 84
0.579555 -0.022884 0.137095 30 154 137
-0.041423 -0.047889 -0.464112 60 77 138
0.143547 -0.301639 -0.209387 68 1 84
0.252581 0.505930 -0.092112 68 1 84
0.665113 -0.414441 0.249080 71 17 99
0.181611 0.037888 -0.206389 68 1 84
-0.183176 0.254776 -0.195640 68 1 84
0.293902 0.346228 -0.127437 68 1 84
0.298479 0.457775 -0.071702 68 1 84
-0.381754 -0.296895 -0.144202 68 1 84
-0.455211 -0.092657 -0.088225 48 103 141
0.605510 -0.492992 0.058893 68 1 84
0.101384 -0.057249 -0.351274 67 59 131
0.043204 0.085788 -0.326311 68 1 84
-0.632207 -0.284080 0.135861 51 97 141
0.087356 -0.124832 -0.331464 70 11 94
0.010849 0.452504 -0.246784 68 1 84
0.463087 0.133723 -0.028581 53 92 140
-0.062793 0.038570 -0.343937 69 5 88
0.514310 -0.282680 -0.008447 72 34 115
-0.118623 -0.335801 -0.239681 68 1 84
0.612903 -0.278138 0.126945 58 82 139
-0.551655 0.212050 0.518138 73 193 109
0.131077 -0.033717 -0.279114 68 1 84
0.435655 0.187877 -0.046714 58 83 139
0.409447 -0.052549 -0.108306 43 116 142
-0.421385 -0.420220 -0.209585 71 43 122
-0.604453 -0.062636 0.151490 34 167 132
0.627261 -0.368600 0.133517 72 26 108
0.639404 -0.257786 0.455179 43 115 142
-0.315982 0.248772 -0.141438 68 1 84
-0.422289 0.326737 0.004859 64 67 135
0.600731 -0.024854 0.208464 37 171 129
0.597430 -0.316347 0.082497 61 76 137
-0.100001 0.344310 -0.223483 68 1 84
-0.210992 -0.026929 -0.204179 68 1 84
-0.055505 0.550005 -0.246962 68 1 84
-0.158371 -0.141686 -0.215589 68 1 84
0.391184 0.464364 0.210448 72 28 110
0.700752 -0.548903 0.402355 71 42 121
0.427143 0.424531 0.279391 58 82 139
0.064333 -0.351794 -0.327140 68 3 87
0.351211 0.359682 -0.071818 68 1 84
0.333640 0.504292 0.063363 68 1 84
0.140368 -0.363285 -0.275453 68 1 84
-0.603842 0.051558 0.473478 191 223 36
0.618030 -0.174448 0.187008 39 124 142
0.105829 0.126724 -0.263856 68 1 84
-0.687067 -0.525616 0.268480 54 91 140
-0.651865 -0.209963 0.459651 47 179 123
-0.633074 -0.126388 0.481941 157 217 58
-0.244077 -0.329422 -0.229852 68 1 84
-0.098766 0.461093 -0.237170 68 1 84
0.164612 0.506006 -0.181578 68 1 84
0.018405 0.614335 -0.151908 68 1 84
-0.647682 -0.357984 0.153495 41 121 142
0.125693 0.355549 -0.212583 68 1 84
0.601143 0.025134 0.261743 30 158 136
0.423387 -0.196778 -0.085272 71 38 118
0.472069 -0.324726 -0.064698 68 1 84
0.042859 -0.150303 -0.393958 62 72 136
0.081512 0.088855 -0.280987 68 1 84
-0.445854 -0.512778 -0.203872 72 32 113
-0.027432 0.350514 -0.217712 68 1 84
0.131814 0.043161 -0.317233 71 37 117
-0.622590 -0.124720 0.174587 34 167 132
0.626809 -0.209763 0.202635 49 100 141
-0.219252 0.546897 -0.092320 68 1 84
