ply
format ascii 1.0
element vertex 1248
property float x
property float y
property float z
property uchar red
property uchar green
property uchar blue
end_header
-0.348800 -0.461983 -0.259219 72 34 115
-0.467360 0.414901 0.414245 112 206 86
-0.669816 -0.520876 0.320697 46 178 124
-0.070196 -0.308085 -0.317495 68 1 84
-0.013276 0.639755 -0.121467 68 1 84
0.404652 0.048895 -0.146602 42 119 142
0.618868 -0.182897 0.259598 31 162 134
0.644067 -0.319908 0.353001 44 177 125
0.589439 0.179510 0.366325 144 214 67
-0.434577 -0.287181 -0.115841 67 59 131
0.545899 0.149747 0.128561 31 146 140
0.555868 0.293529 0.345558 96 201 96
0.613980 -0.397163 0.197576 38 172 129
0.493692 0.305874 0.114176 34 137 141
-0.358827 0.239218 -0.116172 68 1 84
0.006264 0.086321 -0.368140 68 1 84
0.156370 -0.037140 -0.246833 68 1 84
0.418002 -0.445417 -0.184171 38 127 142
0.204908 0.602586 -0.012393 71 21 103
-0.090221 -0.277010 -0.300737 68 1 84
0.573575 0.121372 0.218156 57 185 118
0.481262 -0.187758 -0.080012 34 138 141
0.657375 -0.330292 0.447916 136 213 71
-0.347887 -0.513005 -0.278460 68 1 84
-0.636369 -0.345206 0.221570 41 175 127
-0.575274 0.137377 0.234241 39 173 128
-0.611041 -0.076116 0.232586 44 177 125
-0.659975 -0.335023 0.376344 44 177 125
0.327406 -0.091899 -0.173098 48 104 141
0.004168 -0.426364 -0.344642 68 1 84
-0.582957 0.084056 0.248707 51 182 121
0.621719 -0.048710 0.414383 50 181 122
-0.128901 -0.078137 -0.345430 68 1 84
0.646940 -0.283116 0.494051 129 211 76
-0.343677 -0.204290 -0.180717 71 38 118
-0.098281 0.404072 -0.192995 68 1 84
-0.632729 -0.521631 0.186946 30 153 138
-0.380708 0.397439 0.033754 55 88 140
-0.172980 0.035291 -0.255641 68 1 84
-0.231826 -0.412989 -0.267160 68 1 84
0.119638 -0.355699 -0.222940 68 1 84
-0.670941 -0.337986 0.486811 50 181 122
-0.277357 0.500079 -0.025978 68 1 84
0.619358 -0.037591 0.524238 146 215 65
0.250037 0.177844 -0.197287 68 1 84
-0.457028 0.412196 0.184407 44 113 142
-0.620170 -0.204210 0.167005 35 169 130
0.022770 0.081762 -0.345760 68 1 84
0.084081 -0.310963 -0.220036 68 1 84
0.592239 -0.380659 0.120291 47 179 123
0.519643 -0.397788 -0.022194 35 168 131
-0.257886 0.528460 -0.029203 68 1 84
0.402091 0.394125 0.041967 65 65 134
0.639286 -0.299776 0.320371 134 212 73
-0.655085 -0.384944 0.338268 51 182 121
0.655268 -0.443543 0.324283 73 193 109
0.445170 -0.427373 -0.146088 31 146 140
-0.015778 0.354519 -0.259247 68 1 84
-0.044976 0.442763 -0.196929 68 1 84
-0.385766 0.498092 0.282617 32 143 140
-0.587027 0.111694 0.491092 75 194 108
0.098938 0.523323 -0.193657 68 1 84
-0.342008 0.229229 -0.134716 68 1 84
-0.093384 0.267973 -0.256392 68 1 84
-0.354506 -0.036082 -0.180063 68 1 84
-0.029070 -0.301909 -0.345460 68 1 84
-0.575130 0.230174 0.350123 43 177 125
-0.172596 -0.427104 -0.308764 68 1 84
0.682466 -0.487596 0.365430 114 207 85
-0.573076 0.128745 0.528917 54 184 119
0.081665 -0.268692 -0.221417 68 1 84
-0.144882 0.180667 -0.248100 68 1 84
-0.180467 0.124977 -0.225854 68 1 84
-0.122450 -0.192525 -0.286437 68 1 84
-0.652914 -0.241136 0.492155 59 186 117
0.576391 0.233339 0.316895 126 210 78
-0.327296 -0.052806 -0.184521 68 1 84
-0.529469 0.247714 0.144177 30 151 138
0.081404 -0.315261 -0.223112 68 1 84
0.273759 0.137029 -0.196489 68 1 84
0.591815 0.090427 0.312892 39 173 128
-0.067820 -0.099471 -0.445495 68 1 84
0.139171 0.051902 -0.304341 68 1 84
-0.355852 0.518913 0.195133 38 127 142
0.485190 -0.396139 -0.073624 30 156 137
-0.281484 0.564051 0.136370 61 74 137
0.466202 0.366030 0.122252 31 147 139
-0.513308 -0.454032 -0.116819 56 87 140
0.583187 -0.212616 0.113267 31 163 134
-0.340325 0.356379 -0.053422 68 1 84
-0.236433 -0.270228 -0.203153 68 1 84
-0.689334 -0.556394 0.461683 68 190 112
-0.039738 -0.186363 -0.406995 68 1 84
0.363156 0.402805 -0.005141 68 1 84
0.647432 -0.295955 0.427785 56 185 118
0.348920 0.401199 -0.022995 72 28 110
0.016791 0.247243 -0.318710 68 1 84
-0.355779 0.084353 -0.184225 68 1 84
-0.036690 0.077048 -0.362664 68 1 84
-0.383045 -0.304584 -0.160345 68 1 84
-0.158987 0.027309 -0.347388 68 1 84
-0.124632 -0.040025 -0.420102 68 1 84
-0.344129 -0.352250 -0.234568 72 25 107
0.525355 -0.114791 -0.022882 30 156 137
0.564730 -0.479825 0.052105 51 182 121
-0.012699 0.267616 -0.284489 68 1 84
-0.187583 0.337760 -0.145851 68 1 84
0.075723 0.308854 -0.250304 68 1 84
-0.597313 -0.259924 0.089179 30 153 138
-0.057765 0.079353 -0.325890 68 1 84
0.449803 0.133471 -0.076637 48 103 141
0.248690 -0.202398 -0.189260 72 29 111
-0.125499 0.513717 -0.171722 68 1 84
-0.272965 0.385836 -0.085115 68 1 84
0.228939 -0.039236 -0.213190 68 1 84
-0.095184 -0.151688 -0.371448 68 1 84
0.318816 -0.524338 -0.273411 61 76 137
-0.138476 -0.356671 -0.249022 68 1 84
0.279606 -0.345211 -0.193993 68 1 84
-0.567237 0.194384 0.497125 77 194 107
0.501617 0.071932 -0.019608 40 122 142
0.580527 0.148923 0.258162 51 182 121
-0.201013 0.285766 -0.142522 68 1 84
0.080600 0.258953 -0.266423 68 1 84
0.581637 -0.218600 0.107841 38 172 129
0.568467 0.246766 0.272441 50 181 122
-0.428390 0.456702 0.204787 37 130 142
-0.249594 -0.295187 -0.194519 68 1 84
-0.588998 0.061865 0.534638 114 207 85
0.389595 0.203401 -0.104069 72 34 115
0.373972 0.395909 0.002787 68 1 84
0.405376 0.404614 0.058041 57 84 139
-0.308660 0.187013 -0.174161 68 1 84
-0.344738 0.524695 0.166145 39 124 142
-0.555710 0.295501 0.367078 59 186 117
-0.618526 -0.420599 0.144358 30 158 136
0.585517 0.152215 0.292568 56 185 118
-0.164786 0.491412 -0.145084 68 1 84
-0.029979 0.063632 -0.451402 68 1 84
0.419073 0.132769 -0.112748 51 97 141
0.259562 0.565076 0.067643 63 69 135
0.267930 -0.012524 -0.207055 68 55 129
0.116011 0.035688 -0.336015 68 1 84
0.607948 -0.233562 0.186909 79 195 105
0.650332 -0.309016 0.465738 83 197 103
-0.684165 -0.484370 0.429114 32 165 133
0.200717 0.415292 -0.137817 68 1 84
0.635035 -0.338073 0.267357 42 176 126
-0.572464 0.241370 0.386664 68 190 112
-0.138035 -0.087214 -0.303085 68 1 84
-0.683071 -0.505037 0.406373 37 171 129
0.220548 -0.199728 -0.192587 69 5 88
-0.122832 0.531269 -0.170769 68 1 84
0.471917 -0.325832 -0.062882 30 156 137
0.352612 -0.463409 -0.237906 70 47 124
-0.654639 -0.258189 0.376413 51 182 121
-0.614512 -0.162253 0.157281 40 174 127
-0.346610 -0.127985 -0.170383 72 32 113
-0.581584 0.164298 0.291676 59 186 117
-0.360782 0.107512 -0.177692 68 1 84
0.229974 -0.309056 -0.189022 72 30 112
0.471176 -0.349596 -0.070774 30 151 138
0.582809 0.116441 0.530135 105 204 91
0.579576 -0.297925 0.095590 40 174 127
-0.512467 0.346973 0.220562 33 142 140
0.599417 0.095835 0.392381 44 177 125
-0.166049 -0.470893 -0.339273 68 1 84
-0.536641 0.186551 0.118471 30 159 136
-0.114981 -0.136029 -0.337108 68 1 84
0.036187 -0.312777 -0.306457 68 1 84
0.324116 0.519618 0.141601 58 82 139
-0.308439 0.548886 0.162298 61 76 137
-0.055558 -0.190769 -0.397547 68 1 84
-0.609987 -0.004245 0.504736 91 200 98
-0.574327 0.210556 0.292594 48 180 122
-0.407002 -0.350765 -0.209728 72 29 111
0.278457 0.457328 -0.063136 71 15 98
-0.563171 0.084858 0.137918 43 177 125
0.255496 0.552345 -0.030964 71 18 101
-0.554232 0.165360 0.162595 33 166 133
-0.136599 0.161639 -0.253479 68 1 84
-0.155703 0.594086 -0.110145 68 1 84
0.564425 0.270766 0.312681 42 176 126
0.219456 0.384868 -0.125863 68 1 84
-0.338069 0.505485 0.084911 67 58 131
0.531767 -0.025116 0.007432 31 146 140
0.013017 0.324397 -0.260756 68 1 84
0.630654 -0.201468 0.310041 105 204 91
0.080758 0.510200 -0.201180 68 1 84
0.050747 -0.249325 -0.316065 68 1 84
-0.131047 -0.148203 -0.298293 68 1 84
0.052252 0.573581 -0.189846 68 1 84
0.530740 0.334508 0.290943 47 179 123
0.199527 0.601946 -0.046964 72 25 107
0.094579 -0.275632 -0.209653 68 1 84
0.529804 -0.403021 -0.007043 30 160 135
-0.604923 -0.374772 0.103053 31 162 134
0.347667 -0.030260 -0.176901 46 108 142
0.076653 0.639685 -0.100067 72 26 108
0.325899 0.224406 -0.139418 68 1 84
0.570925 -0.021576 0.181811 30 151 138
0.293481 0.536515 0.071543 68 55 129
0.644581 -0.172311 0.522244 165 218 53
-0.650418 -0.261036 0.345114 56 185 118
0.647587 -0.236754 0.489475 149 215 63
-0.601670 -0.038186 0.235383 42 176 126
0.458285 -0.148904 -0.108557 42 118 142
0.590587 0.162164 0.430777 151 216 62
0.236553 0.373363 -0.115447 68 1 84
-0.341292 -0.271993 -0.184891 68 1 84
0.000135 0.627397 -0.146796 68 1 84
0.394302 -0.317374 -0.129918 42 118 142
0.582667 0.114355 0.532259 162 218 55
0.468441 0.358330 0.117836 30 157 136
0.328492 0.515573 0.135571 56 87 140
-0.115891 0.065590 -0.293576 68 1 84
0.109271 -0.026513 -0.388618 68 1 84
0.137669 -0.333304 -0.202748 68 1 84
-0.420847 -0.079481 -0.151964 69 53 128
0.389615 0.473038 0.177338 42 118 142
0.457003 0.208654 -0.026786 45 110 142
-0.557728 -0.265707 0.015273 33 142 140
0.499623 0.060810 -0.026889 38 128 142
0.575779 -0.541370 0.076038 36 132 141
0.613848 -0.377307 0.198443 62 188 115
-0.064457 0.548531 -0.192778 68 1 84
0.642729 -0.170427 0.445132 129 211 76
0.354057 0.008206 -0.179178 61 74 137
0.535334 -0.460528 -0.006189 40 174 127
0.148790 0.366266 -0.178314 68 1 84
-0.339995 0.318107 -0.078978 68 1 84
0.424117 -0.302367 -0.102742 48 104 141
-0.578148 0.198691 0.309299 46 178 124
-0.577693 -0.433971 0.035521 37 131 141
-0.358026 -0.527687 -0.273836 68 1 84
0.616195 -0.028927 0.399898 69 191 111
-0.141464 -0.359663 -0.250173 68 1 84
-0.618938 -0.178608 0.171403 40 174 127
0.277307 0.311367 -0.110338 68 1 84
-0.290376 -0.174075 -0.187284 68 1 84
-0.562118 0.032089 0.063497 31 162 134
0.342899 0.504755 0.135016 45 110 142
-0.621440 -0.085484 0.311028 37 171 129
0.563724 0.174800 0.193806 35 169 130
-0.606897 -0.045740 0.268510 35 168 131
-0.635468 -0.289754 0.224295 39 173 128
0.135187 0.442548 -0.171748 68 1 84
-0.303923 -0.357284 -0.237072 68 1 84
0.565610 0.215577 0.226074 40 174 127
-0.207498 -0.184726 -0.193553 68 1 84
-0.542107 0.086670 0.043049 32 144 140
0.287451 0.334639 -0.099987 68 1 84
0.580866 0.082595 0.248928 36 134 141
0.045534 0.463314 -0.204968 68 1 84
0.677208 -0.504852 0.346698 98 202 95
0.550760 -0.447428 0.025569 36 170 130
0.077372 -0.316661 -0.226955 68 1 84
0.521721 0.349670 0.330550 109 206 88
0.642952 -0.170465 0.446690 146 215 65
-0.505103 -0.255692 -0.050423 30 154 137
-0.318058 0.031605 -0.200500 68 1 84
-0.306156 -0.050846 -0.190448 68 1 84
0.232801 0.312836 -0.116357 68 1 84
-0.187706 0.481443 -0.127596 68 1 84
-0.558569 0.011941 0.035386 31 161 135
0.593588 -0.198345 0.152231 32 164 133
0.594083 -0.253439 0.141686 42 176 126
-0.524114 -0.182310 -0.051877 31 148 139
0.442640 -0.073922 -0.118220 32 145 140
-0.614356 -0.323395 0.135283 47 179 123
-0.441202 0.452743 0.307177 35 168 131
0.556540 0.004089 0.110379 31 150 139
0.307829 0.085570 -0.195019 69 6 90
-0.410782 0.478645 0.250553 33 141 140
-0.524771 -0.204960 -0.043538 30 157 136
0.641633 -0.253543 0.433111 57 185 118
-0.635866 -0.126519 0.435083 61 187 116
-0.143010 -0.451777 -0.338475 68 1 84
-0.612026 -0.403838 0.123535 30 159 136
-0.360374 0.233937 -0.118553 68 1 84
0.276475 -0.222872 -0.187419 67 59 131
0.447781 -0.206159 -0.106174 31 161 135
-0.532998 0.278717 0.510827 96 201 96
0.520116 0.154115 0.059685 38 127 142
-0.423292 0.171362 -0.106371 65 65 134
-0.160070 -0.315436 -0.206740 68 1 84
0.608989 -0.027392 0.357434 56 185 118
-0.621603 -0.057038 0.508601 40 174 127
0.508189 0.352538 0.224127 56 185 118
-0.073885 -0.439965 -0.348113 68 1 84
0.351023 -0.246379 -0.162290 44 114 142
-0.525086 0.314038 0.482513 71 192 110
-0.676230 -0.514579 0.360054 36 170 130
0.394703 0.306776 -0.037013 68 57 130
-0.123951 0.217165 -0.274108 68 1 84
-0.343920 0.426686 0.005800 70 49 126
-0.552483 -0.514678 -0.047511 42 119 142
-0.236537 0.523209 -0.062831 68 1 84
-0.262413 0.574172 0.118324 65 65 134
0.683080 -0.390442 0.449257 215 226 25
-0.593207 -0.269201 0.080901 32 164 133
0.511623 0.359128 0.272037 48 180 122
-0.323032 0.417369 -0.027466 68 1 84
-0.454793 0.438061 0.251042 38 129 142
0.310627 0.366749 -0.075470 68 1 84
0.600633 0.094695 0.410634 79 195 105
-0.060778 -0.293701 -0.334861 68 1 84
0.563117 0.042088 0.167106 30 155 137
-0.194921 0.077142 -0.216360 68 1 84
0.519799 0.091411 0.026730 35 135 141
-0.189786 0.257342 -0.200756 68 1 84
0.183733 0.492324 -0.147665 68 1 84
0.573487 0.247491 0.340490 146 215 65
-0.594825 -0.017200 0.219277 57 185 118
-0.641915 -0.188241 0.284067 30 157 136
0.030289 0.461042 -0.206246 68 1 84
0.448333 -0.388428 -0.121196 30 153 138
-0.293430 -0.016041 -0.201187 68 1 84
-0.635350 -0.137648 0.310241 41 175 127
0.596117 0.022240 0.317552 44 177 125
-0.564548 0.203782 0.224533 30 160 135
-0.596618 -0.448254 0.078748 32 144 140
-0.492732 -0.255674 -0.062542 32 145 140
-0.245123 -0.141419 -0.186202 68 1 84
-0.486088 -0.458378 -0.156242 56 86 139
0.600534 0.098158 0.449503 100 203 93
-0.104652 0.012499 -0.450046 68 1 84
-0.077191 -0.080210 -0.452712 68 1 84
-0.099180 -0.238181 -0.310383 68 1 84
0.611513 -0.521007 0.185367 31 146 140
0.395187 -0.085010 -0.150364 38 127 142
-0.180841 0.390986 -0.145401 68 1 84
0.500270 -0.446120 -0.075323 30 155 137
-0.370198 0.504386 0.168973 41 121 142
0.386552 0.443295 0.074090 53 92 140
-0.046598 0.056620 -0.370798 68 1 84
-0.187953 0.582784 -0.077455 68 1 84
0.210004 0.506763 -0.123745 68 1 84
0.655783 -0.326181 0.431669 71 192 110
-0.672559 -0.268139 0.461716 62 188 115
-0.017021 0.368144 -0.252672 68 1 84
0.402528 0.351181 0.005563 69 50 127
-0.468231 0.115290 -0.083956 63 71 136
-0.641335 -0.355677 0.246456 34 167 132
0.550837 0.303426 0.324482 61 187 116
0.051545 0.257971 -0.287685 68 1 84
0.623746 -0.232388 0.228578 112 206 86
0.301086 0.221613 -0.157170 68 1 84
0.613910 0.018961 0.450656 94 201 97
0.199640 0.565971 -0.108023 68 1 84
-0.589813 -0.220104 0.071191 30 155 137
0.348805 -0.528643 -0.256561 69 50 127
-0.382193 0.105238 -0.166678 68 1 84
0.275738 -0.111144 -0.180431 66 61 132
0.546338 -0.246504 0.024871 30 154 137
-0.083974 0.033741 -0.326391 68 1 84
-0.563654 0.022126 0.060761 31 163 134
0.414186 -0.391228 -0.159091 39 126 142
0.077129 0.027573 -0.396365 68 1 84
0.605921 -0.494965 0.165806 38 172 129
-0.499428 -0.232815 -0.062539 30 158 136
0.630039 -0.081437 0.494758 107 205 89
0.475954 -0.402640 -0.090585 33 142 140
0.544654 0.309954 0.289027 50 181 122
0.646217 -0.275254 0.495427 151 216 62
-0.360286 0.267770 -0.094084 68 1 84
-0.332032 0.436733 -0.002004 68 1 84
0.641728 -0.160130 0.539399 159 217 56
0.675117 -0.383927 0.411824 103 204 92
0.045684 0.493177 -0.208934 68 1 84
0.520988 0.146924 0.057881 33 141 140
-0.086469 -0.092392 -0.436095 68 1 84
-0.088202 -0.457536 -0.351281 68 1 84
-0.136645 -0.051027 -0.374813 68 1 84
-0.653610 -0.244003 0.500653 56 185 118
-0.207385 0.602620 0.060367 72 34 115
-0.373942 -0.098900 -0.167118 71 20 102
0.497454 -0.546310 -0.088438 37 131 141
0.475348 0.238836 0.023307 54 91 140
0.240091 -0.338021 -0.194167 69 6 90
-0.524121 0.202961 0.098034 31 147 139
0.078043 0.023319 -0.340967 68 1 84
-0.336294 -0.475305 -0.274189 68 1 84
-0.237194 0.177618 -0.200890 68 1 84
-0.174739 0.403875 -0.147612 68 1 84
0.419861 0.002549 -0.135783 47 105 141
0.391237 -0.311871 -0.130877 47 106 141
0.624273 -0.292979 0.220725 50 181 122
-0.071190 0.468020 -0.194042 68 1 84
-0.550823 -0.451154 -0.039597 40 122 142
-0.186964 0.412798 -0.137916 68 1 84
0.241339 0.541100 -0.073952 70 9 92
0.144583 0.001829 -0.334236 68 1 84
0.354401 0.219371 -0.122035 69 54 129
-0.576165 0.028959 0.141153 42 176 126
-0.591778 -0.523645 0.051652 34 139 141
-0.011797 -0.242764 -0.380725 68 1 84
-0.519968 0.155959 0.042957 34 138 141
0.505725 0.353926 0.216146 43 177 125
-0.308857 0.245131 -0.146702 68 1 84
0.472315 -0.146215 -0.095800 35 135 141
0.002243 -0.276266 -0.356787 68 1 84
-0.158868 -0.349541 -0.230045 68 1 84
0.590254 -0.339264 0.119273 48 180 122
0.151352 0.626649 -0.047336 70 45 124
0.630658 -0.170170 0.340402 64 189 114
0.345640 0.232734 -0.121167 70 48 125
-0.477701 0.223411 0.014213 54 90 140
-0.566458 0.179446 0.215781 37 171 129
-0.223954 0.194091 -0.203180 68 1 84
0.342088 -0.513808 -0.260087 71 39 119
-0.614720 -0.122679 0.186677 57 185 118
0.619666 -0.338353 0.217684 69 191 111
0.458898 0.414883 0.301689 39 173 128
0.384954 0.042845 -0.161608 43 115 142
-0.623152 -0.058243 0.489392 57 185 118
-0.557509 0.231221 0.217820 30 160 135
-0.068880 -0.103987 -0.442053 68 1 84
-0.556015 0.291827 0.313492 51 182 121
0.256019 0.565375 0.032526 67 59 131
-0.621157 -0.058823 0.519769 54 184 119
-0.576251 0.142863 0.507272 73 193 109
0.330829 -0.080799 -0.173817 47 105 141
0.606318 -0.267931 0.175905 62 188 115
-0.005651 -0.074104 -0.474705 68 1 84
-0.554875 0.273960 0.262162 31 149 139
0.647270 -0.228824 0.507594 151 216 62
-0.506434 -0.528696 -0.133842 62 72 136
0.569725 -0.210460 0.075092 30 160 135
-0.506466 -0.459848 -0.129572 57 85 139
0.181041 0.023396 -0.224722 68 1 84
0.449202 -0.386632 -0.119314 30 154 137
0.449070 0.410370 0.154242 34 137 141
0.546098 -0.039616 0.042654 30 154 137
-0.171703 0.299534 -0.159455 68 1 84
0.173849 -0.331243 -0.194988 68 1 84
-0.531286 0.027411 -0.021526 31 146 140
0.490101 -0.390209 -0.063744 31 146 140
0.557190 -0.023130 0.096708 32 145 140
-0.376480 -0.167172 -0.162717 68 57 130
0.545259 0.269522 0.489965 157 217 58
-0.689533 -0.531198 0.463781 50 181 122
-0.275600 -0.360625 -0.238974 68 1 84
-0.581332 0.025554 0.184818 36 170 130
0.614771 -0.274637 0.195731 42 176 126
0.180745 0.613391 -0.045965 70 49 126
-0.587663 0.131188 0.466620 79 195 105
0.578411 0.054402 0.235770 31 150 139
0.636753 -0.269632 0.304667 105 204 91
0.055480 -0.310530 -0.259847 68 1 84
-0.396175 -0.343149 -0.225210 72 25 107
-0.428917 0.112914 -0.128346 72 29 111
-0.288752 -0.076536 -0.187271 68 1 84
-0.517520 -0.457468 -0.110572 47 105 141
0.379104 0.130232 -0.146873 53 92 140
-0.644281 -0.416676 0.294190 31 162 134
0.568285 0.028484 0.188110 37 131 141
-0.482611 0.050246 -0.090677 48 104 141
0.241068 0.575083 -0.006123 70 12 95
-0.168485 0.277344 -0.190083 68 1 84
0.273958 0.410526 -0.081006 68 1 84
0.557612 -0.027295 0.096196 31 146 140
0.698912 -0.580312 0.418041 50 181 122
0.356434 0.108785 -0.167796 68 57 130
0.227740 0.231589 -0.179710 68 1 84
-0.550131 -0.047209 -0.012381 43 177 125
0.107869 0.207786 -0.288385 68 1 84
-0.541624 0.297160 0.236951 46 178 124
0.654231 -0.320327 0.430654 64 189 114
-0.307840 0.404123 -0.051294 68 1 84
0.464680 0.302141 0.058937 45 110 142
-0.123714 0.572500 -0.156944 68 1 84
-0.611790 -0.032757 0.553766 43 177 125
0.113482 0.635756 -0.078286 68 57 130
-0.597627 -0.066776 0.145270 50 181 122
0.043376 -0.316150 -0.293087 68 1 84
0.049308 0.066462 -0.317950 68 1 84
-0.395646 0.160417 -0.136195 68 1 84
-0.244728 -0.397813 -0.251931 68 1 84
0.617723 -0.135052 0.305863 48 180 122
0.561557 0.222972 0.217491 36 170 130
-0.236170 0.496062 -0.076832 68 1 84
-0.583807 0.171179 0.329745 61 187 116
-0.601507 0.002394 0.567857 59 186 117
-0.282029 0.497864 -0.020779 70 9 92
-0.109276 0.256497 -0.272144 68 1 84
0.487689 -0.516986 -0.111485 43 115 142
-0.349394 0.175936 -0.159047 68 1 84
0.065138 -0.408662 -0.308282 68 1 84
-0.324679 -0.067421 -0.181459 70 12 95
0.284420 -0.193060 -0.181059 56 86 139
-0.555800 0.205362 0.190474 32 164 133
-0.128002 0.571916 -0.153973 68 1 84
-0.412942 0.154397 -0.124459 72 29 111
-0.361796 0.243865 -0.110816 68 1 84
0.495722 -0.402383 -0.061184 33 140 141
-0.595505 0.088668 0.364890 61 187 116
0.559822 0.055691 0.152854 30 154 137
0.383349 0.341052 -0.028807 71 17 99
0.543764 -0.537343 0.006415 30 151 138
0.583355 -0.172595 0.122375 44 177 125
0.586707 -0.442640 0.106221 66 190 113
-0.113597 0.569514 -0.164999 68 1 84
-0.571905 -0.251196 0.037175 30 154 137
-0.515318 0.216380 0.086799 36 134 141
0.565531 0.167281 0.197010 50 181 122
0.213160 -0.374700 -0.248040 68 1 84
0.112093 0.610772 -0.138036 68 1 84
-0.598424 -0.074107 0.140984 42 176 126
-0.026273 0.516019 -0.206571 68 1 84
0.299369 -0.146517 -0.175166 60 78 138
-0.405564 0.063243 -0.159963 69 8 91
0.261766 0.125205 -0.202008 68 1 84
0.145342 -0.133089 -0.234549 68 1 84
0.637762 -0.131827 0.553642 253 231 36
0.518006 -0.502006 -0.047799 31 150 139
-0.637208 -0.185241 0.250059 42 176 126
-0.653075 -0.343817 0.331756 41 175 127
0.014042 0.588600 -0.184466 68 1 84
-0.447278 0.396987 0.141251 41 120 142
-0.381338 0.007679 -0.174253 69 5 88
-0.227508 -0.090156 -0.206212 68 1 84
-0.670972 -0.384506 0.439760 62 188 115
0.548441 0.112333 0.121397 35 135 141
-0.633613 -0.252286 0.217707 62 188 115
0.124130 -0.255096 -0.200201 68 1 84
-0.311238 0.548914 0.203239 40 123 142
0.191977 0.390358 -0.143696 68 1 84
-0.619598 -0.382883 0.149004 41 175 127
0.407123 -0.305244 -0.116108 43 116 142
0.440752 0.249868 -0.021832 70 49 126
-0.078103 0.529008 -0.192044 68 1 84
-0.150875 -0.060940 -0.283141 68 1 84
0.625490 -0.069124 0.558075 231 228 25
-0.618765 -0.362254 0.146820 30 157 136
-0.159805 -0.380185 -0.261178 68 1 84
0.083458 0.232723 -0.304596 68 1 84
-0.650676 -0.358845 0.327414 38 172 129
0.500086 0.370455 0.372389 56 185 118
-0.556779 -0.057657 -0.001273 30 156 137
0.371947 -0.508143 -0.241533 72 28 110
0.149093 -0.064152 -0.252525 68 1 84
-0.200397 0.443283 -0.122665 68 1 84
-0.590437 -0.395663 0.068173 30 151 138
-0.555987 0.287056 0.293891 41 175 127
-0.597767 0.035345 0.529209 105 204 91
-0.305267 -0.086602 -0.181221 68 1 84
-0.090345 -0.084547 -0.438463 68 1 84
-0.558250 0.268186 0.444452 64 189 114
0.493394 0.382908 0.288605 53 183 120
0.585036 0.202016 0.367285 149 215 63
0.546277 0.030591 0.072977 31 147 139
-0.609057 -0.541983 0.091411 30 160 135
0.089527 -0.162564 -0.305774 68 1 84
0.037936 -0.055485 -0.473046 68 1 84
-0.664222 -0.306341 0.405957 59 186 117
0.031439 0.325776 -0.260180 68 1 84
0.587870 0.064968 0.285730 31 162 134
-0.615351 -0.384827 0.134403 41 175 127
-0.611335 0.018254 0.427248 89 199 100
0.440815 0.248060 -0.022990 69 50 127
0.567357 -0.128355 0.082594 42 176 126
0.543342 0.295696 0.438488 178 221 44
-0.047675 -0.179230 -0.407021 68 1 84
-0.043740 -0.307707 -0.338150 68 1 84
0.620415 -0.435440 0.222805 41 175 127
-0.330545 -0.215027 -0.187085 72 33 114
0.467093 0.041031 -0.082476 51 96 141
0.442696 0.093229 -0.099701 51 97 141
-0.413706 0.476692 0.297655 30 160 135
0.545097 -0.258978 0.023724 30 156 137
0.119511 -0.160834 -0.252928 68 1 84
0.536191 -0.162421 -0.002075 30 159 136
-0.111881 -0.108540 -0.369360 68 1 84
-0.591395 -0.016266 0.191473 53 183 120
-0.615449 -0.045235 0.547080 57 185 118
0.541585 0.308540 0.264717 42 176 126
0.360039 0.348210 -0.050712 71 22 105
-0.230829 -0.156707 -0.189005 68 1 84
0.523112 -0.488187 -0.036124 33 167 132
-0.627058 -0.104665 0.294395 50 181 122
-0.612037 -0.259463 0.130896 31 148 139
0.606616 -0.355093 0.171910 64 189 114
-0.208486 -0.351356 -0.218205 68 1 84
0.134459 0.093113 -0.245545 68 1 84
0.523596 0.257497 0.137640 36 132 141
-0.617742 -0.285480 0.147648 30 160 135
-0.223037 0.420456 -0.109751 68 1 84
-0.563065 -0.186842 0.011938 36 132 141
-0.327802 -0.187570 -0.182805 72 29 111
-0.434322 0.455472 0.343819 64 189 114
-0.146861 0.393159 -0.168856 68 1 84
-0.640494 -0.518998 0.221137 30 157 136
0.572681 -0.177470 0.087747 38 172 129
-0.184449 -0.018058 -0.234034 68 1 84
-0.332371 0.536062 0.215085 31 150 139
0.295701 0.278539 -0.126088 68 1 84
0.326970 0.392559 -0.048867 72 28 110
0.198665 -0.205137 -0.195035 68 1 84
0.626230 -0.516200 0.227760 56 185 118
-0.556192 -0.176186 -0.002791 30 153 138
0.638846 -0.260468 0.340196 112 206 86
-0.418003 -0.361962 -0.197355 64 67 135
-0.230153 -0.349017 -0.216850 68 1 84
-0.485093 0.379158 0.199126 34 138 141
0.128445 0.302104 -0.213355 68 1 84
0.173526 -0.335544 -0.198546 68 1 84
-0.407802 -0.246566 -0.142955 60 77 138
-0.285912 -0.320945 -0.188313 68 1 84
0.379489 0.483535 0.207329 34 137 141
-0.184094 0.272140 -0.187739 68 1 84
0.603905 -0.290563 0.167081 40 174 127
-0.038957 -0.475504 -0.356659 68 1 84
0.602494 0.085857 0.426026 64 189 114
0.572404 -0.089632 0.125203 37 171 129
-0.635068 -0.134310 0.327409 40 174 127
0.537863 -0.029165 0.021741 36 134 141
0.553569 -0.039254 0.070838 30 156 137
0.000585 -0.215659 -0.392925 68 1 84
0.299739 -0.368790 -0.233937 71 24 106
-0.309988 -0.195034 -0.187777 69 8 91
0.562791 0.270797 0.396625 119 208 82
-0.564474 0.224136 0.479182 89 199 100
-0.180017 -0.267578 -0.197602 68 1 84
0.630503 -0.236799 0.256863 50 181 122
0.046960 -0.126462 -0.409301 68 1 84
-0.101615 0.546173 -0.179366 68 1 84
-0.177343 -0.268020 -0.197468 68 1 84
-0.664551 -0.374002 0.382799 51 182 121
-0.229191 0.338678 -0.114997 68 1 84
0.665103 -0.464350 0.335335 83 197 103
0.187247 0.463445 -0.145670 68 1 84
-0.605230 -0.012114 0.324844 50 181 122
0.577023 0.030556 0.226887 34 137 141
-0.576961 0.214376 0.335263 42 176 126
-0.577156 -0.259427 0.047807 31 148 139
-0.304268 0.459300 -0.019537 68 1 84
0.125079 0.021212 -0.358771 68 1 84
0.101389 -0.429427 -0.306157 68 1 84
0.319948 -0.028842 -0.187531 58 82 139
0.002353 0.277683 -0.262283 68 1 84
-0.144078 -0.090440 -0.288916 68 1 84
0.356798 0.444365 0.025432 65 65 134
0.520526 -0.120263 -0.031684 32 165 133
0.175784 0.081296 -0.222944 68 1 84
0.385151 -0.000342 -0.161401 44 112 142
-0.171496 -0.278656 -0.196521 68 1 84
0.132688 0.239118 -0.262826 68 1 84
-0.691443 -0.536336 0.435835 59 186 117
0.589406 -0.208916 0.133444 35 169 130
-0.332141 0.093435 -0.191902 68 1 84
0.502747 -0.364364 -0.036416 40 174 127
0.109452 0.206984 -0.286895 68 1 84
-0.076572 0.533365 -0.191958 68 1 84
-0.147298 0.628962 -0.030809 72 30 112
-0.578160 0.109807 0.527590 44 177 125
0.120159 -0.184025 -0.229992 68 1 84
0.469497 -0.019351 -0.088177 45 111 142
-0.597576 -0.176708 0.091322 30 160 135
0.122951 -0.166201 -0.243062 68 1 84
-0.041941 -0.007468 -0.492805 68 1 84
-0.472727 0.420997 0.265902 37 131 141
-0.632510 -0.541372 0.183325 35 169 130
-0.173876 -0.302511 -0.195240 68 1 84
-0.645615 -0.220096 0.288987 44 177 125
0.634890 -0.190839 0.366697 94 201 97
0.090508 0.342286 -0.241306 68 1 84
-0.494635 0.139124 -0.027470 44 113 142
0.634760 -0.115830 0.555510 215 226 25
0.342285 0.201540 -0.139603 68 2 85
0.297199 0.537413 0.111125 55 88 140
-0.136027 -0.094806 -0.305416 68 1 84
-0.154637 -0.263065 -0.202394 68 1 84
-0.587444 0.155941 0.374245 87 198 101
0.212275 0.573793 -0.083661 69 5 88
0.057570 0.243626 -0.309886 68 1 84
-0.659633 -0.427115 0.336212 41 175 127
0.465628 -0.519362 -0.146847 46 109 142
-0.430302 0.459972 0.230057 37 130 142
-0.122206 0.088272 -0.279617 68 1 84
0.421490 0.447554 0.195365 31 163 134
0.492862 -0.113639 -0.072868 30 158 136
0.191821 0.175695 -0.220912 68 1 84
-0.580957 0.177231 0.306109 64 189 114
-0.090895 -0.124069 -0.401751 68 1 84
0.286531 0.339507 -0.098479 68 1 84
-0.224558 0.437546 -0.103568 68 1 84
0.584699 0.051167 0.265137 47 179 123
0.172119 0.620008 -0.020419 71 38 118
-0.647664 -0.259003 0.296407 54 184 119
0.644791 -0.412125 0.308085 91 200 98
0.040274 0.039847 -0.460528 68 1 84
-0.559364 0.214148 0.504656 89 199 100
0.101143 0.046176 -0.309427 68 1 84
-0.623036 -0.369473 0.162144 30 160 135
0.173038 0.007783 -0.230680 68 1 84
0.524283 0.088428 0.035621 32 145 140
0.356286 -0.034388 -0.172913 54 90 140
0.584134 -0.403879 0.097970 30 153 138
0.194801 0.074110 -0.217831 68 1 84
0.389609 0.083726 -0.152057 45 111 142
-0.463878 0.381424 0.155015 40 122 142
0.312372 -0.429832 -0.241723 63 71 136
0.069563 0.572463 -0.187345 68 1 84
0.433586 0.115615 -0.103642 48 104 141
0.541538 -0.041807 0.027869 30 159 136
0.515780 -0.458571 -0.047869 30 157 136
-0.480956 -0.440152 -0.155974 58 83 139
0.384185 -0.105018 -0.155456 34 138 141
-0.245752 0.288231 -0.137220 68 1 84
-0.357721 0.299696 -0.073725 68 1 84
0.504714 0.011182 -0.034810 30 153 138
0.518046 -0.333999 -0.013007 36 170 130
0.496771 -0.011454 -0.052293 32 145 140
-0.624920 -0.208784 0.187020 36 170 130
0.603898 0.041945 0.377583 35 168 131
-0.083558 -0.336546 -0.298467 68 1 84
-0.303459 0.549437 0.132579 61 75 137
-0.034690 0.410863 -0.202333 68 1 84
-0.542474 0.284140 0.477631 42 176 126
-0.014197 0.646633 -0.100667 71 40 120
0.521957 -0.408570 -0.021241 30 154 137
0.343497 0.483846 0.056479 58 83 139
0.085143 0.571461 -0.183506 68 1 84
-0.448472 -0.121084 -0.134626 59 81 138
-0.563133 0.061402 0.103032 30 155 137
-0.386221 -0.379046 -0.238202 65 65 134
0.566258 0.263154 0.392287 129 211 76
-0.264859 0.571730 0.108253 67 58 131
-0.671445 -0.350519 0.494874 44 177 125
0.662037 -0.348183 0.449739 107 205 89
-0.393394 0.320126 -0.012264 71 42 121
0.193292 -0.467522 -0.307929 68 1 84
0.557276 -0.391220 0.041061 31 163 134
-0.610308 -0.311745 0.124179 31 162 134
0.261357 0.545094 -0.029152 72 35 116
0.191051 -0.332232 -0.198397 68 1 84
0.415808 -0.064254 -0.137699 37 130 142
0.383179 -0.149608 -0.153028 41 121 142
-0.063596 -0.417985 -0.339446 68 1 84
-0.638523 -0.148894 0.544800 53 183 120
0.058389 -0.052002 -0.461558 68 1 84
0.563034 -0.042089 0.113548 31 146 140
0.001410 -0.264162 -0.364348 68 1 84
-0.387594 0.329132 -0.012411 70 14 97
-0.501609 0.185681 0.026499 35 135 141
-0.531290 0.100171 0.023854 35 137 141
0.370668 0.182782 -0.130579 67 59 131
0.356904 -0.479445 -0.241913 72 29 111
0.009285 0.106918 -0.340240 68 1 84
-0.448475 0.412027 0.163887 45 110 142
0.536106 0.235630 0.151643 35 137 141
-0.112610 0.594655 -0.150122 68 1 84
-0.503245 -0.449034 -0.130823 56 86 139
0.283945 -0.389458 -0.248275 72 26 108
0.620320 -0.036009 0.417380 53 183 120
0.541636 0.090884 0.088793 31 161 135
0.138567 0.585584 -0.148079 68 1 84
0.462292 -0.080365 -0.102248 39 126 142
-0.631200 -0.152583 0.247194 54 184 119
0.406098 0.448920 0.126506 44 114 142
0.151273 0.004375 -0.296432 68 1 84
-0.078214 -0.154006 -0.396587 68 1 84
-0.644354 -0.208762 0.278529 35 168 131
0.110134 0.413133 -0.181754 68 1 84
-0.475911 -0.510425 -0.172939 60 78 138
-0.574280 -0.327309 0.043268 30 152 138
-0.679106 -0.446634 0.404921 64 189 114
-0.127775 0.118449 -0.260672 68 1 84
0.580902 0.193694 0.455441 210 225 27
-0.455009 0.315394 0.066318 50 98 141
0.630321 -0.363259 0.248083 40 174 127
-0.520141 0.027971 -0.042505 34 138 141
-0.452248 -0.123707 -0.132024 58 82 139
0.259061 0.555390 -0.009928 71 21 103
0.587062 -0.436734 0.106923 68 190 112
-0.497789 -0.132251 -0.095046 35 135 141
-0.087501 -0.137343 -0.396730 68 1 84
0.484305 0.236567 0.038683 52 95 141
-0.653111 -0.307633 0.315564 47 179 123
-0.118839 -0.318112 -0.237358 68 1 84
0.188269 0.609154 -0.047639 71 44 123
0.069286 -0.115922 -0.377561 68 1 84
0.271182 0.147299 -0.195626 68 1 84
-0.481584 -0.422520 -0.146640 60 77 138
0.138524 -0.332269 -0.201579 68 1 84
-0.575483 -0.053212 0.053253 38 172 129
0.627492 -0.183010 0.306745 61 187 116
-0.314112 0.131421 -0.189369 68 1 84
0.032360 0.416876 -0.200034 68 1 84
0.049090 0.327630 -0.258660 68 1 84
-0.341482 0.468587 0.040526 71 24 106
0.484623 0.391683 0.281520 42 176 126
-0.282180 0.518126 -0.001882 68 1 84
-0.319737 0.223859 -0.152072 68 1 84
-0.459170 0.224964 -0.015747 66 61 132
-0.075684 -0.357861 -0.309474 68 1 84
0.085715 0.258997 -0.263309 68 1 84
-0.623468 -0.295829 0.168260 30 151 138
-0.053047 0.530289 -0.199334 68 1 84
0.085420 -0.447014 -0.325250 68 1 84
0.643956 -0.361460 0.327403 53 183 120
-0.181079 -0.196936 -0.197937 68 1 84
0.001944 0.233087 -0.330667 68 1 84
-0.164157 0.171635 -0.234926 68 1 84
-0.226139 0.579879 -0.006542 68 55 129
-0.510161 0.103490 -0.022273 42 117 142
0.527176 -0.413974 -0.013890 30 155 137
0.607510 0.031802 0.486058 141 214 68
0.624072 -0.047772 0.428988 62 188 115
0.074070 0.202560 -0.314734 68 1 84
-0.352507 -0.326500 -0.186885 68 1 84
-0.338675 -0.471093 -0.270445 68 1 84
0.238478 -0.214758 -0.192558 71 15 98
0.348917 -0.406515 -0.214046 57 85 139
-0.264284 0.211312 -0.183268 68 1 84
0.674615 -0.573983 0.334555 94 201 97
-0.616990 -0.495856 0.131361 30 152 138
0.542819 0.292054 0.450941 154 216 60
-0.011052 0.557192 -0.198438 68 1 84
0.512482 0.188984 0.062912 48 104 141
-0.231932 0.100481 -0.209246 68 1 84
0.550470 -0.090790 0.040997 31 162 134
-0.407155 0.280534 -0.031446 67 60 132
0.037859 0.028498 -0.351694 68 1 84
0.390647 -0.036519 -0.154811 40 122 142
-0.224097 -0.049752 -0.217280 68 1 84
0.141442 0.011388 -0.343096 68 1 84
0.457302 0.020555 -0.097583 50 99 141
0.389424 -0.029263 -0.156147 44 114 142
0.313999 -0.499787 -0.270647 67 59 131
0.632116 -0.093687 0.490320 131 211 75
-0.639020 -0.155815 0.345422 41 175 127
0.050823 -0.156408 -0.379018 68 1 84
-0.135142 -0.202738 -0.245284 68 1 84
-0.579763 0.206721 0.361909 51 182 121
0.538113 0.204285 0.134438 38 127 142
-0.475219 0.050740 -0.099507 47 106 141
-0.104105 -0.426277 -0.332943 68 1 84
-0.482193 0.364959 0.172387 37 131 141
-0.003073 0.123734 -0.335980 68 1 84
0.572481 0.131814 0.214474 39 173 128
0.696172 -0.557289 0.392175 68 190 112
-0.350969 0.433208 0.021662 71 37 117
-0.193262 -0.481065 -0.334810 68 1 84
-0.492381 -0.140890 -0.099044 34 139 141
0.530444 0.326881 0.400188 107 205 89
-0.488412 -0.170083 -0.096182 40 122 142
0.220308 0.235249 -0.180700 68 1 84
-0.126408 0.349433 -0.209804 68 1 84
0.468303 0.296004 0.059557 39 125 142
-0.391324 0.004218 -0.169297 68 3 87
-0.196747 -0.349053 -0.217220 68 1 84
0.243691 0.161893 -0.202937 68 1 84
0.541534 0.136845 0.109695 42 119 142
-0.172957 0.191937 -0.229121 68 1 84
0.076125 0.218798 -0.313455 68 1 84
-0.517701 -0.478922 -0.115968 46 107 142
-0.432225 0.379250 0.093323 44 113 142
-0.607514 -0.025696 0.329199 41 175 127
0.344275 0.326970 -0.077974 68 1 84
0.328720 0.338518 -0.081753 68 1 84
0.096992 -0.481689 -0.336647 68 1 84
-0.563446 0.243229 0.461385 69 191 111
0.265755 -0.353898 -0.236517 68 1 84
0.144208 0.049949 -0.287311 68 1 84
0.314813 -0.351723 -0.209225 71 17 99
-0.063245 0.643768 -0.103118 68 1 84
0.532871 -0.433066 -0.007038 31 161 135
-0.638812 -0.144183 0.528958 77 194 107
-0.394456 -0.022735 -0.165802 72 32 113
-0.539495 0.331531 0.338924 56 185 118
-0.089524 -0.331224 -0.290690 68 1 84
-0.047455 0.207052 -0.327382 68 1 84
-0.014648 0.327953 -0.262033 68 1 84
0.677347 -0.510346 0.345432 75 194 108
-0.257396 -0.242192 -0.203212 68 1 84
-0.465193 0.092266 -0.098746 65 66 134
-0.536904 -0.345411 -0.017182 31 150 139
-0.625696 -0.177456 0.204676 42 176 126
-0.516747 -0.111633 -0.073825 33 140 141
-0.204129 0.311533 -0.130142 68 1 84
0.031939 0.242768 -0.319798 68 1 84
0.654481 -0.341057 0.396241 89 199 100
0.082935 -0.022937 -0.442149 68 1 84
0.586049 0.164896 0.305608 87 198 101
0.362776 0.179462 -0.137370 69 54 129
0.628081 -0.102093 0.404737 64 189 114
0.461634 -0.495708 -0.150256 38 128 142
-0.423251 -0.325445 -0.150873 68 57 130
0.413330 -0.157178 -0.139245 39 124 142
-0.620536 -0.081028 0.370479 79 195 105
-0.525110 0.282010 0.531901 85 198 102
0.581628 0.207752 0.418892 175 220 46
0.163379 0.593716 -0.120568 68 1 84
0.556867 0.286230 0.299284 62 188 115
-0.089449 0.644829 -0.075202 71 21 103
0.151059 0.563342 -0.153969 68 1 84
-0.583518 -0.466365 0.043400 31 147 139
-0.339980 0.327036 -0.072847 68 1 84
-0.071830 0.646151 -0.087144 68 1 84
0.529044 0.335660 0.368545 83 197 103
0.414307 0.202938 -0.081100 69 53 128
0.649748 -0.448700 0.307780 69 191 111
0.626854 -0.319548 0.235830 91 200 98
0.177216 0.040433 -0.222644 68 1 84
-0.497387 0.112477 -0.040059 43 116 142
-0.650512 -0.265716 0.333223 61 187 116
-0.585467 0.030863 0.223073 40 174 127
-0.644580 -0.381962 0.284413 34 167 132
0.142354 0.036212 -0.323995 68 1 84
-0.363334 -0.347712 -0.229407 72 34 115
-0.023220 0.187119 -0.326705 68 1 84
-0.070866 -0.121454 -0.427934 68 1 84
-0.085778 -0.087892 -0.440114 68 1 84
0.081715 -0.331585 -0.228313 68 1 84
0.582382 -0.020570 0.237132 47 179 123
0.329651 -0.076380 -0.174835 48 104 141
0.607670 -0.342083 0.177417 46 178 124
-0.543485 -0.392314 -0.027823 35 135 141
0.082562 -0.460982 -0.333820 68 1 84
-0.156278 -0.118774 -0.264801 68 1 84
-0.269431 0.558816 0.051133 69 52 127
0.164837 0.068793 -0.226245 68 1 84
0.276757 -0.392142 -0.251103 68 1 84
-0.587811 0.024769 0.231692 50 181 122
-0.650381 -0.292606 0.302527 42 176 126
0.398578 0.298967 -0.037211 61 74 137
0.537255 -0.353311 0.011682 85 198 102
-0.141457 0.002854 -0.398939 68 1 84
0.303548 0.456790 -0.034662 68 1 84
-0.563405 -0.128465 0.004469 31 150 139
0.577982 -0.076034 0.171133 48 180 122
0.628364 -0.072579 0.499709 121 209 81
-0.102325 0.632373 -0.106884 68 1 84
-0.438761 0.446614 0.210855 42 117 142
-0.368093 0.152115 -0.159631 68 1 84
0.515990 0.199293 0.077934 32 144 140
-0.001599 0.385333 -0.230163 68 1 84
0.658043 -0.332633 0.484821 112 206 86
0.473137 -0.545691 -0.131928 58 82 139
0.569664 -0.426688 0.064092 30 158 136
0.285656 0.523533 -0.004691 72 32 113
-0.588744 0.147045 0.425891 79 195 105
0.599213 -0.132642 0.216564 30 155 137
-0.637268 -0.349350 0.225231 56 185 118
0.620811 -0.250102 0.212859 83 197 103
-0.568900 0.038146 0.103087 34 167 132
0.229324 -0.062025 -0.206769 68 1 84
-0.132374 0.630105 -0.077164 69 6 90
0.288505 0.541950 0.083232 67 58 131
0.528254 0.013473 0.010540 33 141 140
-0.399987 -0.440766 -0.221316 64 68 135
-0.083935 0.144127 -0.297389 68 1 84
-0.555389 0.040677 0.046677 30 153 138
0.566544 -0.007837 0.166154 31 148 139
-0.468999 0.067606 -0.102412 55 89 140
-0.129366 0.480063 -0.169964 68 1 84
-0.628038 -0.248039 0.192106 44 177 125
0.433690 0.354444 0.054571 52 94 141
-0.448292 0.354547 0.094938 51 97 141
-0.648151 -0.537711 0.253865 35 168 131
-0.640255 -0.167023 0.353311 48 180 122
0.292460 0.526058 0.020805 67 60 132
0.299961 -0.192844 -0.177021 55 88 140
-0.392050 -0.399596 -0.221379 67 60 132
-0.487713 0.407566 0.318125 39 173 128
-0.477790 -0.269600 -0.076079 42 119 142
0.184640 -0.031589 -0.230528 68 1 84
0.640242 -0.235711 0.421042 51 182 121
-0.236354 -0.030360 -0.215499 68 1 84
0.615321 0.011411 0.446612 105 204 91
0.521411 -0.247042 -0.013425 34 139 141
-0.528291 -0.008444 -0.041118 30 157 136
-0.593063 -0.454260 0.069028 32 145 140
-0.661243 -0.298103 0.363979 56 185 118
0.312156 -0.259208 -0.186500 59 80 138
0.673459 -0.380345 0.412652 136 213 71
-0.012272 0.575305 -0.189994 68 1 84
0.235878 0.100989 -0.210396 68 1 84
0.585164 -0.387099 0.101001 50 181 122
0.214902 -0.219482 -0.195176 72 35 116
-0.421256 0.042548 -0.150294 71 38 118
-0.252521 -0.461302 -0.305782 68 1 84
-0.574163 -0.355630 0.039936 30 158 136
-0.276645 0.029807 -0.211238 68 1 84
0.577255 0.095724 0.232255 38 172 129
0.119109 0.579099 -0.164075 68 1 84
0.506243 0.353235 0.430277 61 187 116
0.346324 0.374087 -0.045848 68 1 84
0.489758 -0.545615 -0.104281 49 101 141
0.173104 0.605078 -0.091091 68 1 84
0.567505 -0.150714 0.077397 46 178 124
-0.519955 0.075279 -0.019332 39 126 142
-0.421162 -0.059006 -0.151251 56 86 139
0.112158 -0.048681 -0.345583 68 1 84
0.017591 0.231514 -0.328894 68 1 84
-0.103892 -0.100251 -0.401205 68 1 84
-0.529150 -0.372752 -0.042701 39 126 142
-0.535450 0.315125 0.241937 30 156 137
0.617412 -0.176775 0.259419 31 162 134
-0.198011 0.285408 -0.144324 68 1 84
0.441345 0.430659 0.215336 31 148 139
0.509095 0.363639 0.280179 48 180 122
0.134660 0.090756 -0.245470 68 1 84
0.201110 0.600980 -0.045985 71 24 106
0.592156 0.040679 0.304753 30 154 137
0.320112 -0.147973 -0.170658 40 122 142
-0.106509 -0.057010 -0.439022 68 1 84
0.016247 -0.262300 -0.358013 68 1 84
0.321945 -0.289962 -0.181125 62 73 137
0.128810 0.357853 -0.203096 68 1 84
0.702198 -0.419194 0.422640 175 220 46
0.452429 -0.483124 -0.158491 39 124 142
0.061698 -0.413206 -0.313552 68 1 84
0.594433 0.139983 0.432173 114 207 85
-0.146234 0.443776 -0.160896 68 1 84
-0.470821 -0.168752 -0.110972 42 119 142
-0.595235 0.053387 0.518237 124 210 79
-0.610229 -0.166701 0.137511 54 184 119
-0.182429 -0.433272 -0.311025 68 1 84
-0.577913 0.126787 0.513780 57 185 118
-0.643276 -0.353833 0.260966 43 177 125
-0.127896 -0.072219 -0.362814 68 1 84
-0.082224 -0.223237 -0.358047 68 1 84
-0.101546 -0.170800 -0.346847 68 1 84
0.355858 0.065386 -0.176946 62 72 136
0.601926 -0.430805 0.152510 62 188 115
0.308317 0.135238 -0.183623 69 5 88
0.469860 0.404566 0.317939 39 173 128
0.466183 0.409421 0.268627 31 163 134
0.394942 0.373396 0.012453 71 39 119
-0.557777 0.268938 0.270625 31 163 134
-0.618731 -0.291319 0.150988 31 161 135
-0.227223 -0.364592 -0.228244 68 1 84
0.536254 -0.400138 0.004040 31 162 134
0.622537 -0.027994 0.472781 81 196 104
-0.548037 0.311450 0.308576 30 158 136
-0.124359 -0.304960 -0.226605 68 1 84
-0.563037 0.212589 0.224614 30 157 136
-0.488329 0.167664 -0.016846 39 124 142
-0.226164 0.273091 -0.159818 68 1 84
0.174445 0.258121 -0.193685 68 1 84
0.640378 -0.260355 0.406549 87 198 101
0.533631 0.314448 0.429331 157 217 58
-0.519824 0.046087 -0.035233 37 130 142
-0.632306 -0.128894 0.284641 59 186 117
0.181636 -0.400224 -0.249195 68 1 84
-0.536666 -0.423776 -0.059945 41 121 142
0.050054 0.230046 -0.322798 68 1 84
0.076105 0.072617 -0.299029 68 1 84
0.173583 0.042094 -0.223757 68 1 84
0.600858 0.078512 0.386306 39 173 128
-0.554687 0.292134 0.298644 36 170 130
0.641579 -0.403108 0.292447 37 171 129
-0.411369 -0.524925 -0.236358 65 66 134
-0.627687 -0.533698 0.164655 41 175 127
0.595113 0.033032 0.317060 38 172 129
0.344424 0.056492 -0.183771 57 85 139
-0.402951 -0.402651 -0.212564 69 50 127
0.506586 -0.441430 -0.060886 31 149 139
-0.583122 0.090392 0.525583 94 201 97
0.402308 -0.338970 -0.135674 35 137 141
-0.136366 0.382048 -0.181623 68 1 84
-0.604740 -0.019623 0.308526 62 188 115
0.466815 -0.319470 -0.067028 30 151 138
0.065438 0.431313 -0.193453 68 1 84
-0.419399 -0.011119 -0.151231 60 78 138
0.455774 0.229568 -0.014891 49 102 141
0.257825 -0.135155 -0.181808 71 17 99
0.509535 0.139140 0.025347 49 101 141
0.433008 -0.330920 -0.102646 35 136 141
-0.213140 0.475336 -0.105299 68 1 84
-0.136200 -0.024486 -0.404345 68 1 84
0.533380 0.327638 0.277544 41 175 127
-0.202915 0.508264 -0.107177 68 1 84
0.605664 0.060875 0.468382 119 208 82
0.128834 0.538732 -0.177246 68 1 84
-0.631638 -0.481709 0.189242 32 164 133
-0.494010 -0.366942 -0.096187 58 83 139
0.626865 -0.143681 0.349980 89 199 100
0.146903 0.011086 -0.330287 68 1 84
-0.100017 -0.120586 -0.387003 68 1 84
-0.619918 -0.137152 0.203723 42 176 126
0.521831 -0.028678 -0.014064 31 147 139
0.557698 0.236241 0.215941 47 179 123
-0.591660 -0.434865 0.068501 31 148 139
0.040517 0.470667 -0.207087 68 1 84
0.571262 0.207767 0.484609 157 217 58
0.102308 0.036842 -0.322528 68 1 84
0.640403 -0.271010 0.349037 121 209 81
0.557304 0.180015 0.175361 73 193 109
-0.079350 0.598882 -0.164857 68 1 84
-0.038519 0.153579 -0.325647 68 1 84
-0.033636 0.075545 -0.392043 68 1 84
-0.022125 0.240735 -0.326438 68 1 84
0.578202 0.146488 0.520679 178 221 44
0.620330 -0.158431 0.292890 57 185 118
-0.083817 0.051525 -0.302067 68 1 84
0.561339 -0.486315 0.044297 40 174 127
-0.010324 0.388434 -0.225812 68 1 84
-0.426730 -0.295249 -0.123052 72 29 111
-0.000036 -0.476476 -0.354366 68 1 84
0.002491 -0.143573 -0.431588 68 1 84
0.199781 0.211809 -0.206705 68 1 84
0.160156 0.325066 -0.180845 68 1 84
0.424200 -0.188449 -0.126654 38 128 142
0.043684 -0.155286 -0.389221 68 1 84
-0.540546 0.147558 0.096976 33 167 132
-0.637749 -0.149035 0.390304 46 178 124
-0.524616 0.351403 0.386195 59 186 117
0.496375 -0.441032 -0.080030 30 159 136
0.128561 0.270326 -0.213697 68 1 84
0.198203 0.476751 -0.137770 68 1 84
0.651608 -0.338962 0.385172 51 182 121
-0.688229 -0.548725 0.427901 57 185 118
0.607370 -0.034999 0.343317 39 173 128
0.068195 0.579285 -0.183798 68 1 84
-0.224319 -0.389033 -0.247807 68 1 84
0.534335 0.024229 0.029781 40 122 142
0.529929 -0.249780 -0.001028 37 130 142
0.115493 0.125436 -0.261149 68 1 84
-0.500133 0.390019 0.277405 30 160 135
-0.539174 0.311045 0.249103 31 147 139
0.380451 -0.080827 -0.157324 36 133 141
-0.049421 0.609922 -0.163382 68 1 84
-0.584180 0.088971 0.258408 46 178 124
-0.024883 -0.334784 -0.331908 68 1 84
0.025888 -0.004413 -0.489190 68 1 84
0.449051 -0.208823 -0.104486 31 161 135
-0.577873 0.049017 0.191968 37 171 129
0.341526 0.472567 0.034738 64 68 135
-0.610777 -0.128270 0.158192 42 176 126
-0.161339 0.541304 -0.139111 68 1 84
0.551867 0.181458 0.159208 30 153 138
-0.342203 -0.289824 -0.181460 71 15 98
-0.410762 0.318920 0.009588 68 57 130
-0.152828 -0.045599 -0.300856 68 1 84
0.632180 -0.089664 0.472369 103 204 92
-0.098195 0.607943 -0.147466 68 1 84
-0.353498 0.318448 -0.064482 68 1 84
-0.296623 -0.082990 -0.183560 68 1 84
-0.290654 0.194343 -0.178765 68 1 84
-0.338828 -0.139580 -0.172401 72 29 111
0.207877 0.253980 -0.167005 68 1 84
0.186668 0.166923 -0.224324 68 1 84
0.118224 -0.054348 -0.307682 68 1 84
-0.589259 0.143030 0.375099 68 190 112
-0.271559 -0.086632 -0.188365 68 1 84
-0.225692 -0.451166 -0.309521 68 1 84
0.537720 0.316967 0.397963 121 209 81
-0.425784 -0.364065 -0.190876 64 68 135
-0.523567 0.119742 0.020158 39 125 142
0.300808 -0.140810 -0.174862 50 98 141
-0.493080 -0.298844 -0.060439 41 120 142
-0.468786 0.241780 0.017558 53 93 140
-0.574644 -0.259885 0.043071 30 151 138
0.378124 -0.019300 -0.164063 50 98 141
-0.287579 -0.301584 -0.188446 68 1 84
-0.397655 0.052593 -0.165914 68 2 85
-0.499549 0.010122 -0.079076 42 119 142
-0.648108 -0.267041 0.294872 48 180 122
-0.038309 0.229490 -0.327767 68 1 84
0.317164 -0.544265 -0.274297 68 1 84
-0.562079 -0.075375 0.006612 30 154 137
0.573791 -0.490843 0.072582 39 173 128
-0.075284 0.287831 -0.247484 68 1 84
0.489971 0.133623 -0.015594 47 106 141
0.624598 -0.046230 0.490391 100 203 93
-0.644194 -0.214733 0.531415 46 178 124
0.586050 -0.266525 0.115366 61 187 116
-0.368858 -0.343570 -0.218995 72 25 107
0.611845 -0.128271 0.279189 32 165 133
-0.632822 -0.100061 0.508239 51 182 121
-0.057919 -0.056966 -0.474954 68 1 84
0.381411 0.401337 0.017109 71 44 123
-0.282478 0.561662 0.121718 62 73 137
0.307747 -0.429130 -0.243381 69 50 127
-0.547449 -0.315228 0.001836 31 161 135
-0.541532 -0.075666 -0.035220 30 156 137
-0.032108 0.055782 -0.462704 68 1 84
0.144545 0.183550 -0.249659 68 1 84
0.218516 0.002792 -0.220109 68 1 84
-0.526486 -0.229270 -0.032983 39 126 142
-0.582983 -0.425636 0.049054 33 140 141
0.598861 0.089267 0.488830 98 202 95
0.439471 -0.114961 -0.125049 31 150 139
0.294567 -0.505332 -0.282338 70 9 92
-0.271829 0.560024 0.063969 71 39 119
0.497476 -0.085707 -0.063927 31 161 135
0.360183 0.488993 0.116199 56 87 140
-0.380916 0.176244 -0.139434 68 1 84
0.571468 -0.096976 0.115746 46 178 124
-0.212581 0.339093 -0.124035 68 1 84
0.521659 0.311409 0.190950 36 134 141
-0.598183 0.065732 0.354582 53 183 120
-0.129739 -0.010157 -0.421146 68 1 84
-0.627195 -0.088793 0.434851 37 171 129
0.118135 0.511943 -0.186401 68 1 84
-0.430167 -0.003307 -0.143660 61 75 137
-0.480512 -0.394186 -0.132223 61 76 137
0.560816 -0.456521 0.045159 47 179 123
0.614311 -0.016221 0.399463 48 180 122
0.417510 0.306773 -0.008314 55 89 140
-0.630786 -0.451334 0.188281 43 177 125
-0.119146 0.382501 -0.195633 68 1 84
-0.016696 0.159313 -0.325162 68 1 84
-0.612092 -0.004929 0.489622 83 197 103
-0.474170 0.418270 0.357401 36 170 130
0.399723 0.461127 0.148962 30 156 137
0.459044 -0.258191 -0.080804 37 130 142
-0.151169 0.464387 -0.157533 68 1 84
0.193597 0.013784 -0.223876 68 1 84
-0.556805 0.026748 0.040274 30 155 137
-0.413516 -0.421655 -0.205806 70 49 126
0.587999 -0.038603 0.253505 40 174 127
-0.498124 0.386458 0.388966 48 180 122
0.164172 0.454675 -0.160278 68 1 84
-0.524703 0.349979 0.392510 48 180 122
-0.116043 0.352425 -0.219136 68 1 84
-0.567840 0.121153 0.191990 30 160 135
0.067762 -0.272815 -0.239756 68 1 84
0.137957 0.108205 -0.243818 68 1 84
0.038925 0.254115 -0.302686 68 1 84
0.532085 -0.211003 -0.002885 30 154 137
0.599300 -0.220403 0.165916 42 176 126
0.533046 0.199456 0.118079 44 113 142
-0.218380 0.290402 -0.134658 68 1 84
0.407595 0.002130 -0.145912 38 128 142
0.645652 -0.484798 0.281377 69 191 111
-0.408444 -0.455010 -0.222791 63 69 135
-0.593990 -0.474045 0.067401 30 154 137
-0.342268 -0.189320 -0.178341 69 6 90
-0.153923 0.205971 -0.243995 68 1 84
-0.580259 0.151586 0.484779 81 196 104
-0.604270 -0.114254 0.135334 41 175 127
-0.572983 -0.463801 0.017543 30 156 137
-0.151918 0.359235 -0.178728 68 1 84
0.578052 -0.091531 0.154785 77 194 107
0.555929 -0.070642 0.064924 30 155 137
0.552705 0.299932 0.328968 62 188 115
0.059036 0.096494 -0.309934 68 1 84
-0.328023 0.385654 -0.045069 68 1 84
0.363485 -0.278428 -0.156404 48 103 141
0.573157 -0.083559 0.133505 71 192 110
0.504447 0.169240 0.032717 50 99 141
-0.183107 -0.351183 -0.221610 68 1 84
0.124538 -0.434072 -0.302836 68 1 84
