ply
format ascii 1.0
element vertex 1267
property float x
property float y
property float z
property uchar red
property uchar green
property uchar blue
end_header
-0.453327 0.441170 0.082720 68 1 84
0.483685 0.079445 -0.073210 36 133 141
-0.048375 -0.533548 -0.241423 173 220 48
0.451851 0.465899 0.160569 57 85 139
0.244007 -0.076370 -0.194845 62 72 136
-0.034218 0.356669 -0.303879 68 1 84
0.214251 -0.477083 -0.195025 59 186 117
0.603492 0.251155 0.405039 68 1 84
0.624346 -0.164321 0.070807 55 88 140
0.601756 0.034275 0.079757 45 110 142
-0.157470 -0.331532 -0.138614 34 137 141
0.556189 0.328525 0.232964 70 48 125
0.341061 -0.467581 -0.202396 71 192 110
-0.093371 0.108740 -0.356558 68 1 84
-0.420750 -0.071461 -0.122449 71 17 99
0.638861 0.015592 0.235955 70 48 125
-0.262502 -0.082814 -0.184078 72 28 110
-0.623213 -0.084270 0.463631 68 1 84
-0.132027 -0.426158 -0.147066 91 200 98
-0.601691 0.151858 0.177945 68 1 84
-0.145705 0.534427 -0.256380 68 1 84
0.274556 -0.133462 -0.182655 58 82 139
-0.533202 0.210329 0.074322 68 1 84
0.190222 0.536608 -0.132663 71 21 103
0.128514 0.545882 -0.187255 68 1 84
-0.316468 0.210207 -0.206305 68 1 84
-0.226047 0.547488 -0.188139 68 1 84
0.527199 0.020385 -0.057634 39 125 142
-0.065643 0.466699 -0.301966 68 1 84
-0.622095 -0.208167 0.520481 68 1 84
0.595476 0.234051 0.276911 72 30 112
0.310311 0.565518 0.097283 66 61 132
0.366447 -0.339672 -0.163645 35 135 141
-0.258362 -0.472384 -0.156838 53 183 120
0.546686 0.152303 0.045159 49 101 141
0.171206 -0.036514 -0.210481 68 1 84
-0.343458 0.219279 -0.177996 68 1 84
0.579481 -0.110930 -0.027561 40 122 142
-0.239346 0.477588 -0.188432 68 1 84
-0.642871 -0.193344 0.348562 68 1 84
0.478423 0.362979 0.081327 48 104 141
-0.389906 -0.016599 -0.131518 70 11 94
-0.521595 0.432496 0.265812 68 1 84
0.220454 -0.444528 -0.172443 71 192 110
0.537632 0.370589 0.463010 68 1 84
0.670801 -0.155203 0.219758 71 38 118
0.070971 0.404082 -0.263548 68 1 84
0.635119 0.075063 0.543326 68 1 84
-0.604826 -0.200769 0.085486 68 1 84
-0.402835 0.188234 -0.106685 68 1 84
-0.608610 0.240607 0.240321 68 1 84
-0.043898 0.284138 -0.379941 68 1 84
0.202229 -0.145073 -0.196962 70 49 126
-0.638439 -0.430113 0.393857 68 1 84
-0.480639 0.478316 0.303945 68 1 84
-0.544944 0.406422 0.416916 68 1 84
-0.577618 -0.575126 0.212941 68 1 84
0.236330 0.587485 0.006784 66 62 133
-0.517897 -0.432278 0.014215 64 67 135
-0.087810 -0.036656 -0.304963 68 1 84
-0.615221 -0.089143 0.115541 68 1 84
0.626392 0.132136 0.385203 72 26 108
0.422572 -0.579960 -0.186087 69 191 111
0.525136 0.390620 0.222324 69 50 127
-0.264804 0.533478 -0.151682 68 1 84
-0.647534 -0.222663 0.233458 68 1 84
0.671914 -0.283515 0.254714 71 15 98
0.470504 0.074227 -0.086658 39 125 142
0.388435 0.047658 -0.149782 41 120 142
0.152974 0.296424 -0.271631 68 1 84
0.106521 -0.168744 -0.289601 70 49 126
-0.462169 0.246770 -0.021447 68 1 84
-0.161557 0.299552 -0.327490 68 1 84
0.600773 0.227467 0.317477 71 40 120
-0.120834 -0.413023 -0.148021 46 178 124
0.286046 -0.536544 -0.226727 103 204 92
-0.402484 0.499482 0.070378 68 1 84
0.150200 -0.183106 -0.218651 68 57 130
0.294962 -0.561484 -0.235744 186 222 39
0.645755 -0.122535 0.137357 70 45 124
0.666919 -0.074536 0.276434 64 67 135
0.574400 -0.419402 0.007997 42 118 142
0.585618 0.039887 0.044339 43 115 142
-0.518770 0.417570 0.202096 68 1 84
0.603461 -0.346384 0.058328 44 114 142
0.611957 0.168619 0.278294 72 35 116
-0.528917 0.017585 -0.005237 68 1 84
-0.387171 0.479767 0.001037 68 1 84
0.181105 0.371374 -0.218560 68 1 84
0.493957 0.444274 0.224341 68 57 130
-0.227994 -0.017325 -0.196942 68 1 84
-0.206900 -0.528494 -0.195097 103 204 92
-0.365801 0.218795 -0.151178 68 1 84
-0.526311 0.025964 -0.005330 68 1 84
0.599221 -0.382677 0.053317 42 119 142
-0.627502 0.232372 0.380831 68 1 84
-0.618131 -0.381533 0.223338 68 1 84
0.072158 -0.017700 -0.307937 68 1 84
-0.298881 0.009714 -0.177492 68 1 84
-0.434204 -0.492862 -0.109828 36 170 130
0.521494 0.408621 0.400688 68 1 84
0.576861 -0.096673 -0.030504 46 107 142
0.271487 0.581791 0.064184 66 61 132
0.652710 -0.198482 0.160136 63 69 135
-0.493670 0.450542 0.217985 68 1 84
0.099513 0.418671 -0.237673 68 1 84
0.240731 0.166979 -0.232558 68 1 84
0.502461 0.442499 0.259153 67 58 131
0.281152 0.332165 -0.164084 63 71 136
0.064421 0.533134 -0.243097 68 1 84
0.681584 -0.212466 0.423113 68 1 84
-0.279291 0.080212 -0.218842 68 1 84
0.048929 -0.108536 -0.436761 68 1 84
-0.498502 -0.507418 -0.041143 37 131 141
0.454564 0.369745 0.048275 50 99 141
0.589603 -0.150076 -0.007843 49 101 141
0.529963 0.400652 0.280356 70 47 124
0.403221 0.530720 0.237057 71 43 122
-0.623966 0.223067 0.288930 68 1 84
0.613836 -0.478343 0.095595 41 120 142
0.128396 -0.151066 -0.256580 72 28 110
-0.162516 -0.529749 -0.205583 103 204 92
-0.612756 -0.185385 0.104005 68 1 84
-0.501722 0.367049 0.099595 68 1 84
0.454865 -0.420923 -0.137754 64 189 114
0.698832 -0.411539 0.459677 68 1 84
0.200828 0.598852 -0.029925 72 32 113
-0.481201 0.471271 0.263483 68 1 84
0.218992 0.598706 0.007635 71 43 122
-0.090989 -0.062134 -0.363389 68 1 84
0.549037 0.056488 -0.010242 41 121 142
-0.628701 0.142373 0.264401 68 1 84
0.642160 -0.546402 0.186740 51 97 141
0.254228 -0.372288 -0.158771 30 157 136
0.547924 0.137336 0.036802 38 128 142
0.526643 0.136552 0.003774 42 118 142
-0.076260 -0.191212 -0.344917 56 87 140
-0.282958 0.210490 -0.222648 68 1 84
-0.601213 0.130118 0.165179 68 1 84
-0.085162 0.208725 -0.334886 68 1 84
0.624413 -0.250697 0.089427 54 91 140
0.702182 -0.452976 0.462033 68 1 84
0.651238 0.016053 0.361299 68 1 84
0.020021 -0.046923 -0.422007 68 1 84
0.620860 0.041684 0.157894 53 93 140
0.459161 -0.484782 -0.161343 46 178 124
-0.643687 -0.233806 0.331977 68 1 84
-0.541659 -0.446125 0.054915 72 30 112
0.600260 0.063200 0.098486 43 116 142
0.593349 0.087247 0.099191 49 102 141
-0.606640 0.149167 0.539338 68 1 84
0.639120 0.008107 0.215055 64 68 135
0.104982 -0.527769 -0.241747 146 215 65
-0.556181 -0.479802 0.108665 68 1 84
-0.618882 0.258271 0.409928 68 1 84
0.644598 -0.000549 0.261798 64 67 135
0.338065 0.030483 -0.175238 49 101 141
-0.600245 0.240121 0.215165 68 1 84
0.189560 0.184789 -0.266923 68 1 84
-0.174733 0.551115 -0.227130 68 1 84
0.362310 0.126518 -0.147472 40 122 142
-0.643173 -0.220671 0.341879 68 1 84
-0.020966 0.181150 -0.344094 68 1 84
-0.625247 -0.385848 0.266916 68 1 84
-0.133698 -0.234640 -0.209811 47 105 141
0.315093 0.198363 -0.172177 70 47 124
-0.523196 -0.273248 -0.027823 67 59 131
-0.628791 0.149644 0.267728 68 1 84
-0.528397 -0.612708 0.074395 61 76 137
0.319735 -0.087887 -0.180309 53 92 140
0.266946 -0.411630 -0.159685 50 181 122
0.608060 0.206236 0.466959 68 1 84
-0.229167 -0.384716 -0.138974 32 164 133
-0.270528 0.488328 -0.157814 68 1 84
-0.577810 0.315205 0.211211 68 1 84
0.199350 0.366962 -0.206815 68 1 84
0.672520 -0.372789 0.321513 68 1 84
0.006721 -0.015855 -0.366843 68 1 84
0.683405 -0.349427 0.381989 68 1 84
-0.562319 0.202099 0.118271 68 1 84
-0.012348 0.596350 -0.239450 68 1 84
0.651019 -0.512612 0.230929 53 92 140
-0.608906 0.096345 0.169396 68 1 84
-0.060592 -0.075205 -0.430912 68 1 84
-0.312116 0.071637 -0.185884 68 1 84
-0.300869 -0.075010 -0.173365 72 34 115
-0.622274 -0.041615 0.480943 68 1 84
-0.637344 -0.003162 0.270620 68 1 84
0.481975 -0.008607 -0.112297 35 136 141
-0.431838 -0.018393 -0.105061 70 9 92
-0.422996 -0.249261 -0.106895 48 104 141
0.617729 0.150378 0.491368 68 1 84
0.487349 0.460271 0.259653 70 49 126
0.495439 0.438965 0.214808 68 57 130
-0.456600 -0.439379 -0.055994 40 122 142
0.485857 -0.119250 -0.130022 36 132 141
-0.547813 -0.577731 0.121092 68 55 129
-0.147678 -0.414781 -0.135770 46 178 124
0.362635 0.400301 -0.049889 49 102 141
0.240073 0.477120 -0.119792 72 34 115
0.479286 -0.370024 -0.084108 31 161 135
0.043151 -0.573216 -0.249951 151 216 62
0.398276 0.292487 -0.068160 42 119 142
-0.221691 0.589141 -0.154605 68 1 84
-0.409971 -0.382124 -0.075113 39 126 142
-0.635307 -0.296945 0.387179 68 1 84
-0.484384 -0.163065 -0.089471 63 71 136
0.653009 -0.004821 0.351767 68 1 84
-0.635962 -0.199578 0.396795 68 1 84
0.502541 0.421917 0.202432 64 68 135
0.303608 0.424216 -0.093856 48 103 141
0.491401 -0.451847 -0.127955 40 174 127
-0.633472 -0.041244 0.209600 68 1 84
-0.018333 -0.313209 -0.291295 30 159 136
0.016761 0.644339 -0.172925 68 1 84
0.617887 -0.450384 0.109980 55 89 140
0.641228 0.054171 0.489517 68 1 84
0.280153 0.263215 -0.193820 65 65 134
0.131711 -0.235339 -0.216044 58 82 139
-0.042313 -0.028172 -0.375382 68 1 84
0.571326 0.328852 0.337283 61 76 137
-0.609491 -0.006216 0.548238 68 1 84
0.653928 -0.333587 0.208857 70 48 125
0.568200 0.331563 0.309458 70 48 125
0.439479 0.481831 0.166367 62 73 137
-0.038682 0.240964 -0.369778 68 1 84
-0.345529 -0.322815 -0.132364 31 146 140
0.678630 -0.346685 0.346743 71 17 99
-0.578494 -0.491740 0.186582 68 1 84
-0.620283 0.209881 0.263096 68 1 84
-0.528059 -0.444209 0.028689 62 73 137
-0.588032 -0.069690 0.053258 68 1 84
-0.625075 0.244224 0.384132 68 1 84
0.568182 0.107630 0.054422 50 99 141
-0.094359 0.357871 -0.298356 68 1 84
-0.437674 0.031765 -0.086446 68 1 84
-0.581799 -0.112650 0.030696 68 1 84
-0.231183 0.557489 -0.176965 68 1 84
-0.616084 -0.063512 0.124810 68 1 84
0.664870 -0.084100 0.501992 68 1 84
-0.620395 -0.048791 0.487071 68 1 84
-0.204983 -0.333255 -0.142413 30 160 135
-0.099319 -0.085416 -0.400106 68 1 84
-0.267831 0.559736 -0.124118 68 1 84
-0.338154 0.545277 0.017397 68 1 84
-0.529905 -0.054141 -0.029900 69 8 91
0.184593 -0.540911 -0.250014 183 221 41
-0.400575 0.512196 0.113157 68 1 84
0.603815 -0.477994 0.065990 40 122 142
0.044967 0.645804 -0.150708 68 1 84
-0.229132 0.527663 -0.193329 68 1 84
-0.617905 -0.138692 0.116050 68 1 84
0.132118 -0.219581 -0.222675 66 61 132
0.557268 0.349173 0.415654 68 1 84
-0.371523 -0.439934 -0.102029 31 146 140
-0.635616 -0.300003 0.384537 68 1 84
-0.373614 0.164174 -0.143158 68 1 84
-0.637988 -0.406571 0.367988 68 1 84
0.455798 -0.570117 -0.161674 98 202 95
-0.029257 -0.127391 -0.448068 68 1 84
-0.638169 0.014817 0.370481 68 1 84
0.550107 -0.230658 -0.043814 50 98 141
-0.578800 0.166501 0.132178 68 1 84
-0.076247 -0.217031 -0.312589 46 108 142
0.370430 -0.098334 -0.171587 52 94 141
-0.557723 0.099190 0.063018 68 1 84
-0.573994 0.234677 0.153715 68 1 84
-0.409257 -0.014568 -0.119147 71 17 99
0.032855 0.191062 -0.336223 68 1 84
-0.614350 -0.248820 0.129575 68 1 84
-0.634106 -0.227291 0.400815 68 1 84
-0.350800 0.321276 -0.135115 68 1 84
-0.625013 -0.151923 0.482669 68 1 84
0.650195 -0.145024 0.149484 68 57 130
-0.393855 -0.354697 -0.102330 34 137 141
0.598276 0.258542 0.367480 71 17 99
0.592786 0.167833 0.175877 60 78 138
0.340202 0.363081 -0.098895 53 93 140
-0.637517 -0.327663 0.344851 68 1 84
0.682337 -0.182473 0.337688 68 1 84
0.158475 0.277876 -0.261354 68 1 84
-0.225366 0.122076 -0.276901 68 1 84
0.402438 0.372038 -0.022507 41 121 142
0.423058 0.321257 -0.024799 41 120 142
-0.424708 -0.442203 -0.071426 39 125 142
0.023853 0.189338 -0.338274 68 1 84
-0.560199 0.334427 0.186993 68 1 84
0.407507 -0.041235 -0.159334 48 103 141
0.111664 -0.462800 -0.200764 89 199 100
-0.639573 -0.024373 0.303570 68 1 84
0.219395 0.319198 -0.209616 68 1 84
-0.219550 0.397812 -0.214827 68 1 84
0.253197 0.179398 -0.225149 71 20 102
0.621963 0.147567 0.362439 68 1 84
-0.625827 0.040258 0.485968 68 1 84
-0.631352 0.160763 0.439592 68 1 84
-0.257826 0.494930 -0.170274 68 1 84
-0.640096 -0.064141 0.358792 68 1 84
-0.461355 0.076379 -0.055384 68 1 84
-0.164009 -0.525526 -0.201031 89 199 100
-0.335458 -0.083189 -0.159909 72 35 116
-0.115681 0.011147 -0.290982 68 1 84
0.219820 -0.078938 -0.200193 66 62 133
0.614376 0.185949 0.461288 68 1 84
0.664841 -0.059344 0.345839 68 1 84
-0.054241 -0.331374 -0.249311 35 168 131
0.090136 0.260559 -0.335751 68 1 84
0.640629 0.054345 0.524489 68 1 84
-0.276667 0.046149 -0.200944 68 1 84
-0.393612 0.335301 -0.086398 68 1 84
0.678828 -0.151465 0.371644 68 1 84
-0.166298 0.123664 -0.319854 68 1 84
0.662084 -0.181954 0.189710 65 66 134
0.352727 0.024835 -0.170747 50 99 141
-0.615646 -0.031047 0.135327 68 1 84
-0.460709 0.154515 -0.040725 68 1 84
0.118075 0.629142 -0.101047 68 1 84
0.593189 0.214138 0.229608 70 49 126
-0.637143 -0.129051 0.351537 68 1 84
0.375683 -0.117839 -0.168786 50 99 141
0.532869 0.270899 0.109887 60 78 138
0.280144 0.562315 0.019253 63 71 136
0.544380 -0.022911 -0.057260 49 102 141
-0.279387 -0.326266 -0.148939 32 144 140
-0.637898 -0.042560 0.381828 68 1 84
0.466388 -0.002614 -0.121565 40 122 142
-0.462117 -0.560287 -0.097124 37 171 129
0.275475 0.481120 -0.083444 71 43 122
0.233915 -0.450607 -0.176991 66 190 113
-0.536463 -0.548901 0.079157 71 43 122
0.534419 -0.254748 -0.050567 46 108 142
-0.389463 0.169582 -0.123558 68 1 84
0.139240 0.225891 -0.275088 68 1 84
-0.247060 0.339814 -0.230537 68 1 84
0.509314 0.422627 0.418415 68 1 84
0.610471 0.005753 0.085362 38 128 142
-0.289504 0.144094 -0.236724 68 1 84
0.414134 -0.310636 -0.135320 33 140 141
0.121729 -0.103618 -0.321054 68 1 84
0.647489 -0.441022 0.223519 69 53 128
0.064672 0.356617 -0.301971 68 1 84
0.706906 -0.499982 0.500300 68 1 84
-0.095871 -0.306212 -0.207974 42 176 126
0.588104 -0.481821 0.026194 42 119 142
-0.365087 0.467909 -0.046800 68 1 84
0.411045 -0.450762 -0.170081 31 163 134
0.623287 -0.160402 0.067913 56 87 140
-0.274723 0.485433 -0.153945 68 1 84
-0.613715 -0.064305 0.515070 68 1 84
0.299579 0.285388 -0.168469 61 74 137
-0.329532 0.224913 -0.190777 68 1 84
0.591679 -0.192176 0.006070 49 101 141
-0.307854 -0.295046 -0.140302 35 135 141
0.201989 -0.082533 -0.204804 69 53 128
-0.418250 0.261542 -0.080530 68 1 84
-0.508932 -0.312593 -0.020688 63 71 136
0.059771 -0.483138 -0.233743 87 198 101
0.349527 0.226784 -0.136253 44 112 142
-0.518614 -0.338168 0.006093 61 76 137
-0.555699 0.382509 0.455335 68 1 84
0.602644 -0.417984 0.064310 46 107 142
0.658808 -0.314178 0.223378 65 65 134
-0.543848 0.322918 0.145242 68 1 84
0.322266 0.034605 -0.180026 55 89 140
0.021701 0.307503 -0.360906 68 1 84
0.679982 -0.300030 0.326518 68 1 84
0.603571 0.105768 0.153483 59 80 138
0.196556 0.572288 -0.090457 71 42 121
-0.638368 -0.394820 0.369006 68 1 84
0.390177 0.351310 -0.049414 46 109 142
0.558818 0.163518 0.076027 51 96 141
0.400057 0.157033 -0.112496 46 109 142
-0.488565 0.020611 -0.046968 68 1 84
-0.614432 0.111122 0.521288 68 1 84
0.139209 -0.563522 -0.251929 207 225 28
-0.637834 -0.391429 0.353174 68 1 84
0.446943 0.498645 0.301514 72 29 111
-0.378692 0.194556 -0.137086 68 1 84
0.074086 -0.088151 -0.410660 68 1 84
0.486359 0.061438 -0.078909 35 137 141
-0.425637 0.345900 -0.039570 68 1 84
-0.346788 -0.569965 -0.173299 94 201 97
0.632546 -0.097118 0.100156 62 73 137
0.405147 0.422397 0.018336 50 98 141
-0.141592 0.507989 -0.272274 68 1 84
0.697623 -0.401097 0.456948 68 1 84
0.120423 0.009271 -0.280449 68 1 84
-0.239275 -0.173405 -0.172072 43 116 142
-0.107948 -0.064955 -0.358845 68 1 84
-0.380994 0.487490 -0.000623 68 1 84
-0.095545 -0.090531 -0.405811 68 1 84
-0.275436 0.310274 -0.213525 68 1 84
-0.370453 -0.234701 -0.127350 53 92 140
0.659369 -0.067682 0.242470 72 26 108
-0.026196 -0.245125 -0.338218 49 102 141
0.213737 -0.174681 -0.188838 61 74 137
-0.219253 0.426337 -0.206648 68 1 84
-0.231499 0.498271 -0.196364 68 1 84
0.244241 0.440379 -0.133996 71 38 118
0.125630 0.147814 -0.311155 68 1 84
-0.436067 -0.502393 -0.111917 43 177 125
-0.277187 -0.075594 -0.180611 72 35 116
-0.389017 0.438020 -0.032042 68 1 84
0.451019 0.263853 -0.019041 55 89 140
-0.245140 0.603367 -0.062996 68 1 84
-0.479409 0.266513 0.008819 68 1 84
-0.547354 -0.372176 0.052821 67 60 132
-0.493707 -0.217904 -0.076109 64 67 135
0.405455 0.488834 0.092574 61 75 137
0.622079 0.170243 0.426871 68 1 84
0.309473 -0.196013 -0.174555 44 112 142
-0.410080 0.500212 0.098626 68 1 84
-0.646138 -0.212224 0.217872 68 1 84
-0.466016 -0.555644 -0.093148 31 163 134
0.614042 -0.547308 0.088871 40 122 142
0.182283 0.300532 -0.241694 68 1 84
0.500228 0.427022 0.204852 66 64 133
0.399676 0.533964 0.242307 71 39 119
-0.011963 0.139717 -0.370864 68 1 84
0.699289 -0.454801 0.445126 68 1 84
-0.548624 -0.439227 0.068131 71 21 103
-0.634218 -0.427142 0.328078 68 1 84
-0.406315 0.455704 0.009103 68 1 84
0.651108 -0.273847 0.179169 65 66 134
-0.583060 -0.555697 0.229816 68 1 84
0.634589 -0.030057 0.145662 59 80 138
0.348862 0.206865 -0.141353 43 115 142
0.564183 -0.118692 -0.051857 49 102 141
-0.122203 0.025364 -0.289733 68 1 84
-0.549921 -0.426882 0.067152 71 20 102
-0.600428 -0.334310 0.142465 68 1 84
0.308809 -0.576021 -0.234908 186 222 39
0.530892 0.060428 -0.032374 42 119 142
0.426107 -0.249557 -0.134091 48 103 141
-0.252744 -0.435252 -0.134665 31 163 134
-0.573012 0.231587 0.150383 68 1 84
-0.620429 -0.038139 0.492274 68 1 84
0.407765 -0.342496 -0.135008 33 142 140
0.324498 -0.277497 -0.171201 34 137 141
-0.326094 0.287901 -0.169839 68 1 84
0.562203 0.339412 0.417734 70 14 97
-0.289565 0.064492 -0.201238 68 1 84
0.516656 0.093892 -0.033558 39 124 142
-0.608704 -0.562742 0.293063 68 1 84
-0.431069 -0.447110 -0.073219 36 132 141
0.453889 0.474036 0.186430 44 113 142
-0.614672 0.179054 0.498273 68 1 84
-0.107519 -0.167836 -0.309557 63 71 136
-0.637868 -0.444840 0.371695 68 1 84
-0.096044 0.150395 -0.356709 68 1 84
0.650130 0.024615 0.435556 68 1 84
0.312459 0.162622 -0.177717 71 42 121
0.300437 0.401608 -0.111382 44 112 142
-0.158280 -0.478753 -0.166300 62 188 115
0.503300 0.438224 0.348878 70 11 94
-0.494708 0.291429 0.042219 68 1 84
-0.130966 -0.163558 -0.251136 67 60 132
-0.586575 -0.242933 0.060356 68 1 84
0.419594 0.465650 0.085541 54 90 140
0.675276 -0.150354 0.420074 68 1 84
0.454357 -0.417152 -0.135549 57 185 118
0.678952 -0.376103 0.358119 68 1 84
0.329708 0.556715 0.116756 69 52 127
0.678757 -0.488389 0.352278 70 9 92
0.686408 -0.350457 0.402975 68 1 84
-0.636723 0.075853 0.300941 68 1 84
-0.315470 0.029860 -0.170965 68 1 84
-0.337610 0.031247 -0.157596 68 1 84
0.514244 -0.541226 -0.099784 77 194 107
-0.556433 -0.494238 0.114868 68 1 84
0.658252 -0.454903 0.269496 72 29 111
-0.540384 0.091953 0.035134 68 1 84
0.676684 -0.396323 0.349403 68 1 84
-0.626287 0.089918 0.477259 68 1 84
-0.053310 0.139504 -0.370122 68 1 84
-0.523722 -0.172605 -0.055331 65 66 134
-0.267261 0.403435 -0.175191 68 1 84
0.659704 -0.049038 0.274356 70 49 126
-0.156010 0.311759 -0.323127 68 1 84
0.670111 -0.342241 0.288254 71 15 98
-0.483787 0.471378 0.275364 68 1 84
-0.356918 0.321326 -0.129337 68 1 84
0.451431 0.455696 0.138976 63 69 135
-0.435230 -0.140644 -0.117782 70 49 126
0.579284 0.083320 0.060169 50 99 141
0.590881 0.235886 0.502434 68 1 84
0.131353 -0.240476 -0.213984 60 77 138
-0.482968 0.467869 0.254571 68 1 84
-0.608933 -0.279981 0.130383 68 1 84
0.032831 -0.208629 -0.369849 70 14 97
-0.639416 -0.016358 0.336017 68 1 84
-0.555694 -0.182775 -0.014249 71 15 98
-0.126466 -0.460621 -0.167120 41 175 127
0.638335 0.006022 0.204687 56 87 140
0.595649 0.047498 0.072564 49 102 141
0.614631 0.152716 0.270101 70 47 124
0.055590 -0.277023 -0.299486 53 93 140
-0.560807 -0.602765 0.165243 71 39 119
0.523519 -0.041858 -0.087633 39 126 142
-0.616912 0.065334 0.180122 68 1 84
0.658499 -0.265721 0.200176 68 57 130
-0.609993 0.164429 0.517917 68 1 84
0.259053 0.594719 0.087450 67 60 132
-0.622986 0.254715 0.330182 68 1 84
-0.592527 -0.066182 0.063755 68 1 84
-0.478925 -0.163585 -0.093149 71 42 121
-0.608281 -0.496809 0.266242 68 1 84
-0.374266 0.188340 -0.142915 68 1 84
0.377126 -0.594375 -0.210457 96 201 96
-0.167231 0.278966 -0.329900 68 1 84
0.292499 -0.475544 -0.202345 91 200 98
-0.347709 -0.563042 -0.172508 112 206 86
0.331544 -0.526735 -0.215818 85 198 102
-0.556395 0.012813 0.027835 68 1 84
0.642231 -0.263454 0.141559 67 60 132
0.643574 -0.452883 0.207133 71 43 122
-0.624234 -0.573319 0.365903 68 1 84
0.574457 -0.540918 -0.010897 36 170 130
-0.201661 -0.546786 -0.208825 151 216 62
-0.278063 -0.034002 -0.182257 68 1 84
0.423483 -0.046789 -0.154008 44 112 142
0.662667 -0.058800 0.435121 68 1 84
-0.543181 0.379836 0.198301 68 1 84
-0.621557 -0.397454 0.259261 68 1 84
0.077761 0.493194 -0.240106 68 1 84
0.129965 -0.152662 -0.253471 72 28 110
0.362928 0.034953 -0.164873 44 113 142
0.611848 0.171668 0.286451 71 24 106
0.644539 -0.286863 0.159194 66 61 132
-0.621588 0.115570 0.495002 68 1 84
0.615169 -0.221833 0.062426 55 89 140
-0.444140 0.174855 -0.056991 68 1 84
0.659970 -0.044096 0.355452 68 1 84
-0.641296 -0.258172 0.206748 68 1 84
0.631815 -0.297353 0.120826 60 78 138
0.610232 0.240783 0.396382 70 14 97
0.473471 -0.150177 -0.136599 49 100 141
0.240437 0.583749 0.002737 64 68 135
-0.097662 -0.303266 -0.208239 44 177 125
0.576773 -0.128510 -0.032416 38 127 142
-0.304341 -0.622590 -0.196534 141 214 68
-0.155552 0.480153 -0.271287 68 1 84
-0.459488 -0.354293 -0.039607 52 95 141
-0.312482 0.041319 -0.175258 68 1 84
-0.530372 -0.478015 0.032298 71 38 118
0.673620 -0.519890 0.329627 69 54 129
0.655220 -0.012790 0.439116 68 1 84
0.010439 0.412713 -0.291200 68 1 84
-0.396691 -0.002075 -0.124348 68 1 84
-0.240903 -0.594000 -0.222492 162 218 55
-0.636275 -0.353682 0.317239 68 1 84
0.367192 -0.373398 -0.150539 34 139 141
0.225951 0.586060 -0.018238 71 44 123
-0.098404 0.452854 -0.297439 68 1 84
0.658745 -0.479521 0.269400 71 22 105
-0.574365 -0.151391 0.013460 68 1 84
-0.098400 -0.233871 -0.258657 48 104 141
-0.232563 0.050878 -0.233583 68 1 84
-0.627184 -0.558478 0.397508 68 1 84
0.175973 0.479026 -0.169581 68 1 84
0.025415 0.547360 -0.260260 68 1 84
-0.181448 -0.054187 -0.213230 68 1 84
0.426500 -0.221181 -0.142670 44 114 142
0.628751 -0.432678 0.148371 62 72 136
0.585067 0.293293 0.401713 71 22 105
0.636671 0.094549 0.436621 68 1 84
-0.637849 -0.260640 0.365016 68 1 84
0.503699 0.365631 0.131752 60 77 138
-0.177645 -0.437689 -0.137613 50 181 122
0.003478 -0.117941 -0.452977 68 1 84
-0.349769 0.536444 0.023895 68 1 84
0.282585 -0.000582 -0.191283 63 71 136
-0.552368 0.185145 0.093676 68 1 84
-0.542181 0.349129 0.161407 68 1 84
0.071689 -0.558769 -0.250688 170 219 50
0.577569 0.311743 0.341661 69 54 129
-0.143882 0.593924 -0.213098 68 1 84
0.328288 0.345673 -0.120192 55 89 140
0.173055 0.348711 -0.239615 70 12 95
-0.634914 0.165269 0.315495 68 1 84
0.363208 0.326768 -0.093043 36 134 141
0.146228 0.619414 -0.073042 71 40 120
0.087678 -0.199928 -0.309473 71 17 99
-0.125589 -0.434003 -0.153129 121 209 81
-0.167246 -0.157676 -0.209988 70 49 126
0.574574 0.318309 0.388489 71 18 101
0.655590 -0.029712 0.294554 72 25 107
0.083241 0.569088 -0.214055 68 1 84
0.121002 -0.127788 -0.286304 68 2 85
0.605546 -0.433381 0.072024 45 110 142
0.072425 -0.015413 -0.306182 68 1 84
0.123986 -0.190420 -0.246916 71 40 120
-0.510894 0.445464 0.282457 68 1 84
-0.088342 -0.496319 -0.209863 139 213 70
-0.176571 0.442773 -0.246303 68 1 84
0.310606 0.258585 -0.166073 48 104 141
-0.108254 0.502648 -0.286916 68 1 84
-0.635317 -0.315812 0.445511 68 1 84
0.534842 -0.236769 -0.059556 49 100 141
-0.349577 0.473861 -0.065282 68 1 84
-0.346505 0.456530 -0.078402 68 1 84
0.403366 -0.484009 -0.189785 44 177 125
0.422779 0.403382 0.027099 38 128 142
-0.579773 -0.254870 0.051948 68 1 84
-0.055471 -0.209462 -0.349619 60 78 138
-0.641757 -0.073211 0.272031 68 1 84
0.248637 0.149452 -0.223765 68 1 84
-0.052612 0.624331 -0.212656 68 1 84
-0.351094 0.009498 -0.150586 68 1 84
0.206858 -0.202257 -0.183460 59 81 138
-0.403338 0.275656 -0.096662 68 1 84
-0.296403 0.296105 -0.194532 68 1 84
0.661158 -0.052145 0.535390 68 1 84
-0.180108 -0.024723 -0.220599 68 1 84
-0.587476 -0.504662 0.215137 68 1 84
-0.559014 0.024949 0.036093 68 1 84
0.610866 -0.051431 0.053984 56 86 139
0.493733 -0.540661 -0.127734 64 189 114
0.480073 0.462979 0.375108 68 1 84
-0.329676 -0.259817 -0.135619 42 119 142
-0.290101 0.249473 -0.206563 68 1 84
0.394853 -0.436558 -0.167502 41 175 127
-0.170656 -0.258889 -0.163993 31 149 139
0.288235 0.099328 -0.190719 68 55 129
0.364744 0.489697 0.026367 68 57 130
-0.540854 -0.063809 -0.019610 69 6 90
0.096353 -0.345989 -0.194029 35 135 141
-0.632964 0.023655 0.437669 68 1 84
-0.635877 0.085674 0.419013 68 1 84
0.583635 0.255089 0.240067 69 54 129
0.267774 0.242256 -0.209147 66 64 133
0.144420 -0.003324 -0.235583 68 1 84
0.648768 -0.260978 0.164954 61 74 137
0.566588 0.312074 0.472695 68 1 84
0.671394 -0.141913 0.471259 68 1 84
0.465143 0.282228 0.010654 51 97 141
-0.473274 0.281937 0.003703 68 1 84
0.662682 -0.110233 0.213062 71 39 119
0.367594 0.541145 0.155809 63 71 136
-0.114993 0.159201 -0.347734 68 1 84
-0.070344 -0.344078 -0.214337 105 204 91
-0.141631 0.395162 -0.267582 68 1 84
-0.644464 -0.112895 0.284496 68 1 84
0.197057 0.017999 -0.207164 68 1 84
-0.039499 -0.224753 -0.348070 52 95 141
0.103265 0.518554 -0.215738 68 1 84
0.416810 0.404712 0.019482 52 94 141
0.426564 -0.512173 -0.184052 81 196 104
-0.270290 0.556466 -0.124240 68 1 84
-0.160955 0.312455 -0.319359 68 1 84
0.106557 0.463624 -0.217716 68 1 84
0.519024 0.222739 0.052108 44 114 142
0.593545 0.251099 0.466921 68 1 84
0.277163 0.205905 -0.206967 72 32 113
-0.004538 -0.343251 -0.274109 38 172 129
0.672516 -0.185025 0.222288 68 55 129
-0.605860 0.277050 0.445279 68 1 84
-0.219499 0.567501 -0.180427 68 1 84
0.364709 0.466529 0.001201 65 66 134
-0.510382 0.372180 0.119873 68 1 84
-0.485385 -0.597714 -0.053051 40 123 142
-0.012432 -0.295242 -0.306025 36 133 141
-0.533962 0.074390 0.020586 68 1 84
0.143329 -0.212713 -0.213666 58 82 139
-0.267350 0.362228 -0.195934 68 1 84
0.647190 0.037099 0.347760 71 37 117
0.149112 -0.300425 -0.164659 49 100 141
-0.527066 -0.241885 -0.036568 71 44 123
-0.601379 -0.575057 0.278315 68 1 84
0.597946 0.215532 0.259705 67 60 132
0.150691 -0.302025 -0.163442 49 102 141
0.489727 0.230161 0.012853 38 128 142
0.164106 0.565537 -0.141170 68 3 87
-0.524315 0.119705 0.024504 68 1 84
-0.441131 0.383320 0.007225 68 1 84
0.137319 -0.119748 -0.251546 70 12 95
-0.109387 -0.184424 -0.281485 55 88 140
0.375470 0.447423 -0.001658 52 95 141
0.590655 -0.507126 0.030459 37 130 142
0.513915 0.375102 0.163309 58 82 139
-0.379142 0.536573 0.141091 68 1 84
-0.088664 0.249831 -0.371619 68 1 84
-0.464016 -0.158668 -0.102921 63 69 135
-0.149631 0.572490 -0.227833 68 1 84
0.568565 0.010002 -0.005171 38 129 142
-0.627010 0.044860 0.215027 68 1 84
-0.487697 0.343821 0.057163 68 1 84
-0.633160 0.034958 0.437093 68 1 84
-0.548019 -0.258161 -0.002030 71 15 98
0.087058 0.193458 -0.326723 68 1 84
-0.637130 0.026004 0.389747 68 1 84
0.636877 0.068062 0.520598 68 1 84
-0.182269 0.254537 -0.310138 68 1 84
0.661584 -0.454685 0.284365 72 32 113
-0.479306 0.322834 0.031077 68 1 84
-0.168908 0.278348 -0.328575 68 1 84
0.093389 -0.554262 -0.249834 170 219 50
0.435154 0.505521 0.241520 67 58 131
0.394678 0.240465 -0.091083 45 111 142
-0.164974 -0.097211 -0.297908 68 1 84
-0.607465 -0.035119 0.552923 68 1 84
-0.011122 0.579125 -0.252152 68 1 84
-0.507062 -0.576466 -0.012404 39 125 142
0.446334 -0.267554 -0.116531 49 102 141
0.609122 0.172435 0.259366 72 26 108
0.396341 0.333443 -0.051206 42 117 142
0.598350 0.264589 0.394384 71 24 106
0.241109 0.568916 -0.030283 72 32 113
-0.646415 -0.245345 0.294887 68 1 84
-0.457031 0.298517 -0.015783 68 1 84
0.616950 0.070174 0.172410 52 95 141
-0.365066 -0.234577 -0.128821 58 82 139
-0.375467 -0.407800 -0.098242 37 130 142
-0.385635 -0.173415 -0.131689 67 58 131
0.622764 0.126613 0.496987 68 1 84
0.164001 0.304794 -0.259246 68 1 84
0.543063 -0.375908 -0.034284 31 149 139
-0.638871 -0.252417 0.359468 68 1 84
-0.450419 0.211507 -0.044418 68 1 84
0.428732 0.019730 -0.136210 45 111 142
-0.635502 0.049050 0.277995 68 1 84
0.681640 -0.463195 0.365548 68 1 84
0.509051 -0.166057 -0.110258 38 127 142
-0.551768 0.373567 0.211770 68 1 84
-0.616100 0.044635 0.520390 68 1 84
-0.533953 -0.359390 0.031911 69 50 127
0.324728 0.438857 -0.061843 70 48 125
0.658181 -0.424126 0.268786 68 1 84
-0.177721 0.001153 -0.229255 68 1 84
0.261005 0.281315 -0.200908 71 43 122
-0.427510 0.485086 0.106671 68 1 84
-0.621502 -0.169315 0.522367 68 1 84
0.336705 -0.129296 -0.173915 58 82 139
-0.644629 -0.174236 0.217405 68 1 84
-0.170168 -0.089835 -0.245834 68 1 84
0.606629 -0.193036 0.036250 58 82 139
-0.381140 -0.106305 -0.140354 68 3 87
0.071376 -0.006201 -0.303613 68 1 84
-0.357290 -0.129083 -0.145070 69 52 127
-0.512701 0.106692 0.005835 68 1 84
-0.621825 -0.044235 0.482010 68 1 84
-0.018699 -0.139435 -0.444643 68 1 84
-0.440420 -0.319606 -0.072837 47 106 141
-0.603845 -0.389675 0.187463 68 1 84
0.657112 -0.025129 0.431882 68 1 84
-0.191486 -0.436911 -0.137862 51 182 121
-0.386159 0.503417 0.036935 68 1 84
-0.487946 0.384247 0.088586 68 1 84
-0.035680 -0.516283 -0.238828 139 213 70
-0.633421 -0.024819 0.417288 68 1 84
0.129798 -0.021163 -0.325422 68 1 84
-0.403990 -0.194456 -0.124074 59 81 138
0.681804 -0.203832 0.274673 68 1 84
0.485250 0.009523 -0.102945 39 125 142
-0.472585 0.012408 -0.063693 72 29 111
-0.208169 0.328915 -0.271286 68 1 84
-0.580598 0.148429 0.126716 68 1 84
0.426826 0.466308 0.099615 58 82 139
-0.479719 -0.031752 -0.073202 72 25 107
0.178011 -0.480893 -0.197788 71 192 110
0.125010 0.472337 -0.205253 68 1 84
0.020358 0.568586 -0.250624 68 1 84
0.402380 0.249644 -0.080609 48 104 141
0.687656 -0.269925 0.489952 68 1 84
-0.578079 0.019096 0.064808 68 1 84
-0.640728 -0.198664 0.364997 68 1 84
-0.378784 -0.600813 -0.160984 91 200 98
0.603455 0.091039 0.136823 57 85 139
0.685429 -0.323529 0.397533 68 1 84
0.461885 -0.516514 -0.162220 48 180 122
-0.614231 0.247134 0.448516 68 1 84
0.390617 -0.594286 -0.203617 61 187 116
0.094194 -0.233424 -0.270413 63 69 135
0.646243 0.054436 0.369352 68 1 84
0.512798 0.050615 -0.058470 38 128 142
-0.612258 -0.081318 0.107990 68 1 84
-0.064970 -0.246079 -0.303397 38 128 142
0.652757 0.008301 0.418847 68 1 84
-0.629198 -0.246185 0.165890 68 1 84
-0.118317 0.112861 -0.347569 68 1 84
-0.091419 0.643206 -0.166176 68 1 84
-0.554241 0.037545 0.034063 68 1 84
0.038843 0.349828 -0.313923 68 1 84
0.598237 0.022990 0.062554 46 108 142
-0.637617 -0.332884 0.306944 68 1 84
-0.093590 0.576548 -0.246418 68 1 84
-0.367665 0.490972 -0.021435 68 1 84
0.672403 -0.438342 0.331097 68 1 84
0.592771 0.260213 0.332763 61 74 137
0.616341 0.147163 0.279329 71 24 106
-0.236204 0.215840 -0.241825 68 1 84
-0.308363 -0.569078 -0.190170 121 209 81
-0.511416 -0.530150 -0.017357 41 121 142
0.578199 -0.433919 0.015100 44 114 142
-0.641743 -0.203844 0.197315 68 1 84
-0.015769 0.616675 -0.220344 68 1 84
0.677349 -0.395846 0.352673 68 1 84
-0.611772 0.085428 0.536625 68 1 84
-0.629412 -0.237767 0.436241 68 1 84
-0.555776 0.205631 0.108948 68 1 84
-0.068751 0.189246 -0.329161 68 1 84
-0.635728 0.107952 0.424298 68 1 84
0.403481 -0.190993 -0.156774 41 120 142
-0.647386 -0.235535 0.289684 68 1 84
-0.274786 -0.107304 -0.177333 70 48 125
0.458842 -0.098145 -0.144285 47 105 141
0.164911 -0.152996 -0.214230 69 52 127
-0.109501 -0.186221 -0.278414 57 84 139
0.074337 0.469079 -0.243787 68 1 84
0.595843 -0.385687 0.046534 52 94 141
0.398029 0.447203 0.031022 47 105 141
0.463387 -0.049736 -0.135096 44 113 142
-0.572694 -0.072845 0.025059 68 1 84
0.502403 0.157608 -0.015668 38 129 142
-0.574925 0.334886 0.479979 68 1 84
0.649494 -0.015102 0.273454 71 21 103
0.010854 -0.268815 -0.326161 44 112 142
-0.092617 0.184006 -0.330666 68 1 84
-0.513697 0.148625 0.021139 68 1 84
0.523761 0.329302 0.136882 66 64 133
0.525248 -0.533278 -0.085621 79 195 105
-0.644569 -0.263339 0.299837 68 1 84
0.175727 -0.121506 -0.213090 72 32 113
0.269568 -0.550431 -0.240320 165 218 53
0.647707 -0.219960 0.146960 69 54 129
-0.533693 -0.242605 -0.028411 69 50 127
-0.311023 0.081998 -0.192030 68 1 84
0.028688 0.436159 -0.282777 68 1 84
-0.638202 0.013548 0.369313 68 1 84
0.595059 0.223509 0.254118 60 77 138
-0.040526 -0.164590 -0.417277 70 12 95
0.638378 -0.539455 0.173828 46 109 142
-0.639606 -0.021126 0.324577 68 1 84
-0.576180 -0.466743 0.176541 68 1 84
0.091113 -0.209985 -0.294106 70 45 124
0.462499 0.254254 -0.009604 48 104 141
-0.003824 0.634149 -0.195780 68 1 84
0.459667 -0.447015 -0.149047 40 174 127
0.625865 0.069732 0.231913 72 25 107
0.172708 0.315373 -0.249839 68 1 84
-0.524768 -0.276310 -0.024504 65 65 134
0.682732 -0.303794 0.361258 68 1 84
0.440891 0.295806 -0.015082 49 101 141
-0.642366 -0.137513 0.320517 68 1 84
-0.625542 0.176418 0.460634 68 1 84
0.522493 -0.529579 -0.089849 62 188 115
-0.389005 0.515014 0.079206 68 1 84
0.578870 0.185041 0.144985 59 80 138
0.411996 0.521597 0.221365 69 53 128
0.657988 -0.189558 0.177357 70 48 125
-0.639432 -0.279603 0.343559 68 1 84
-0.586036 0.341823 0.277313 68 1 84
-0.322008 -0.302569 -0.138062 37 131 141
-0.589786 -0.136017 0.043899 68 1 84
0.542073 -0.495955 -0.068222 51 182 121
0.116060 -0.362703 -0.168926 35 135 141
-0.481432 -0.550747 -0.074072 31 147 139
-0.407528 0.494321 0.071084 68 1 84
0.101282 0.269963 -0.328800 68 1 84
-0.183295 0.100221 -0.295825 68 1 84
0.613859 -0.399566 0.092288 63 71 136
-0.303295 0.570306 -0.005023 68 1 84
0.681014 -0.155688 0.322788 68 1 84
-0.376750 0.283202 -0.124131 68 1 84
0.581192 -0.187149 -0.014189 50 99 141
-0.641320 -0.121967 0.227522 68 1 84
0.026281 0.088641 -0.343460 68 1 84
-0.463077 0.170388 -0.035282 68 1 84
-0.610182 0.097134 0.541116 68 1 84
0.696973 -0.433115 0.439835 68 1 84
-0.392273 -0.152540 -0.132176 71 38 118
-0.326107 0.464194 -0.100532 68 1 84
-0.629156 -0.014443 0.455429 68 1 84
-0.077271 -0.441484 -0.188788 81 196 104
-0.559347 -0.353587 0.063819 71 40 120
0.572698 -0.441645 0.002613 34 138 141
-0.393794 0.163016 -0.117985 68 1 84
0.071050 0.611206 -0.191272 68 1 84
0.196645 0.604328 -0.021090 72 28 110
-0.635263 -0.210232 0.398259 68 1 84
0.650981 -0.023650 0.261126 68 57 130
0.181569 -0.563696 -0.253251 189 222 38
-0.024836 0.407492 -0.295822 68 1 84
-0.522878 0.053926 0.000589 68 1 84
-0.611981 -0.079618 0.555745 68 1 84
-0.474446 0.056672 -0.048266 68 1 84
0.329796 -0.168648 -0.172617 53 93 140
0.303871 0.554882 0.043366 69 53 128
0.636673 0.096633 0.419731 68 1 84
-0.593196 0.041895 0.105939 68 1 84
0.149436 -0.025387 -0.285726 72 35 116
-0.230648 -0.431428 -0.136342 31 161 135
0.674066 -0.101443 0.285309 70 49 126
-0.637004 -0.140738 0.192314 68 1 84
0.340872 0.338219 -0.111573 56 86 139
0.079135 0.465120 -0.239634 68 1 84
-0.603755 0.162690 0.188619 68 1 84
-0.504626 -0.555505 -0.028826 37 131 141
0.412124 -0.577194 -0.192975 66 190 113
-0.295789 0.394660 -0.153728 68 1 84
0.423789 0.425225 0.049674 60 77 138
0.678858 -0.234612 0.252901 71 18 101
0.688821 -0.286636 0.473765 68 1 84
-0.613037 -0.144768 0.100709 68 1 84
-0.223381 -0.200063 -0.169702 36 134 141
-0.625739 -0.096087 0.149449 68 1 84
0.474616 -0.099471 -0.135726 47 105 141
-0.161413 -0.341129 -0.134761 31 148 139
-0.637511 0.126639 0.395213 68 1 84
-0.243809 -0.358746 -0.149722 36 170 130
0.292062 0.503266 -0.048305 68 57 130
-0.572690 0.373968 0.369390 68 1 84
0.057245 -0.527956 -0.248313 126 210 78
0.324923 0.403611 -0.087457 57 84 139
0.162992 -0.385468 -0.147516 30 153 138
0.298984 0.580531 0.133956 72 33 114
0.124072 -0.372049 -0.163399 35 135 141
0.472086 0.134105 -0.059832 39 125 142
-0.082743 0.181123 -0.333442 68 1 84
0.456847 -0.464875 -0.157769 38 172 129
0.598253 0.261273 0.373966 71 21 103
0.649569 0.030475 0.415498 68 1 84
0.114239 -0.201013 -0.256163 69 52 127
0.088524 -0.324920 -0.216854 38 127 142
0.393289 -0.083511 -0.166082 46 109 142
-0.610112 -0.053306 0.567298 68 1 84
-0.323147 0.530383 -0.052472 68 1 84
-0.541314 0.407645 0.255961 68 1 84
-0.605063 0.031028 0.130057 68 1 84
-0.231370 0.228218 -0.242509 68 1 84
0.006466 -0.473202 -0.239321 124 210 79
-0.537770 0.420209 0.300498 68 1 84
0.614161 0.160112 0.285458 71 21 103
-0.064319 -0.063783 -0.421848 68 1 84
0.295812 -0.195828 -0.175572 52 94 141
0.080479 0.107274 -0.324328 68 1 84
-0.644837 -0.168779 0.325577 68 1 84
-0.228503 0.007179 -0.205988 68 1 84
-0.495000 -0.306879 -0.038201 66 61 132
0.452074 0.493313 0.341492 68 1 84
-0.455821 -0.306188 -0.068527 53 92 140
0.480704 0.467878 0.267942 64 67 135
0.426735 -0.155786 -0.155191 39 126 142
0.291655 0.580404 0.111594 69 54 129
-0.380438 -0.332964 -0.113710 36 132 141
-0.360001 0.116197 -0.153887 68 1 84
-0.219941 0.558372 -0.187030 68 1 84
-0.612077 -0.570257 0.305483 68 1 84
-0.307468 0.466709 -0.121955 68 1 84
0.646304 0.049779 0.402969 68 1 84
0.647172 0.040235 0.444333 68 1 84
0.690709 -0.300489 0.479478 68 1 84
0.487685 0.076305 -0.070979 36 132 141
-0.391129 -0.138912 -0.133857 72 34 115
0.517249 -0.508366 -0.100769 69 191 111
0.338578 0.385711 -0.085866 57 84 139
0.067943 -0.130653 -0.414485 68 1 84
0.140275 -0.087544 -0.283788 68 1 84
-0.528471 0.196114 0.061064 68 1 84
-0.510516 -0.305419 -0.023666 70 47 124
-0.095825 0.517392 -0.284236 68 1 84
0.004165 -0.309325 -0.298915 35 137 141
0.664508 -0.333373 0.252412 66 64 133
-0.626344 0.200672 0.437237 68 1 84
0.529569 -0.425301 -0.071465 30 152 138
0.060391 0.285243 -0.361390 68 1 84
-0.632372 -0.075121 0.415036 68 1 84
-0.612313 0.090887 0.534734 68 1 84
0.655743 -0.234679 0.180125 65 65 134
0.110556 0.028429 -0.263225 68 1 84
-0.491884 0.105443 -0.018056 68 1 84
-0.245064 0.358036 -0.220345 68 1 84
0.182077 0.260133 -0.235057 68 1 84
-0.411077 -0.220126 -0.117800 52 94 141
0.625768 -0.092823 0.080231 43 115 142
-0.637041 -0.335170 0.378557 68 1 84
-0.637491 -0.344382 0.360661 68 1 84
0.264054 0.504616 -0.077504 72 30 112
0.572789 -0.159383 -0.035996 58 83 139
0.603499 -0.475246 0.065238 40 122 142
-0.602753 0.020717 0.119378 68 1 84
0.282167 0.568834 0.040276 69 53 128
-0.513440 0.439884 0.260413 68 1 84
-0.536732 0.420174 0.390845 68 1 84
-0.348470 0.501325 -0.043221 68 1 84
-0.636411 0.025818 0.284396 68 1 84
0.649293 -0.498320 0.226067 54 91 140
-0.105474 -0.133589 -0.378510 68 2 85
0.472558 0.080114 -0.082459 39 124 142
-0.047793 -0.000074 -0.339771 68 1 84
0.378825 0.545728 0.221223 70 48 125
-0.627947 -0.164821 0.150121 68 1 84
0.604196 -0.367963 0.061919 46 107 142
-0.441211 0.486892 0.162695 68 1 84
-0.637521 0.007054 0.381158 68 1 84
0.186154 -0.362002 -0.137033 36 133 141
0.587286 0.285553 0.418777 71 18 101
0.444297 0.384225 0.043243 47 106 141
-0.588442 -0.323000 0.106941 68 1 84
0.214344 0.433051 -0.157438 72 26 108
0.627180 0.066981 0.242138 72 32 113
0.310720 0.210973 -0.174416 69 52 127
-0.325806 0.482922 -0.091833 68 1 84
0.165796 0.465127 -0.180590 68 1 84
0.275777 0.021609 -0.192457 62 72 136
0.165406 0.187393 -0.283096 68 1 84
-0.164295 0.420935 -0.251973 68 1 84
-0.623730 0.134927 0.241479 68 1 84
0.285534 -0.422287 -0.167025 53 183 120
0.441099 -0.516145 -0.176376 69 191 111
0.314673 -0.142667 -0.176146 52 94 141
-0.443148 0.006220 -0.089841 68 1 84
-0.099800 -0.095910 -0.402563 68 1 84
0.473388 0.318185 0.043172 47 106 141
-0.430084 -0.002108 -0.101797 69 5 88
-0.567813 -0.448824 0.136056 68 1 84
0.667501 -0.391440 0.303708 68 1 84
0.371298 -0.267391 -0.156547 43 115 142
0.119254 -0.005341 -0.309482 68 1 84
-0.310591 -0.339564 -0.145819 30 151 138
-0.407146 0.502821 0.097561 68 1 84
0.193281 0.075043 -0.232671 68 1 84
-0.588989 -0.225766 0.058008 68 1 84
-0.031144 -0.353446 -0.255648 87 198 101
-0.240192 -0.368848 -0.146737 36 170 130
0.576390 -0.025121 -0.008695 50 99 141
0.199306 0.264378 -0.226596 68 1 84
0.680216 -0.188964 0.402636 68 1 84
0.348483 0.542621 0.110334 71 39 119
-0.391727 0.239352 -0.117134 68 1 84
-0.089266 -0.131372 -0.406849 68 1 84
-0.065980 0.512898 -0.292575 68 1 84
-0.585695 0.324488 0.453209 68 1 84
-0.291536 0.170703 -0.235504 68 1 84
-0.087915 -0.311657 -0.214481 44 177 125
-0.639305 0.055111 0.353622 68 1 84
0.682796 -0.375704 0.379906 68 1 84
0.253882 -0.026768 -0.195843 68 55 129
-0.500378 -0.418637 -0.005204 57 85 139
-0.628715 0.223258 0.322694 68 1 84
0.616441 0.162297 0.325773 71 18 101
0.680187 -0.289975 0.319456 71 18 101
0.653242 -0.031579 0.260601 69 50 127
-0.397948 0.189857 -0.112929 68 1 84
0.176064 -0.329675 -0.150132 40 122 142
-0.518997 -0.441715 0.013414 66 62 133
-0.021521 -0.533517 -0.246981 136 213 71
-0.632674 0.023349 0.441170 68 1 84
-0.124384 -0.159524 -0.271855 67 60 132
-0.325414 0.128599 -0.197886 68 1 84
-0.499300 -0.439214 -0.015645 47 106 141
0.571923 0.164798 0.108562 50 98 141
-0.322995 0.145286 -0.205335 68 1 84
-0.302040 -0.374804 -0.141469 34 167 132
-0.439114 0.057825 -0.079162 68 1 84
-0.621805 0.172288 0.249138 68 1 84
-0.616621 -0.008249 0.519905 68 1 84
-0.634067 0.099141 0.282496 68 1 84
-0.430716 -0.368320 -0.059412 42 119 142
0.185695 0.387475 -0.204975 68 1 84
0.506299 -0.357000 -0.058471 41 121 142
0.698089 -0.457873 0.437975 68 1 84
0.643058 0.042143 0.327357 68 1 84
0.085579 -0.519520 -0.241021 126 210 78
0.626579 -0.144114 0.075821 52 94 141
0.163821 -0.062650 -0.217392 71 22 105
0.526658 0.404622 0.376219 71 20 102
0.614363 0.010996 0.103783 39 124 142
0.305707 -0.358469 -0.168173 30 152 138
-0.596721 0.333174 0.368552 68 1 84
-0.048435 -0.038096 -0.404133 68 1 84
-0.620548 0.266454 0.337040 68 1 84
-0.402733 0.105665 -0.106897 68 1 84
0.542456 0.379794 0.384634 70 12 95
-0.087333 0.644167 -0.167052 68 1 84
0.374080 0.518406 0.094602 69 53 128
0.585799 0.248224 0.239900 70 49 126
0.118275 0.179268 -0.319483 68 1 84
-0.630624 -0.268898 0.430810 68 1 84
-0.111928 0.349909 -0.303145 68 1 84
0.196109 0.133481 -0.256527 68 1 84
0.606569 -0.543607 0.069788 31 150 139
0.283542 0.564259 0.029941 69 50 127
0.396561 0.240650 -0.089236 45 110 142
0.108791 0.559768 -0.198505 68 1 84
-0.385435 0.191081 -0.128630 68 1 84
-0.446776 0.322557 -0.021021 68 1 84
-0.408530 0.416552 -0.018202 68 1 84
0.011605 0.217970 -0.342756 68 1 84
0.344434 0.122238 -0.159291 43 115 142
-0.010407 -0.442739 -0.234333 75 194 108
0.603855 -0.460576 0.066946 38 128 142
-0.237188 -0.393058 -0.139099 33 166 133
-0.195612 0.612924 -0.141895 68 1 84
-0.255970 0.138634 -0.259440 68 1 84
-0.637420 0.113959 0.402157 68 1 84
0.393596 0.262787 -0.084746 46 108 142
-0.251926 0.393385 -0.191236 68 1 84
0.697107 -0.347299 0.524407 68 1 84
0.622620 0.127019 0.329087 68 1 84
-0.573465 -0.376860 0.105981 68 1 84
-0.520241 -0.241210 -0.044593 70 49 126
0.326772 -0.435211 -0.182084 50 181 122
-0.630843 -0.045949 0.428950 68 1 84
0.581662 0.228421 0.195655 72 33 114
-0.647812 -0.227628 0.289064 68 1 84
0.620594 0.049056 0.165424 59 80 138
0.180775 0.240588 -0.238372 68 1 84
-0.483618 0.455684 0.197985 68 1 84
-0.641291 -0.245839 0.200672 68 1 84
0.302918 0.176065 -0.184714 72 35 116
-0.536769 -0.600268 0.095322 63 69 135
-0.373182 0.066701 -0.133888 68 1 84
-0.552885 0.304910 0.150965 68 1 84
-0.151535 0.357892 -0.283808 68 1 84
0.003647 0.212705 -0.340262 68 1 84
0.374248 -0.376056 -0.146192 36 134 141
-0.625368 0.202262 0.441325 68 1 84
-0.060294 0.610670 -0.227043 68 1 84
-0.611474 0.105865 0.181895 68 1 84
-0.596111 0.320273 0.280488 68 1 84
0.373649 0.303326 -0.091138 39 124 142
0.648292 0.023455 0.530092 68 1 84
-0.598883 0.183606 0.184864 68 1 84
-0.426550 0.377425 -0.019554 68 1 84
0.613198 0.204211 0.358092 71 22 105
0.037960 -0.315955 -0.284613 35 135 141
-0.636364 -0.314555 0.377408 68 1 84
-0.614191 -0.407563 0.244122 68 1 84
0.397576 -0.289919 -0.144763 44 112 142
-0.647064 -0.176785 0.236770 68 1 84
-0.331808 0.412311 -0.114041 68 1 84
-0.392964 -0.101250 -0.136368 69 6 90
-0.274548 0.122075 -0.243484 68 1 84
-0.312437 0.551787 -0.035994 68 1 84
0.632341 0.043364 0.244579 71 17 99
0.133218 0.245769 -0.273681 68 1 84
0.430347 0.398345 0.033946 41 120 142
0.378420 0.525240 0.123748 69 50 127
-0.278642 -0.262840 -0.144933 42 118 142
-0.567112 0.313457 0.185240 68 1 84
0.622172 -0.381855 0.120198 51 97 141
-0.113781 0.309954 -0.345898 68 1 84
0.643677 0.064626 0.368488 71 40 120
0.570582 0.162445 0.103251 47 106 141
-0.555754 -0.046871 0.006718 69 6 90
-0.026599 -0.035661 -0.416432 68 1 84
-0.433927 0.159612 -0.070281 68 1 84
-0.529996 0.421344 0.256572 68 1 84
-0.634383 -0.522003 0.395156 68 1 84
-0.488917 -0.556201 -0.061579 32 143 140
0.416745 -0.453416 -0.169725 32 165 133
0.345596 0.384591 -0.079299 39 125 142
0.056154 0.449501 -0.261984 68 1 84
-0.348413 -0.412329 -0.114547 34 137 141
-0.322219 0.386973 -0.133633 68 1 84
-0.355559 -0.328403 -0.128463 32 143 140
-0.615248 -0.100448 0.579204 68 1 84
0.612681 0.148618 0.243999 72 28 110
-0.576784 0.362471 0.397249 68 1 84
-0.491128 -0.379701 -0.005958 60 78 138
0.066075 0.345652 -0.311795 68 1 84
-0.298466 0.223453 -0.210378 68 1 84
-0.131264 -0.294339 -0.170682 31 161 135
-0.509113 -0.176251 -0.069919 52 94 141
0.648738 -0.308618 0.184249 55 88 140
0.640841 -0.229970 0.127103 65 65 134
-0.446440 0.475373 0.138181 68 1 84
0.664247 -0.079836 0.254843 49 102 141
0.631746 0.120995 0.410293 68 1 84
0.143274 0.202631 -0.293944 68 1 84
-0.177329 -0.133123 -0.206667 72 29 111
-0.637494 -0.033785 0.385087 68 1 84
0.032045 -0.525954 -0.250041 114 207 85
-0.637496 -0.415663 0.354549 68 1 84
0.332920 0.206372 -0.155234 51 97 141
0.416117 -0.340899 -0.126859 30 154 137
-0.632431 -0.289144 0.182906 68 1 84
0.105367 -0.215939 -0.262434 69 53 128
0.065146 -0.442367 -0.221473 79 195 105
0.632150 -0.540045 0.148612 55 89 140
-0.648093 -0.227280 0.261756 68 1 84
0.181582 0.303123 -0.242475 68 1 84
0.532608 0.209637 0.064240 48 103 141
0.576050 -0.381945 0.010236 40 122 142
0.167061 -0.342049 -0.144622 48 104 141
0.172858 -0.130286 -0.212832 70 47 124
-0.031022 -0.265349 -0.319809 40 122 142
-0.615451 -0.427232 0.254894 68 1 84
-0.220169 -0.138779 -0.187783 62 73 137
0.110913 -0.199256 -0.263207 69 54 129
0.638112 -0.136747 0.108850 55 88 140
-0.002457 0.230218 -0.356123 68 1 84
-0.623102 -0.011176 0.171109 68 1 84
0.107321 -0.129906 -0.325134 68 1 84
0.100254 0.477384 -0.221019 68 1 84
-0.560289 0.391986 0.305746 68 1 84
0.286952 -0.136750 -0.180799 53 92 140
0.358383 -0.005575 -0.172781 50 98 141
0.541719 0.070688 -0.012908 40 122 142
-0.544484 0.321245 0.145356 68 1 84
0.210233 -0.261892 -0.169633 46 107 142
0.007296 0.597944 -0.234574 68 1 84
0.638590 -0.501740 0.184335 61 76 137
0.220524 0.160252 -0.245917 68 1 84
0.707476 -0.426943 0.523420 68 1 84
-0.108155 0.514646 -0.281946 68 1 84
0.157972 0.485453 -0.180782 68 1 84
-0.258689 0.592804 -0.063713 68 1 84
0.336651 0.551063 0.112002 71 40 120
-0.441222 0.490464 0.179160 68 1 84
-0.372764 0.093316 -0.136635 68 1 84
0.385290 -0.186394 -0.161788 44 113 142
-0.246709 -0.300923 -0.145428 30 151 138
0.067343 -0.240675 -0.311843 70 47 124
-0.369653 0.249881 -0.139570 68 1 84
0.026684 -0.351777 -0.267081 30 160 135
0.437700 0.382556 0.032291 45 110 142
-0.121502 0.625618 -0.189261 68 1 84
0.595762 -0.497888 0.044132 34 137 141
-0.006165 -0.397574 -0.243899 79 195 105
0.562785 0.311134 0.491516 68 1 84
0.050668 -0.208498 -0.358502 69 50 127
0.250921 0.570944 -0.010938 66 64 133
-0.637931 -0.290386 0.203035 68 1 84
-0.624846 0.241110 0.394323 68 1 84
0.199458 -0.057501 -0.205496 70 48 125
0.327285 -0.219010 -0.170575 41 120 142
0.509878 0.175787 0.004760 41 121 142
-0.224750 -0.591598 -0.230791 210 225 27
-0.155644 0.404804 -0.257919 68 1 84
0.684795 -0.270357 0.380395 68 1 84
-0.382305 -0.151630 -0.135001 72 29 111
-0.398741 0.269190 -0.103265 68 1 84
0.225263 -0.315869 -0.168712 31 150 139
-0.261576 -0.241234 -0.147789 34 137 141
0.084129 -0.147592 -0.375852 68 1 84
-0.022167 -0.179901 -0.406028 72 30 112
0.549989 0.347190 0.241294 61 74 137
0.543237 -0.390832 -0.039364 30 160 135
0.493326 0.366852 0.112752 57 84 139
-0.512217 0.342603 0.100443 68 1 84
0.654913 -0.401395 0.247932 71 40 120
0.642276 0.007939 0.260179 61 75 137
-0.326395 0.545435 -0.016411 68 1 84
-0.373333 -0.270220 -0.121239 51 96 141
-0.506056 -0.126306 -0.069908 69 53 128
0.226888 -0.511635 -0.217880 107 205 89
0.254781 0.328933 -0.183565 72 32 113
0.117120 0.269798 -0.309331 68 1 84
0.091437 -0.094834 -0.389933 68 1 84
-0.025218 0.239322 -0.366175 68 1 84
-0.638448 -0.358563 0.396277 68 1 84
-0.390618 -0.043503 -0.135223 69 8 91
0.616426 -0.126243 0.050125 61 76 137
-0.357505 -0.099790 -0.149391 68 55 129
0.165723 0.552999 -0.147865 68 1 84
0.191291 -0.321665 -0.157375 36 132 141
-0.640307 -0.087381 0.350071 68 1 84
0.627962 0.116954 0.368087 67 59 131
-0.610405 -0.552262 0.293547 68 1 84
0.610141 0.175677 0.498594 68 1 84
0.291700 0.168663 -0.193961 71 15 98
0.245286 0.432638 -0.136804 69 50 127
-0.078785 -0.372345 -0.182240 94 201 97
-0.631505 0.006064 0.448165 68 1 84
-0.483780 0.424446 0.126923 68 1 84
