ply
format ascii 1.0
element vertex 1278
property float x
property float y
property float z
property uchar red
property uchar green
property uchar blue
end_header
0.310228 0.498310 0.063310 69 5 88
-0.523149 0.286132 0.296316 68 1 84
-0.149775 0.369325 -0.193857 37 171 129
-0.469130 0.356606 0.323185 68 1 84
-0.597226 -0.066745 0.067257 68 1 84
-0.168308 0.513435 -0.146798 34 137 141
-0.574459 -0.120823 -0.015773 68 1 84
-0.029321 -0.121632 -0.391386 72 32 113
0.606136 -0.167984 0.090614 68 1 84
-0.604532 -0.065207 0.100460 68 1 84
-0.208333 0.518292 -0.101763 43 115 142
-0.673040 -0.220131 0.281904 68 1 84
0.108623 0.177438 -0.250340 131 211 75
0.081373 0.193594 -0.266721 146 215 65
-0.222984 0.329604 -0.161864 30 151 138
0.646650 -0.248282 0.236303 68 1 84
0.721775 -0.379243 0.414770 68 1 84
0.031266 0.613011 -0.055897 36 134 141
0.008754 -0.038428 -0.437228 61 76 137
0.551140 -0.273914 -0.011624 68 1 84
0.142030 -0.376824 -0.266859 68 1 84
0.167825 -0.391795 -0.281240 68 1 84
0.197395 -0.315480 -0.155748 68 1 84
0.357460 -0.130236 -0.162228 68 1 84
-0.206179 0.020554 -0.214364 32 145 140
0.011116 -0.437336 -0.329776 68 1 84
-0.555503 0.215089 0.228272 68 1 84
-0.266537 0.235526 -0.174982 30 152 138
0.220124 0.564047 0.088509 59 81 138
0.134047 -0.259949 -0.186967 61 74 137
-0.451084 0.137175 -0.092802 68 1 84
-0.135310 -0.353235 -0.187518 68 1 84
-0.686913 -0.324714 0.355685 68 1 84
-0.509080 -0.471478 -0.097009 68 1 84
-0.358108 -0.191547 -0.147176 68 1 84
-0.139750 0.528551 -0.159992 32 145 140
0.361022 -0.325380 -0.190508 68 1 84
-0.386582 0.184753 -0.128854 68 1 84
0.425997 0.407076 0.158214 68 1 84
-0.607168 -0.350727 0.092666 71 22 105
-0.484123 0.250544 0.006583 68 1 84
0.085145 0.356657 -0.205464 33 166 133
-0.652562 -0.215048 0.466379 68 1 84
0.510949 -0.183280 -0.061458 68 1 84
-0.514114 0.306070 0.277565 68 1 84
0.669317 -0.421363 0.318072 68 1 84
-0.613270 -0.493854 0.149125 71 21 103
0.389036 0.076927 -0.154106 68 1 84
-0.583798 0.116714 0.274776 68 1 84
-0.309263 -0.347334 -0.170740 68 3 87
-0.686807 -0.360645 0.330494 68 1 84
-0.311135 -0.273854 -0.168920 68 1 84
-0.338578 -0.351741 -0.173148 68 1 84
-0.095336 -0.181599 -0.275151 70 9 92
0.035962 -0.068818 -0.421779 58 83 139
-0.564198 0.131884 0.438929 68 1 84
0.536891 0.104696 0.413929 68 1 84
-0.056362 0.252432 -0.249097 194 223 34
0.244785 0.074403 -0.213812 61 76 137
-0.610730 -0.448620 0.139358 72 25 107
-0.528260 0.286378 0.212963 68 1 84
0.304863 0.472918 0.011143 61 74 137
-0.165097 0.507997 -0.152180 44 113 142
-0.378491 -0.287512 -0.131312 68 3 87
-0.046210 0.611856 -0.067569 37 131 141
0.708640 -0.469344 0.409563 68 1 84
-0.365183 0.468525 0.077967 68 1 84
-0.065853 -0.172771 -0.321987 72 35 116
0.293861 0.128374 -0.192052 71 24 106
0.473950 0.290112 0.077971 68 1 84
0.632220 -0.306429 0.206280 68 1 84
-0.292193 0.042352 -0.212075 48 104 141
0.299183 0.439326 -0.026175 63 71 136
-0.496613 0.321731 0.094937 68 1 84
-0.520557 0.107418 -0.014669 68 1 84
0.522577 0.168692 0.388677 68 1 84
-0.188651 -0.212596 -0.173268 68 1 84
-0.030301 0.210226 -0.283805 191 223 36
0.152857 0.446397 -0.127295 36 133 141
0.210850 -0.425934 -0.302348 68 1 84
0.166871 0.177183 -0.219609 31 163 134
0.082222 0.106183 -0.256469 167 219 51
0.629305 -0.444512 0.232692 68 1 84
-0.171861 0.125554 -0.227277 66 190 113
0.514701 0.161713 0.433633 68 1 84
0.193721 0.269035 -0.167109 32 144 140
-0.314235 -0.094532 -0.194608 69 8 91
-0.031626 0.037312 -0.322110 151 216 62
-0.169345 0.132576 -0.229349 64 189 114
-0.167711 -0.208671 -0.183809 68 1 84
0.037336 -0.426483 -0.327529 68 1 84
0.138602 -0.406734 -0.303446 68 1 84
-0.658855 -0.220760 0.518805 68 1 84
-0.149183 -0.015834 -0.242333 48 180 122
-0.320839 -0.082742 -0.196710 72 32 113
0.541337 0.139925 0.333622 68 1 84
-0.088493 -0.327016 -0.228809 68 1 84
-0.663267 -0.242642 0.497900 68 1 84
0.195491 0.562023 0.005612 39 124 142
-0.403381 0.274949 -0.073275 68 1 84
-0.135068 0.037948 -0.227756 38 172 129
0.484025 -0.053632 -0.107445 68 1 84
0.029667 -0.344679 -0.297047 68 1 84
-0.360008 -0.407525 -0.228900 68 1 84
0.283552 -0.305441 -0.169818 68 1 84
0.341943 -0.103038 -0.175201 68 1 84
0.607164 -0.105668 0.458780 68 1 84
0.679763 -0.420951 0.337685 68 1 84
-0.656481 -0.142204 0.256102 68 1 84
-0.411930 -0.364396 -0.160146 68 1 84
0.624759 -0.152361 0.432363 68 1 84
-0.591371 0.052368 0.195661 68 1 84
-0.247623 0.512745 -0.049674 41 120 142
0.159757 -0.171853 -0.210529 57 84 139
-0.031180 -0.297557 -0.293939 68 1 84
0.368802 0.144279 -0.147487 68 1 84
-0.267727 0.529641 0.049927 58 83 139
-0.054087 0.075303 -0.280255 116 208 84
-0.552070 0.185253 0.127894 68 1 84
0.487924 0.258484 0.391956 68 1 84
-0.105900 -0.121929 -0.291854 53 92 140
0.482073 0.260208 0.411057 68 1 84
0.388298 -0.309741 -0.147976 68 1 84
0.109057 -0.184798 -0.263790 57 85 139
-0.452861 0.304121 0.000920 68 1 84
0.119622 0.038910 -0.293257 31 163 134
-0.670594 -0.220292 0.342886 68 1 84
-0.456043 0.402850 0.192161 68 1 84
0.365326 0.355525 -0.035536 71 38 118
0.468191 0.197552 -0.015305 68 1 84
0.472478 0.039238 -0.094140 68 1 84
-0.493991 0.080799 -0.065341 68 1 84
-0.243973 -0.296039 -0.168872 68 1 84
0.424816 -0.188388 -0.109615 68 1 84
-0.666917 -0.187029 0.285826 68 1 84
0.406602 0.216549 -0.080245 68 1 84
-0.305254 -0.342554 -0.169017 68 1 84
-0.681716 -0.376162 0.303573 68 1 84
-0.235362 -0.160776 -0.183901 68 1 84
-0.263279 0.002407 -0.220949 57 84 139
-0.120156 -0.301400 -0.174759 68 1 84
0.260253 -0.170340 -0.170464 68 1 84
0.546291 0.121347 0.338929 68 1 84
0.184149 0.421877 -0.115028 35 136 141
-0.412099 0.048739 -0.155191 68 1 84
-0.437648 -0.284005 -0.086992 68 2 85
-0.671782 -0.222685 0.332237 68 1 84
-0.072983 -0.153059 -0.327189 71 37 117
0.304595 0.355689 -0.090877 61 74 137
-0.343616 0.253178 -0.130960 68 1 84
0.500898 0.264861 0.319383 68 1 84
0.657302 -0.297490 0.298646 68 1 84
-0.620915 -0.030375 0.409584 68 1 84
-0.124110 0.497949 -0.183063 38 127 142
-0.605881 -0.022846 0.166282 68 1 84
0.486163 -0.140199 -0.099433 68 1 84
-0.690826 -0.563791 0.340144 71 20 102
0.581709 -0.017082 0.130834 68 1 84
-0.139954 0.174004 -0.245462 96 201 96
-0.315127 0.363323 -0.089884 50 99 141
0.071271 0.192472 -0.272392 197 223 33
0.574271 0.013560 0.152673 68 1 84
0.102948 -0.403300 -0.309233 68 1 84
-0.625769 -0.154416 0.106823 68 1 84
0.340149 -0.102675 -0.175593 68 1 84
-0.181835 -0.115679 -0.223145 59 81 138
-0.591653 -0.142625 0.014969 68 1 84
-0.527610 0.288234 0.203601 68 1 84
0.090438 0.128647 -0.256178 191 223 36
-0.099686 -0.192578 -0.262485 69 50 127
0.260653 -0.289185 -0.172065 68 1 84
-0.072799 0.175777 -0.280931 144 214 67
-0.202703 0.223766 -0.189806 30 156 137
-0.130509 0.531554 -0.164454 31 149 139
-0.591562 -0.505550 0.097530 72 28 110
0.544632 -0.072450 -0.037663 68 1 84
-0.084063 0.208786 -0.267984 144 214 67
0.288278 0.513209 0.055937 71 21 103
0.526416 -0.463911 -0.093844 68 1 84
0.417285 0.105619 -0.121359 68 1 84
0.616226 -0.185440 0.126722 68 1 84
0.065901 -0.124223 -0.365333 54 90 140
0.215841 -0.230274 -0.172298 71 39 119
0.573230 -0.045585 0.038003 68 1 84
-0.650154 -0.163413 0.457309 68 1 84
-0.531439 0.261219 0.133882 68 1 84
0.113659 0.180719 -0.247533 107 205 89
0.416649 0.421288 0.207501 68 1 84
0.054682 0.008200 -0.405146 41 175 127
-0.643682 -0.364387 0.199567 71 22 105
0.280453 -0.350703 -0.219869 68 1 84
0.443505 -0.035815 -0.137419 68 1 84
0.605274 -0.106363 0.132526 68 1 84
0.596999 -0.069458 0.132782 68 1 84
0.582229 -0.345530 0.063735 68 1 84
-0.561585 0.188251 0.206547 68 1 84
-0.497642 -0.071522 -0.107536 68 1 84
-0.151924 0.453738 -0.175618 33 140 141
-0.053316 0.442243 -0.207393 35 137 141
-0.705452 -0.441214 0.453860 68 1 84
0.407189 -0.385024 -0.213180 68 1 84
-0.259486 -0.224297 -0.165275 68 1 84
-0.687030 -0.446350 0.328089 68 1 84
0.575287 0.000151 0.122095 68 1 84
-0.315868 0.285167 -0.134635 61 75 137
0.539831 -0.410266 -0.059002 71 18 101
-0.086595 -0.183407 -0.286759 72 33 114
-0.071690 0.401700 -0.203788 34 138 141
-0.548873 0.167906 0.445011 68 1 84
-0.538366 0.162244 0.055358 68 1 84
-0.389348 0.456934 0.100658 68 1 84
-0.358573 0.411916 -0.016616 69 53 128
-0.452890 -0.414151 -0.177094 68 1 84
0.121117 0.115181 -0.237878 59 186 117
-0.575636 -0.005149 0.051695 68 1 84
0.289527 0.525954 0.113455 69 6 90
0.427614 0.404267 0.237011 68 1 84
0.449024 0.349073 0.095910 68 1 84
-0.068995 -0.293900 -0.255710 68 1 84
0.521722 -0.223360 -0.040562 68 1 84
0.414822 -0.330011 -0.160731 68 1 84
0.160397 0.485024 -0.107500 36 134 141
0.603689 -0.075281 0.179222 68 1 84
0.094513 0.583912 -0.098860 35 169 130
-0.560205 -0.060034 -0.023749 68 1 84
0.417565 -0.321124 -0.146323 68 1 84
-0.109945 0.222136 -0.243611 167 219 51
-0.537491 0.258120 0.168945 68 1 84
0.261228 0.377026 -0.098591 50 99 141
0.623738 -0.422172 0.230136 68 1 84
-0.563370 0.034469 0.043811 68 1 84
0.315756 0.126414 -0.183778 68 1 84
0.544351 0.146394 0.256211 68 1 84
-0.429680 0.426070 0.119611 68 1 84
-0.278820 -0.480654 -0.280218 68 1 84
-0.235504 -0.154964 -0.186640 68 1 84
0.403685 -0.381518 -0.212443 68 1 84
-0.571119 0.101378 0.449790 68 1 84
-0.121333 0.027560 -0.297010 119 208 82
0.361144 0.350417 -0.043617 72 34 115
-0.632336 -0.219133 0.110528 68 1 84
0.095665 0.544085 -0.128117 34 167 132
0.560199 0.077163 0.218540 68 1 84
-0.445750 -0.258307 -0.086269 68 1 84
0.235125 0.338670 -0.131433 30 156 137
0.484112 0.213070 0.472236 68 1 84
-0.106724 -0.284316 -0.191100 68 1 84
-0.690115 -0.331918 0.473918 68 1 84
-0.673274 -0.222954 0.296061 68 1 84
-0.040825 0.597077 -0.126768 32 164 133
-0.647739 -0.352047 0.199861 68 1 84
0.557365 -0.074091 -0.015855 68 1 84
0.697316 -0.540194 0.359046 68 1 84
0.436612 0.359836 0.078830 68 1 84
0.518428 -0.009959 -0.055814 68 1 84
-0.331553 -0.197751 -0.153601 68 1 84
0.088684 -0.021279 -0.384183 30 156 137
0.511669 -0.133061 -0.077672 68 1 84
0.424443 0.054265 -0.133226 68 1 84
0.576705 -0.403955 0.056111 68 1 84
-0.669465 -0.366630 0.250874 68 1 84
0.407323 -0.073218 -0.160201 68 1 84
0.493089 -0.220453 -0.061053 68 1 84
0.285871 0.374344 -0.088700 54 91 140
0.413585 0.381005 0.364812 68 1 84
-0.632834 -0.081874 0.229003 68 1 84
0.340417 0.050621 -0.187817 68 1 84
-0.011887 0.316557 -0.266541 199 224 31
0.678810 -0.297450 0.345224 68 1 84
-0.522186 0.286643 0.301866 68 1 84
-0.554224 0.156915 0.107585 68 1 84
-0.590295 -0.173916 0.010801 68 1 84
-0.030903 -0.161150 -0.363405 68 1 84
-0.559120 0.113324 0.093780 68 1 84
0.223764 0.004837 -0.220985 63 69 135
0.189905 0.575515 0.060390 51 96 141
-0.578874 0.061783 0.141550 68 1 84
0.406233 0.429898 0.225748 68 1 84
-0.161384 -0.362697 -0.184001 68 1 84
0.711762 -0.426313 0.424359 68 1 84
-0.486943 0.309225 0.056458 68 1 84
-0.156520 0.210905 -0.228087 98 202 95
-0.575741 0.135967 0.357237 68 1 84
-0.681681 -0.282962 0.314662 68 1 84
-0.525940 -0.185966 -0.069466 68 1 84
-0.109164 0.357662 -0.213992 119 208 82
0.236906 -0.378684 -0.218453 68 1 84
0.318533 0.510405 0.140546 68 1 84
-0.479807 0.159919 -0.050079 68 1 84
0.539200 0.004780 -0.011457 68 1 84
0.264954 0.286353 -0.147307 41 121 142
-0.585940 -0.089638 0.018583 68 1 84
-0.610236 -0.147049 0.059654 68 1 84
0.631998 -0.178104 0.209653 68 1 84
0.569888 0.033117 0.379003 68 1 84
0.176086 0.039559 -0.213920 43 116 142
0.492536 -0.198605 -0.068919 68 1 84
-0.598950 -0.350305 0.072517 68 2 85
0.582217 -0.372204 0.070718 68 1 84
0.397708 -0.292252 -0.121231 68 1 84
-0.615149 -0.178938 0.065859 68 1 84
0.452262 0.238028 -0.013096 68 1 84
0.638306 -0.326359 0.243817 68 1 84
-0.683932 -0.301893 0.332449 68 1 84
-0.037622 0.129553 -0.279187 109 206 88
-0.250488 0.527498 -0.012770 41 121 142
-0.075772 -0.366390 -0.281212 68 1 84
0.299751 0.523594 0.178026 68 1 84
-0.536276 -0.375709 -0.043709 70 12 95
-0.420147 0.413258 0.066436 68 1 84
-0.523872 0.295899 0.234087 68 1 84
-0.593636 0.011217 0.464472 68 1 84
-0.321177 -0.293101 -0.165986 68 1 84
-0.132402 -0.382976 -0.263575 68 1 84
0.620791 -0.307923 0.164467 68 1 84
-0.326953 0.480001 0.035083 70 49 126
0.581202 -0.004576 0.375492 68 1 84
-0.438038 0.300720 -0.020039 68 1 84
-0.666624 -0.563725 0.268917 71 15 98
-0.285337 -0.467635 -0.273860 68 1 84
-0.017495 0.188477 -0.293806 165 218 53
0.350279 -0.323385 -0.176473 68 1 84
-0.486419 -0.272921 -0.062088 72 28 110
-0.538282 -0.351760 -0.036141 69 6 90
0.077366 0.484949 -0.168184 51 182 121
0.654922 -0.430525 0.288631 68 1 84
0.626943 -0.125810 0.265396 68 1 84
-0.230810 0.413776 -0.128071 36 133 141
0.693992 -0.325173 0.469004 68 1 84
-0.706077 -0.480495 0.412339 71 20 102
0.371253 0.275120 -0.082007 72 30 112
-0.204718 0.563036 0.001096 49 100 141
0.409707 0.122902 -0.121781 68 1 84
-0.269002 0.284092 -0.153286 37 131 141
0.649485 -0.224245 0.382496 68 1 84
-0.017549 0.094235 -0.287346 159 217 56
-0.598966 -0.073993 0.067456 68 1 84
-0.022294 -0.330135 -0.293453 68 1 84
-0.159993 -0.244080 -0.169499 68 1 84
0.482908 -0.473861 -0.162541 68 1 84
0.461228 0.163777 -0.045601 68 1 84
0.558897 -0.388363 -0.007159 68 1 84
0.482709 0.228151 0.457359 68 1 84
-0.632575 -0.501037 0.190311 71 15 98
-0.675556 -0.255974 0.239142 68 1 84
-0.523904 -0.417144 -0.073645 68 1 84
-0.614871 -0.001780 0.291660 68 1 84
-0.035747 0.251772 -0.249134 225 227 24
-0.313018 -0.352997 -0.172819 68 1 84
0.477030 0.219302 0.015341 68 1 84
0.402729 0.355497 0.009916 68 1 84
-0.118905 0.141606 -0.252058 121 209 81
-0.153913 -0.382660 -0.237573 68 1 84
0.198544 0.555357 -0.006122 39 124 142
-0.536165 -0.219352 -0.047813 68 1 84
-0.099598 0.571872 -0.145605 33 140 141
0.557872 0.012741 0.047517 68 1 84
0.511586 0.253679 0.252902 68 1 84
-0.665885 -0.343719 0.230993 68 1 84
-0.387819 -0.000367 -0.178090 69 5 88
0.576459 -0.444955 0.058453 68 2 85
-0.421650 0.022548 -0.153219 68 1 84
0.394089 0.384754 0.027060 68 2 85
-0.525572 0.230240 0.429395 68 1 84
-0.010721 0.174043 -0.290888 131 211 75
-0.576048 0.118006 0.194428 68 1 84
0.522096 0.194283 0.343664 68 1 84
0.341124 -0.248842 -0.161158 68 1 84
-0.484415 0.301067 0.044164 68 1 84
0.602956 -0.351207 0.128802 68 1 84
0.649065 -0.216045 0.374183 68 1 84
-0.022118 0.577848 -0.152932 43 177 125
-0.151941 -0.020029 -0.227542 38 172 129
-0.481754 0.350945 0.285176 68 1 84
-0.586777 0.042655 0.449655 68 1 84
0.675633 -0.340699 0.334028 68 1 84
0.131418 0.225727 -0.226982 165 218 53
0.666460 -0.245408 0.341150 68 1 84
-0.441602 -0.110571 -0.148338 68 1 84
-0.382008 0.466963 0.119750 68 1 84
-0.637010 -0.108070 0.442899 68 1 84
-0.367538 -0.211977 -0.138250 68 1 84
0.496372 0.119554 -0.015040 68 1 84
-0.083116 -0.198912 -0.282500 70 11 94
0.245260 0.552284 0.103254 69 53 128
0.622627 -0.219080 0.152993 68 1 84
0.127816 -0.367811 -0.257568 68 1 84
0.581819 -0.150156 0.025882 68 1 84
0.481150 0.261132 0.062910 68 1 84
0.047704 0.017676 -0.332140 48 180 122
0.253979 0.239623 -0.170078 31 147 139
-0.338135 0.249555 -0.135714 67 58 131
0.045271 0.031055 -0.380720 85 198 102
0.548535 0.092323 0.145145 68 1 84
-0.453164 0.171569 -0.075169 68 1 84
-0.656461 -0.209248 0.413739 68 1 84
-0.591059 0.046366 0.434889 68 1 84
0.063306 -0.132698 -0.362780 54 90 140
-0.558325 0.191990 0.182461 68 1 84
0.245237 -0.037542 -0.213592 66 62 133
0.636748 -0.169906 0.256715 68 1 84
-0.122490 -0.034981 -0.327802 39 173 128
-0.521857 -0.479246 -0.071061 68 1 84
-0.027749 -0.052450 -0.432243 63 69 135
-0.076045 -0.268147 -0.253063 68 1 84
-0.521903 0.097803 -0.017010 68 1 84
0.309321 0.460603 0.002421 59 80 138
0.109636 -0.066874 -0.304928 36 134 141
0.603271 -0.094077 0.448868 68 1 84
0.387962 0.453428 0.193835 68 1 84
-0.102542 0.484516 -0.196083 36 134 141
0.228617 0.425631 -0.083855 49 100 141
-0.679086 -0.434112 0.302177 68 1 84
-0.083126 -0.163855 -0.303110 69 52 127
-0.283500 0.389209 -0.095947 39 125 142
0.065978 0.019570 -0.360934 54 184 119
0.356402 0.477895 0.224423 68 1 84
-0.026073 0.335624 -0.245158 157 217 58
-0.616544 -0.286086 0.083933 68 1 84
-0.376783 0.427980 0.023438 68 1 84
-0.142078 0.302896 -0.226912 126 210 78
-0.429147 0.349609 0.006987 68 1 84
0.111585 0.058894 -0.237552 75 194 108
-0.447380 0.262512 -0.032963 68 1 84
0.607006 -0.478088 0.167576 68 1 84
-0.556234 0.172147 0.135014 68 1 84
-0.309676 0.482451 0.011213 68 55 129
-0.088659 -0.186741 -0.281723 70 14 97
0.332885 -0.472399 -0.276072 68 1 84
0.482537 0.275679 0.084848 68 1 84
-0.459345 0.391314 0.117149 68 1 84
0.577485 -0.033798 0.453675 68 1 84
0.448441 0.335625 0.363786 68 1 84
0.250041 -0.078122 -0.201082 70 9 92
0.371592 -0.185514 -0.135055 68 1 84
0.617299 -0.474605 0.197570 68 1 84
-0.370115 -0.058470 -0.185225 70 9 92
0.249805 -0.318785 -0.175188 68 1 84
0.668586 -0.460585 0.310657 68 1 84
0.517750 0.076115 -0.003128 68 1 84
0.285929 0.463360 -0.015535 50 99 141
0.171138 0.405060 -0.133142 33 140 141
-0.241472 -0.006872 -0.222292 61 76 137
0.567601 -0.223448 0.007689 68 1 84
0.490541 -0.393670 -0.154749 68 1 84
0.346283 0.190832 -0.146665 68 1 84
0.411491 0.366696 0.035537 68 1 84
0.237004 0.551324 0.067481 69 50 127
0.703022 -0.340900 0.428424 68 1 84
-0.460928 0.203348 -0.051287 68 1 84
0.109429 -0.369944 -0.273304 68 1 84
-0.463440 0.269750 -0.009241 68 1 84
0.357196 0.181601 -0.142692 68 1 84
0.334250 0.466897 0.045149 72 29 111
0.119247 -0.428981 -0.317467 68 1 84
-0.264267 -0.203275 -0.165385 68 1 84
-0.557092 0.210397 0.228635 68 1 84
0.048908 -0.084072 -0.406755 59 81 138
0.604307 -0.097413 0.447076 68 1 84
0.550221 -0.299478 -0.015306 68 1 84
0.215395 -0.094940 -0.207249 70 9 92
-0.356408 0.259723 -0.120032 68 1 84
0.602347 -0.054982 0.282745 68 1 84
0.275966 -0.368779 -0.232026 68 1 84
-0.654910 -0.144984 0.330476 68 1 84
0.431315 0.068233 -0.122773 68 1 84
0.553361 -0.249614 -0.008718 68 1 84
-0.142987 0.006174 -0.300770 105 204 91
0.594871 -0.031558 0.292832 68 1 84
0.528902 -0.063059 -0.058836 68 1 84
0.222519 0.108509 -0.206768 60 78 138
-0.650651 -0.167022 0.187603 68 1 84
0.402125 0.124231 -0.127706 68 1 84
0.562971 -0.160864 -0.007963 68 1 84
0.494331 -0.076988 -0.100202 68 1 84
0.424520 -0.320835 -0.141990 68 1 84
-0.032012 -0.244064 -0.317975 68 1 84
0.015133 -0.057914 -0.431406 61 75 137
-0.616199 -0.197927 0.067261 68 1 84
-0.340251 -0.227192 -0.150093 68 1 84
-0.619187 -0.105138 0.117460 68 1 84
0.691473 -0.346410 0.358497 68 1 84
-0.116172 -0.337138 -0.189630 68 1 84
-0.504073 -0.018422 -0.089695 68 1 84
0.607250 -0.092725 0.390243 68 1 84
-0.053936 -0.097447 -0.398069 72 29 111
-0.093442 0.595161 -0.103519 34 137 141
0.546356 0.135766 0.289988 68 1 84
-0.672776 -0.223780 0.317325 68 1 84
0.019588 0.075727 -0.294031 114 207 85
-0.324667 0.317988 -0.113728 68 57 130
-0.643147 -0.129731 0.483955 68 1 84
0.130432 -0.357683 -0.232220 68 1 84
-0.306374 0.017234 -0.211369 67 59 131
0.200773 0.168738 -0.206826 39 124 142
-0.018790 0.174641 -0.291105 136 213 71
-0.612844 -0.420136 0.133249 71 21 103
0.230885 -0.004046 -0.220334 60 77 138
0.002946 0.525021 -0.190443 41 175 127
0.204666 -0.293193 -0.155278 68 3 87
0.588782 -0.024394 0.368354 68 1 84
0.411311 0.151291 -0.108293 68 1 84
0.122070 0.218895 -0.235703 124 210 79
0.515592 0.206751 0.123115 68 1 84
0.137946 0.556069 -0.084884 34 137 141
-0.221461 -0.141963 -0.199689 70 48 125
-0.552017 -0.232468 -0.028689 68 1 84
-0.538711 -0.327551 -0.031167 71 20 102
0.298206 -0.350771 -0.229161 68 1 84
-0.121900 -0.215646 -0.219019 68 1 84
-0.354857 -0.125727 -0.174703 71 17 99
0.413692 0.104643 -0.124898 68 1 84
0.112431 0.433857 -0.160916 32 145 140
-0.020159 -0.019472 -0.437535 44 112 142
0.647807 -0.287504 0.268948 68 1 84
-0.598529 0.062247 0.315392 68 1 84
-0.438939 0.422630 0.166772 68 1 84
0.222972 -0.213680 -0.172377 71 24 106
0.419653 0.198412 -0.076458 68 1 84
-0.375836 0.027449 -0.181999 68 1 84
-0.574558 -0.467945 0.043264 69 6 90
0.114661 0.142630 -0.244744 68 190 112
-0.670284 -0.469004 0.278261 68 1 84
-0.129037 0.429802 -0.189249 34 138 141
-0.386226 -0.197854 -0.135547 68 1 84
-0.076930 0.150681 -0.273886 116 208 84
0.555014 -0.431811 -0.012571 68 1 84
0.089480 0.602458 -0.076398 35 168 131
-0.566888 0.124096 0.439137 68 1 84
0.499745 -0.465132 -0.140896 68 1 84
-0.122408 0.432813 -0.191703 35 137 141
-0.103864 -0.386004 -0.285596 68 1 84
0.621593 -0.208260 0.148681 68 1 84
-0.040266 -0.175390 -0.347284 71 21 103
0.515241 0.224701 0.152477 68 1 84
-0.229372 0.217809 -0.188849 31 162 134
0.388062 0.406632 0.044203 69 8 91
-0.637924 -0.113718 0.453865 68 1 84
-0.485142 0.238958 0.000113 68 1 84
0.414595 0.162790 -0.099822 68 1 84
-0.494061 0.054550 -0.075177 68 1 84
-0.576225 -0.349758 0.026174 68 3 87
-0.525751 0.236289 0.077493 68 1 84
-0.665930 -0.195197 0.339705 68 1 84
-0.491386 0.348426 0.247521 68 1 84
-0.007383 0.450780 -0.206122 33 140 141
-0.467306 0.368790 0.091841 68 1 84
0.454746 0.367350 0.244892 68 1 84
-0.254659 -0.294552 -0.170978 68 1 84
-0.444450 0.302792 -0.010623 68 1 84
0.127844 0.224372 -0.230231 151 216 62
0.595935 -0.042939 0.367508 68 1 84
-0.567951 0.175251 0.287577 68 1 84
0.540473 0.160504 0.243682 68 1 84
-0.625491 -0.315514 0.116960 68 1 84
0.108957 0.351238 -0.195915 34 167 132
-0.551619 0.227196 0.260633 68 1 84
0.234027 0.057846 -0.216757 44 114 142
0.140572 0.340987 -0.177944 30 159 136
-0.206175 0.304773 -0.175019 51 182 121
-0.681752 -0.282354 0.338049 68 1 84
0.188227 0.294382 -0.157392 33 140 141
0.050317 -0.258444 -0.308174 70 9 92
-0.506074 -0.269115 -0.052797 68 2 85
-0.038056 -0.436708 -0.327640 68 1 84
0.055036 -0.445372 -0.328028 68 1 84
-0.400471 0.326554 -0.044816 68 1 84
-0.100936 -0.055407 -0.365998 56 86 139
-0.546342 -0.021032 -0.033265 68 1 84
-0.567137 -0.014003 0.017683 68 1 84
-0.545134 0.218514 0.369780 68 1 84
0.466854 0.136082 -0.052999 68 1 84
-0.563066 0.120171 0.118421 68 1 84
-0.477964 0.366095 0.121419 68 1 84
-0.564046 0.117751 0.456725 68 1 84
0.591744 -0.419964 0.114796 68 1 84
0.454757 0.082921 -0.094627 68 1 84
-0.568738 -0.432299 0.035940 71 22 105
0.431872 0.402437 0.180940 68 1 84
-0.179050 0.101291 -0.220051 30 154 137
0.082254 0.327937 -0.231793 51 182 121
-0.589659 -0.090567 0.027302 68 1 84
-0.221576 0.188007 -0.203947 36 170 130
0.585889 -0.041427 0.104690 68 1 84
0.109917 -0.225548 -0.241037 59 80 138
-0.019628 0.046415 -0.382959 146 215 65
-0.551619 0.194494 0.390935 68 1 84
0.091511 0.019208 -0.338704 48 180 122
-0.060751 -0.448277 -0.326390 68 1 84
-0.539092 0.250607 0.163139 68 1 84
0.493094 0.299595 0.192935 68 1 84
0.550662 0.109763 0.331028 68 1 84
0.178696 0.255766 -0.177642 34 167 132
0.343674 0.186707 -0.149911 68 1 84
0.130318 -0.024377 -0.279875 42 119 142
0.054008 0.440879 -0.188548 32 145 140
-0.324735 0.468876 0.011758 70 48 125
0.418542 -0.452438 -0.224731 68 1 84
-0.497559 0.235091 0.017227 68 1 84
0.576241 -0.478240 0.057062 68 1 84
0.441676 0.380385 0.269909 68 1 84
-0.160932 -0.109025 -0.233330 57 84 139
-0.085322 0.313235 -0.259125 170 219 50
0.086291 -0.143902 -0.320211 55 89 140
0.501214 0.164998 0.473534 68 1 84
0.025130 0.352961 -0.224780 134 212 73
-0.626765 -0.113066 0.143578 68 1 84
0.115145 0.020406 -0.323461 33 166 133
0.104154 -0.097729 -0.303358 43 115 142
0.685181 -0.304053 0.431403 68 1 84
0.021330 -0.269342 -0.315093 68 1 84
-0.451289 0.325253 0.014773 68 1 84
-0.012773 0.117744 -0.278955 134 212 73
0.594358 -0.079589 0.485354 68 1 84
0.702607 -0.404920 0.385909 68 1 84
0.630144 -0.132036 0.283650 68 1 84
0.499375 -0.474933 -0.141153 68 1 84
-0.594244 0.074811 0.265936 68 1 84
-0.363682 0.251135 -0.118362 68 1 84
-0.340854 -0.159046 -0.164171 68 1 84
-0.023913 0.191152 -0.292439 151 216 62
-0.679781 -0.305235 0.503551 68 1 84
-0.655799 -0.195907 0.472115 68 1 84
0.505200 0.243184 0.340598 68 1 84
0.687272 -0.340537 0.352286 68 1 84
0.466920 0.316108 0.349448 68 1 84
-0.460332 -0.209118 -0.102279 68 1 84
0.635110 -0.348695 0.249064 68 1 84
-0.003677 -0.072930 -0.426623 64 68 135
-0.599783 -0.047989 0.100002 68 1 84
-0.487582 0.157006 -0.041108 68 1 84
0.223415 0.307694 -0.148829 31 148 139
0.096295 -0.096786 -0.326616 35 137 141
0.607467 -0.358408 0.146657 68 1 84
-0.134955 -0.363095 -0.205667 68 1 84
-0.618182 -0.418589 0.144360 72 32 113
-0.132831 -0.011051 -0.319446 50 181 122
0.302609 0.405882 -0.052454 57 84 139
0.289363 0.518729 0.074907 68 3 87
0.593431 -0.025093 0.283143 68 1 84
-0.077248 -0.092135 -0.379922 63 71 136
-0.158552 -0.148078 -0.224127 68 55 129
0.399267 -0.076441 -0.163417 68 1 84
-0.677679 -0.256962 0.272881 68 1 84
0.110115 0.161645 -0.248565 81 196 104
-0.307782 0.493044 0.028078 63 71 136
0.686951 -0.450072 0.349497 68 1 84
0.522702 0.216812 0.200130 68 1 84
-0.006334 -0.317628 -0.296487 68 1 84
0.076558 0.061686 -0.261283 96 201 96
0.496236 0.293202 0.242837 68 1 84
0.535763 0.087315 0.061339 68 1 84
0.428482 0.383981 0.101949 68 1 84
0.004635 -0.232933 -0.335493 68 1 84
-0.674533 -0.282022 0.447368 68 1 84
-0.457418 0.187184 -0.063109 68 1 84
0.715833 -0.408746 0.441370 68 1 84
-0.081052 -0.227934 -0.269950 68 1 84
0.559682 -0.357734 -0.003312 68 1 84
0.645858 -0.303543 0.283231 68 1 84
0.575849 -0.135977 0.013350 68 1 84
-0.600655 -0.005210 0.165890 68 1 84
-0.063132 0.597890 -0.115323 33 141 140
-0.235466 0.414870 -0.123859 39 126 142
-0.488187 0.357592 0.156920 68 1 84
0.467336 0.257909 0.464194 68 1 84
-0.553391 -0.264751 -0.019707 68 1 84
-0.661487 -0.187265 0.369433 68 1 84
0.411575 0.428147 0.196442 68 1 84
0.271110 0.120635 -0.199709 70 48 125
0.384632 0.205800 -0.107763 68 1 84
-0.658329 -0.487229 0.248002 70 11 94
0.439960 0.328380 0.419400 68 1 84
-0.338134 0.190172 -0.156237 71 40 120
0.373367 0.341063 -0.037657 71 38 118
-0.579426 -0.467215 0.058912 72 28 110
0.158827 0.313561 -0.168990 35 135 141
0.090042 -0.100232 -0.341494 42 117 142
0.438525 0.204285 -0.051976 68 1 84
0.048966 -0.244836 -0.315252 70 9 92
-0.174722 0.440055 -0.162880 38 127 142
0.332406 -0.363133 -0.237092 68 1 84
-0.600007 -0.460525 0.128919 72 33 114
0.600954 -0.362817 0.128190 68 2 85
0.434679 -0.293841 -0.106605 68 1 84
-0.609654 -0.202527 0.051707 68 1 84
0.610689 -0.092327 0.348200 68 1 84
-0.443288 0.413961 0.212051 68 1 84
-0.112958 -0.231335 -0.219007 68 1 84
-0.138525 -0.081065 -0.246915 43 115 142
0.328327 0.448922 0.012075 70 45 124
0.535283 0.097316 0.073483 68 1 84
-0.312407 0.506378 0.081028 71 38 118
0.003710 0.338749 -0.242034 109 206 88
0.587272 -0.054295 0.453640 68 1 84
0.519920 0.135455 0.445666 68 1 84
-0.454222 -0.397884 -0.168207 68 1 84
-0.175469 0.414696 -0.168305 31 147 139
-0.390961 -0.254994 -0.121828 68 1 84
-0.422088 0.312151 -0.030808 68 1 84
0.538244 0.120246 0.385538 68 1 84
-0.345889 0.435688 -0.006137 71 44 123
0.008716 -0.253468 -0.325019 68 1 84
-0.269525 0.082226 -0.206825 38 129 142
0.518384 0.128322 0.457806 68 1 84
-0.645222 -0.340914 0.184981 71 18 101
0.369702 -0.305803 -0.153003 68 1 84
0.424753 0.093613 -0.119108 68 1 84
0.592783 -0.023021 0.237010 68 1 84
0.640453 -0.188015 0.308444 68 1 84
0.555860 0.082898 0.360807 68 1 84
-0.540559 0.181274 0.455264 68 1 84
0.198579 0.487588 -0.079676 41 120 142
-0.271173 -0.018033 -0.220388 55 88 140
0.102759 -0.228032 -0.251152 59 80 138
-0.565737 0.106663 0.119997 68 1 84
0.536960 -0.323887 -0.049604 68 1 84
-0.442827 0.399162 0.086631 68 1 84
-0.583509 -0.039142 0.045594 68 1 84
0.229868 -0.074236 -0.207230 71 24 106
-0.558487 -0.164988 -0.039355 68 1 84
0.097291 -0.297799 -0.229899 72 26 108
0.003453 0.320307 -0.262169 228 227 24
-0.046276 0.317221 -0.264315 116 208 84
-0.100336 -0.306265 -0.196008 68 1 84
0.666484 -0.327740 0.316640 68 1 84
0.560729 -0.007776 0.034397 68 1 84
-0.323426 0.263062 -0.139377 71 22 105
-0.581713 -0.486462 0.049331 69 5 88
-0.468440 0.369992 0.276757 68 1 84
-0.474258 0.163608 -0.055093 68 1 84
-0.440485 0.398359 0.080032 68 1 84
0.160351 -0.188744 -0.200333 50 99 141
-0.107146 0.397509 -0.198628 34 167 132
0.141620 -0.375252 -0.263982 68 1 84
-0.583591 -0.533937 0.058277 68 1 84
0.510930 0.252328 0.189903 68 1 84
-0.493398 -0.139208 -0.111172 68 1 84
-0.419657 0.439467 0.138985 68 1 84
-0.060875 -0.120731 -0.372828 69 52 127
-0.673299 -0.363339 0.256657 68 1 84
-0.005082 0.454831 -0.205769 31 150 139
-0.675030 -0.235461 0.272202 68 1 84
0.101229 0.455635 -0.161134 31 146 140
0.639655 -0.324396 0.250765 68 1 84
0.582327 -0.008207 0.375367 68 1 84
0.046235 -0.022901 -0.425281 42 118 142
0.573656 0.015496 0.152656 68 1 84
-0.074759 -0.088035 -0.386960 66 64 133
-0.500459 -0.083532 -0.106386 68 1 84
-0.472373 -0.089580 -0.129330 68 1 84
0.592429 -0.403523 0.112845 68 1 84
0.175515 -0.294779 -0.153313 64 68 135
0.118165 0.043099 -0.284062 41 175 127
-0.197929 -0.170310 -0.191440 71 24 106
-0.664564 -0.245367 0.206438 68 1 84
0.711764 -0.456568 0.432199 68 1 84
-0.280469 0.425992 -0.078605 41 121 142
0.629869 -0.371395 0.247387 68 1 84
0.348383 -0.265786 -0.156863 68 1 84
0.177076 0.360144 -0.149115 35 135 141
0.175709 -0.094978 -0.224208 54 91 140
-0.517956 0.308111 0.203001 68 1 84
-0.501794 0.322681 0.116594 68 1 84
0.697533 -0.333778 0.380535 68 1 84
-0.062167 0.013948 -0.310822 107 205 89
-0.681900 -0.291021 0.270942 68 1 84
-0.084991 0.016307 -0.311842 119 208 82
-0.644021 -0.198892 0.152363 68 1 84
0.006894 0.468596 -0.202939 33 140 141
-0.514991 -0.039296 -0.083327 68 1 84
0.174013 -0.236289 -0.173587 61 75 137
-0.477291 0.336177 0.357202 68 1 84
0.377727 0.294033 -0.064048 72 33 114
-0.253369 0.023861 -0.218877 50 99 141
0.539005 0.138511 0.162093 68 1 84
-0.037078 0.612166 -0.073162 32 143 140
-0.049127 0.014064 -0.409715 37 171 129
-0.666236 -0.249072 0.435823 68 1 84
0.445695 0.379423 0.248732 68 1 84
-0.612677 -0.502760 0.147674 71 20 102
-0.062482 -0.348030 -0.276428 68 1 84
0.220729 -0.332465 -0.173729 68 1 84
-0.084690 0.530875 -0.186958 34 137 141
0.388964 0.451488 0.200471 68 1 84
-0.326742 -0.381704 -0.226747 68 1 84
0.166826 0.492689 -0.100313 40 122 142
0.481699 -0.274222 -0.075091 68 1 84
-0.526573 0.215405 0.454990 68 1 84
-0.082781 0.579901 -0.142057 30 154 137
-0.200497 0.562206 -0.035403 34 139 141
-0.306558 0.507264 0.067206 71 40 120
-0.482301 -0.313677 -0.075274 71 22 105
-0.104239 0.204895 -0.262452 167 219 51
-0.568638 -0.355654 0.014534 69 6 90
0.056430 0.613357 -0.051317 31 149 139
0.421065 -0.028558 -0.151811 68 1 84
0.284003 -0.078294 -0.194681 68 1 84
-0.402783 0.154395 -0.129533 71 18 101
0.525069 0.105737 0.461679 68 1 84
0.274614 -0.018266 -0.210380 72 28 110
-0.589137 0.059086 0.429770 68 1 84
0.539427 0.124248 0.374975 68 1 84
0.509932 0.237420 0.328650 68 1 84
-0.346454 -0.389731 -0.227161 68 1 84
-0.116461 0.552223 -0.157154 35 136 141
0.636362 -0.489934 0.238041 68 1 84
0.434438 0.399003 0.208090 68 1 84
0.176610 -0.340435 -0.175062 68 1 84
-0.188507 -0.198800 -0.180218 68 1 84
-0.308493 -0.425064 -0.251996 68 1 84
0.195303 0.095468 -0.209277 35 136 141
-0.501641 0.312853 0.096618 68 1 84
0.069136 0.316755 -0.246309 103 204 92
0.568795 -0.024797 0.042751 68 1 84
-0.653773 -0.179995 0.523828 68 1 84
0.423471 0.410714 0.226382 68 1 84
0.628455 -0.464482 0.225964 68 1 84
0.337250 0.161299 -0.162920 68 1 84
-0.609242 -0.049458 0.142971 68 1 84
-0.547119 -0.157948 -0.054896 68 1 84
-0.218864 -0.459233 -0.297186 68 1 84
0.119342 0.305801 -0.206342 43 177 125
0.273331 0.100145 -0.203806 65 65 134
-0.515154 0.275199 0.370813 68 1 84
0.467936 0.343327 0.159527 68 1 84
-0.536715 -0.034278 -0.053887 68 1 84
-0.648891 -0.139477 0.410362 68 1 84
0.050101 0.544719 -0.158026 94 201 97
-0.164994 0.147640 -0.231861 59 186 117
0.578955 0.005101 0.367447 68 1 84
0.163207 0.425615 -0.128497 47 106 141
-0.643037 -0.103597 0.347859 68 1 84
0.111181 0.366323 -0.186513 31 150 139
-0.168761 0.029008 -0.211042 37 130 142
-0.619306 -0.026543 0.266095 68 1 84
-0.461508 -0.110049 -0.136640 68 1 84
-0.658932 -0.236200 0.466630 68 1 84
-0.231266 0.074730 -0.208637 34 139 141
0.497770 0.110994 -0.018356 68 1 84
-0.320138 0.434838 -0.034046 66 62 133
-0.113299 0.598958 -0.054910 34 139 141
0.224243 0.292633 -0.155817 31 148 139
0.083405 -0.204819 -0.294043 64 67 135
0.576147 -0.348445 0.047703 68 3 87
0.314177 0.185008 -0.166952 68 1 84
-0.210546 0.050529 -0.210606 31 148 139
0.213599 -0.388323 -0.245428 68 1 84
-0.257820 -0.207947 -0.165818 68 1 84
-0.666441 -0.211336 0.366122 68 1 84
-0.163047 -0.296736 -0.149399 68 1 84
0.615847 -0.124102 0.428817 68 1 84
0.329927 -0.359092 -0.237102 68 1 84
-0.618642 -0.092815 0.129584 68 1 84
-0.255270 -0.304424 -0.169182 68 1 84
0.566348 -0.015053 0.489700 68 1 84
-0.286447 0.264713 -0.156521 35 135 141
-0.016950 0.490100 -0.204231 33 140 141
-0.136201 -0.422478 -0.309302 68 1 84
0.692497 -0.426393 0.362949 68 1 84
0.616701 -0.380936 0.190759 68 1 84
-0.635359 -0.200463 0.122531 68 1 84
0.647237 -0.219071 0.392564 68 1 84
0.596696 -0.039628 0.306662 68 1 84
0.023569 -0.207136 -0.344956 71 17 99
0.600677 -0.065704 0.175261 68 1 84
-0.291986 -0.218541 -0.161957 68 1 84
0.385700 -0.164314 -0.136900 68 1 84
-0.067190 0.111378 -0.271458 112 206 86
-0.579913 0.067695 0.154234 68 1 84
0.568846 -0.143780 0.000192 68 1 84
0.273930 0.533426 0.092519 71 24 106
-0.128509 -0.363342 -0.215457 68 1 84
-0.519628 -0.490191 -0.075885 68 1 84
-0.617291 -0.142319 0.084549 68 1 84
-0.606692 0.035317 0.338458 68 1 84
0.696192 -0.455644 0.369800 68 1 84
0.190057 -0.052819 -0.222714 48 104 141
-0.551562 -0.329295 -0.015256 68 1 84
0.254705 -0.027075 -0.213360 71 24 106
-0.329610 0.395044 -0.057652 59 81 138
-0.141183 0.096588 -0.233548 75 194 108
-0.319221 -0.156548 -0.169220 68 1 84
0.431112 0.326028 0.024402 68 1 84
0.071275 -0.398824 -0.313645 68 1 84
0.575880 -0.304400 0.035908 68 1 84
0.373707 0.228413 -0.106237 68 1 84
-0.338590 -0.175063 -0.158223 68 1 84
0.050999 -0.240307 -0.316158 70 11 94
0.505999 -0.148048 -0.079235 68 1 84
0.466243 0.180204 -0.029238 68 1 84
0.449748 -0.031754 -0.132416 68 1 84
-0.519120 -0.497290 -0.076470 68 1 84
0.270818 0.279173 -0.147830 40 123 142
-0.456378 0.399972 0.211237 68 1 84
0.469548 0.219013 0.001499 68 1 84
-0.622125 -0.207776 0.083025 68 1 84
0.061767 0.403177 -0.191674 34 167 132
0.200121 0.487302 -0.078573 39 124 142
-0.137871 0.284793 -0.231237 144 214 67
-0.403307 0.454433 0.178938 68 1 84
-0.106790 -0.390483 -0.289163 68 1 84
0.331861 0.340529 -0.078733 66 62 133
0.404753 -0.137467 -0.142713 68 1 84
-0.502653 0.332737 0.157041 68 1 84
0.257794 -0.247507 -0.177602 68 1 84
-0.428991 0.428472 0.127893 68 1 84
-0.490002 0.109337 -0.058773 68 1 84
-0.589030 0.096119 0.311605 68 1 84
-0.634829 -0.070138 0.337355 68 1 84
-0.350442 -0.054600 -0.192996 69 6 90
0.269385 -0.167441 -0.169621 68 1 84
0.337054 0.499232 0.163027 68 1 84
-0.581947 0.124847 0.287720 68 1 84
0.144567 0.591656 0.007367 39 124 142
0.351947 0.486940 0.165031 68 1 84
0.642100 -0.262453 0.222401 68 1 84
-0.255919 0.451662 -0.090603 35 136 141
-0.185665 -0.335252 -0.155877 68 1 84
-0.651931 -0.127773 0.272709 68 1 84
0.483091 0.233977 0.447847 68 1 84
0.656093 -0.293227 0.294405 68 1 84
-0.529395 0.244751 0.382822 68 1 84
0.080677 -0.217070 -0.293229 66 62 133
-0.276224 0.093274 -0.204158 38 129 142
-0.558283 0.198307 0.330172 68 1 84
0.437801 0.394796 0.203180 68 1 84
0.557307 0.015903 0.444646 68 1 84
0.644188 -0.217271 0.234128 68 1 84
-0.512294 0.307030 0.287077 68 1 84
-0.041564 0.116454 -0.279512 139 213 70
0.095382 0.083854 -0.244789 100 203 93
-0.351475 0.482400 0.089629 68 1 84
0.641894 -0.203491 0.234411 68 1 84
0.711701 -0.507551 0.429298 68 1 84
-0.615917 -0.360669 0.119891 68 3 87
0.385128 0.097312 -0.151095 68 1 84
0.250991 0.533439 0.038065 70 48 125
-0.550668 0.228164 0.211607 68 1 84
0.434540 -0.059066 -0.145619 68 1 84
-0.211703 0.034810 -0.212329 34 139 141
0.421481 -0.159132 -0.125132 68 1 84
0.536884 0.136526 0.144349 68 1 84
0.386753 -0.056395 -0.170271 68 1 84
0.499294 0.279605 0.172799 68 1 84
0.550552 0.046522 0.435783 68 1 84
0.486571 0.313878 0.194316 68 1 84
-0.411311 0.084227 -0.147002 68 1 84
0.523904 0.216678 0.253497 68 1 84
0.072381 -0.361153 -0.286135 68 1 84
0.505688 -0.155959 -0.076660 68 1 84
0.043462 0.346753 -0.229248 79 195 105
0.288390 0.340169 -0.110511 49 100 141
-0.060399 0.282683 -0.266752 183 221 41
0.045290 -0.267657 -0.306909 68 1 84
-0.237235 0.194420 -0.197441 30 160 135
-0.473461 -0.178262 -0.113213 68 1 84
0.589891 -0.435650 0.109008 68 1 84
0.207416 0.451957 -0.087273 50 99 141
0.399045 0.442529 0.185711 68 1 84
-0.660194 -0.173262 0.207850 68 1 84
0.352996 0.241767 -0.117011 69 6 90
-0.157445 -0.378127 -0.217723 68 1 84
-0.073258 -0.069377 -0.402675 60 78 138
-0.461947 -0.491299 -0.174881 68 1 84
-0.484464 0.306850 0.049423 68 1 84
-0.201691 -0.447191 -0.299187 68 1 84
0.681740 -0.284028 0.366430 68 1 84
0.237678 0.170426 -0.195438 49 102 141
0.117849 -0.231737 -0.223933 55 89 140
-0.254534 0.528856 0.001572 55 89 140
-0.214940 -0.292318 -0.159751 68 1 84
-0.255529 -0.339393 -0.170647 68 1 84
0.417763 0.259864 -0.042456 68 1 84
-0.224764 -0.102462 -0.214451 66 64 133
0.375155 -0.386338 -0.229075 68 1 84
0.401551 0.422828 0.271896 68 1 84
-0.639556 -0.118222 0.450937 68 1 84
0.515633 0.231267 0.169438 68 1 84
0.531124 0.092823 0.456641 68 1 84
-0.325455 0.139328 -0.180658 55 89 140
0.578086 -0.056457 0.045155 68 1 84
0.390998 -0.396578 -0.227106 68 1 84
0.046609 0.415307 -0.193591 31 147 139
0.682098 -0.368355 0.344804 68 1 84
-0.166883 -0.415229 -0.297082 68 1 84
-0.630242 -0.312173 0.126824 68 1 84
0.063088 0.435285 -0.185315 34 138 141
0.520112 0.224949 0.278537 68 1 84
0.151262 -0.369323 -0.241685 68 1 84
-0.134422 0.336728 -0.214872 94 201 97
-0.232463 -0.228584 -0.166059 68 1 84
-0.314147 0.112201 -0.191890 56 86 139
0.527877 0.143109 0.099976 68 1 84
0.594241 -0.126497 0.062922 68 1 84
0.449085 -0.294753 -0.103996 68 1 84
-0.589328 0.089968 0.355583 68 1 84
0.707089 -0.551190 0.410633 68 1 84
-0.047714 0.084219 -0.282687 151 216 62
-0.691764 -0.548873 0.341858 72 30 112
0.459454 -0.436996 -0.189931 68 1 84
0.212854 -0.382947 -0.225443 68 1 84
0.137770 0.217727 -0.225555 129 211 76
0.539149 0.042697 0.020481 68 1 84
0.288775 0.448771 -0.025409 53 92 140
-0.347431 -0.100558 -0.184025 70 11 94
0.490570 0.240321 0.067062 68 1 84
0.487620 0.285696 0.336824 68 1 84
-0.612379 -0.069818 0.127671 68 1 84
-0.549856 -0.408381 -0.011610 69 5 88
0.255282 -0.031012 -0.212594 71 18 101
-0.471852 0.281385 0.009691 68 1 84
-0.102299 -0.031302 -0.373459 46 109 142
-0.693614 -0.447239 0.351557 68 3 87
-0.531271 0.239900 0.385881 68 1 84
0.582492 -0.076112 0.045476 68 1 84
-0.389314 0.411769 0.020118 68 1 84
0.433779 0.130124 -0.095371 68 1 84
-0.088371 0.577624 -0.143375 31 150 139
-0.442708 0.413521 0.125808 68 1 84
0.588099 -0.016469 0.332685 68 1 84
0.386128 0.043154 -0.164401 68 1 84
-0.083918 0.056999 -0.261446 157 217 58
-0.613686 -0.066321 0.139547 68 1 84
0.631276 -0.137670 0.294065 68 1 84
-0.562654 -0.367591 0.006186 70 12 95
-0.224891 -0.414563 -0.261140 68 1 84
0.381285 0.458175 0.205113 68 1 84
0.105795 0.246057 -0.226728 114 207 85
0.475924 0.169492 -0.020583 68 1 84
-0.058988 0.376612 -0.210181 46 178 124
0.276871 -0.369717 -0.233006 68 1 84
-0.368018 -0.152902 -0.161070 68 1 84
0.128759 0.009071 -0.310929 35 137 141
-0.530841 0.132457 0.018611 68 1 84
0.013635 0.250686 -0.245658 212 225 26
0.646359 -0.512999 0.255319 68 1 84
-0.269446 -0.164124 -0.174339 72 29 111
0.348371 0.489425 0.153428 68 1 84
-0.661837 -0.197575 0.203078 68 1 84
-0.654233 -0.163620 0.482316 68 1 84
-0.518582 -0.347181 -0.064743 70 12 95
-0.266389 -0.454734 -0.276859 68 1 84
0.601275 -0.353508 0.124576 68 1 84
-0.632600 -0.093620 0.203098 68 1 84
-0.080158 -0.418844 -0.319764 68 1 84
0.722208 -0.382010 0.417924 68 1 84
0.561051 0.070080 0.203426 68 1 84
-0.371707 -0.389077 -0.212300 68 1 84
0.615071 -0.092334 0.313953 68 1 84
-0.626826 -0.045344 0.322256 68 1 84
-0.353065 0.487734 0.124886 71 24 106
-0.478115 -0.149726 -0.120274 68 1 84
0.290624 0.481633 0.005936 62 73 137
0.377239 0.412058 0.033223 71 43 122
0.051838 -0.161453 -0.354429 69 52 127
0.525658 0.125729 0.068736 68 1 84
-0.421021 -0.393258 -0.185164 68 1 84
-0.642283 -0.091086 0.367327 68 1 84
0.094047 -0.147789 -0.304842 49 102 141
0.618172 -0.374293 0.189901 68 1 84
-0.319594 0.120315 -0.188236 47 105 141
0.134846 -0.137299 -0.249030 68 57 130
-0.108437 -0.162307 -0.268840 72 32 113
0.059833 0.014510 -0.312194 57 185 118
-0.453813 -0.109965 -0.141465 68 1 84
0.425826 0.202990 -0.067135 68 1 84
-0.653957 -0.541528 0.238492 70 9 92
0.302373 0.194508 -0.168587 71 15 98
-0.576032 -0.085043 -0.002893 68 1 84
0.633926 -0.149284 0.290673 68 1 84
0.059144 0.230139 -0.256589 170 219 50
-0.486381 0.295984 0.043370 68 1 84
0.130165 0.326494 -0.192584 50 181 122
0.359064 0.434570 0.036394 64 67 135
0.565200 -0.154719 -0.005060 68 1 84
0.392325 -0.460928 -0.242654 68 1 84
0.456492 0.346373 0.318298 68 1 84
-0.404273 0.221133 -0.098120 68 1 84
0.521048 0.180085 0.115210 68 1 84
-0.646001 -0.183394 0.165831 68 1 84
-0.201566 0.564600 -0.009874 45 111 142
0.474244 0.234276 0.021605 68 1 84
-0.220281 0.070253 -0.209509 30 157 136
-0.571643 0.040056 0.082022 68 1 84
-0.612002 0.011514 0.293918 68 1 84
0.651021 -0.343571 0.295656 68 1 84
0.534817 0.179977 0.256536 68 1 84
0.485388 0.271607 0.088052 68 1 84
-0.681906 -0.340903 0.296462 68 1 84
-0.561959 0.087787 0.492649 68 1 84
-0.690479 -0.346179 0.376426 68 1 84
0.515045 0.217405 0.137187 68 1 84
-0.032867 0.292826 -0.268812 212 225 26
0.108555 0.271057 -0.206270 79 195 105
-0.696459 -0.581645 0.369584 70 9 92
0.171817 0.320899 -0.160513 39 125 142
-0.314056 0.459892 -0.015102 60 77 138
-0.667221 -0.356101 0.240856 68 1 84
0.539762 -0.019787 -0.025588 68 1 84
0.577342 -0.023959 0.082186 68 1 84
-0.256993 -0.383536 -0.223827 68 1 84
0.440274 0.387050 0.155164 68 1 84
-0.607309 -0.108846 0.069425 68 1 84
-0.012786 -0.033064 -0.437786 54 90 140
-0.592695 -0.258659 0.030288 68 1 84
0.141876 0.509824 -0.110806 37 131 141
0.122859 0.380486 -0.173783 32 144 140
0.583875 0.004200 0.302532 68 1 84
-0.679974 -0.270364 0.254258 68 1 84
0.461127 -0.421165 -0.188528 68 1 84
0.182649 0.516386 -0.075917 43 116 142
0.019239 0.376192 -0.208770 75 194 108
-0.306831 0.041439 -0.208201 54 90 140
0.022967 -0.363764 -0.303935 68 1 84
-0.026498 -0.398973 -0.317581 68 1 84
-0.407447 -0.084121 -0.166117 68 1 84
-0.164948 -0.321676 -0.151076 68 1 84
-0.470359 0.374223 0.254248 68 1 84
-0.028596 -0.307086 -0.292096 68 1 84
-0.590281 -0.102872 0.023025 68 1 84
0.027371 0.380979 -0.206249 31 162 134
-0.587198 -0.402715 0.068887 71 22 105
-0.514568 -0.078815 -0.092324 68 1 84
-0.562868 0.051499 0.056085 68 1 84
-0.354050 0.296893 -0.105662 68 1 84
-0.535878 0.256334 0.313915 68 1 84
-0.210922 -0.005884 -0.219955 37 130 142
0.188672 0.562504 -0.007184 40 122 142
0.412999 -0.034178 -0.157314 68 1 84
0.131226 0.566610 -0.081145 35 136 141
0.017320 0.549752 -0.172343 116 208 84
0.531302 0.133008 0.104661 68 1 84
0.532251 0.163183 0.346626 68 1 84
0.573805 0.029857 0.201795 68 1 84
-0.513612 -0.403217 -0.094020 68 1 84
0.441901 0.175902 -0.063634 68 1 84
-0.588208 0.050619 0.175195 68 1 84
-0.579480 0.099648 0.420802 68 1 84
0.633780 -0.372363 0.261938 68 1 84
0.130141 0.103530 -0.231395 91 200 98
0.583152 -0.291817 0.049512 68 1 84
-0.390341 0.464159 0.151662 68 2 85
0.004372 0.303465 -0.266754 159 217 56
-0.393412 -0.213544 -0.127041 68 1 84
-0.164477 0.124999 -0.229947 57 185 118
-0.052548 0.540126 -0.185763 30 153 138
0.054601 -0.032125 -0.421572 40 122 142
0.681822 -0.408125 0.342240 68 1 84
0.616930 -0.419772 0.216523 68 1 84
0.569407 -0.005718 0.071029 68 1 84
0.450833 0.309197 0.425316 68 1 84
-0.651734 -0.328165 0.193462 68 1 84
-0.545054 0.244802 0.245541 68 1 84
-0.527888 0.226538 0.075304 68 1 84
-0.232526 0.393789 -0.134301 30 159 136
0.495498 0.206347 0.444658 68 1 84
-0.336711 -0.360923 -0.189230 68 1 84
-0.156364 0.581387 -0.060557 30 151 138
-0.588162 0.095261 0.252749 68 1 84
-0.556050 0.214069 0.237267 68 1 84
0.284529 0.491955 0.012168 60 77 138
0.679051 -0.483458 0.328151 68 1 84
0.174226 -0.321027 -0.163050 68 1 84
0.513954 0.147998 0.451538 68 1 84
-0.531026 0.060100 -0.020200 68 1 84
0.376220 0.370423 -0.010732 69 5 88
-0.111875 0.017797 -0.330317 100 203 93
-0.595883 -0.414396 0.096154 72 32 113
0.488921 -0.121122 -0.102156 68 1 84
0.456982 -0.442775 -0.191619 68 1 84
-0.326259 0.229006 -0.149328 71 43 122
-0.094470 0.080940 -0.252044 96 201 96
0.219696 -0.182122 -0.174023 63 69 135
0.283207 -0.050180 -0.202203 68 1 84
-0.644080 -0.357127 0.194761 71 18 101
0.460189 -0.040309 -0.125919 68 1 84
-0.570135 0.104209 0.450198 68 1 84
0.601296 -0.397879 0.151502 70 14 97
0.003033 0.053370 -0.371880 248 230 33
0.544343 0.126268 0.189196 68 1 84
-0.640907 -0.100653 0.407821 68 1 84
-0.445885 0.278584 -0.024970 68 1 84
0.371966 0.021193 -0.175625 68 1 84
-0.112311 0.595375 -0.083609 33 142 140
-0.001811 0.608051 -0.080992 31 146 140
0.292874 0.527794 0.176048 68 1 84
0.093883 -0.223756 -0.269094 66 62 133
0.031514 0.489514 -0.191894 31 148 139
-0.605850 -0.023836 0.164672 68 1 84
0.452558 0.362991 0.137190 68 1 84
-0.555763 0.155374 0.113878 68 1 84
0.600924 -0.054825 0.337432 68 1 84
-0.511602 0.273068 0.390952 68 1 84
0.296267 -0.186426 -0.164185 68 1 84
-0.421155 0.438543 0.192464 68 1 84
-0.019105 0.371988 -0.213052 62 188 115
0.326167 0.358144 -0.071486 67 58 131
-0.276562 0.417039 -0.086378 40 123 142
-0.674434 -0.538101 0.289470 72 30 112
-0.352418 -0.347176 -0.164628 68 1 84
0.317007 0.194293 -0.162288 68 1 84
-0.423195 0.106671 -0.130428 71 20 102
-0.179321 -0.400435 -0.263246 68 1 84
-0.597882 -0.131025 0.031730 68 1 84
0.100917 0.413253 -0.173849 34 139 141
-0.554999 -0.170857 -0.042860 68 1 84
-0.295490 0.035722 -0.212157 55 88 140
-0.700492 -0.580337 0.409702 69 6 90
0.108893 -0.387872 -0.293372 68 1 84
0.001237 0.587907 -0.132427 71 192 110
-0.223833 -0.317803 -0.160431 68 1 84
-0.518081 0.241481 0.438881 68 1 84
-0.154275 -0.078353 -0.235248 53 93 140
0.489579 0.211980 0.456567 68 1 84
0.179304 0.230214 -0.197070 40 174 127
-0.438710 -0.290129 -0.086849 71 20 102
0.336015 -0.369791 -0.237476 68 1 84
0.613955 -0.111842 0.401913 68 1 84
-0.010137 -0.069986 -0.427385 69 53 128
-0.691588 -0.339854 0.424208 68 1 84
-0.046893 0.565119 -0.168031 38 172 129
0.622887 -0.134232 0.372812 68 1 84
0.701278 -0.405857 0.382622 68 1 84
-0.020365 0.072438 -0.302393 175 220 46
0.568082 -0.105810 -0.000991 68 1 84
0.677571 -0.274546 0.410143 68 1 84
0.142366 -0.181691 -0.222800 50 98 141
-0.676856 -0.429299 0.294816 68 1 84
-0.572248 0.158612 0.303523 68 1 84
-0.315063 -0.388806 -0.233339 68 1 84
-0.573363 -0.269733 0.003946 68 1 84
0.494592 -0.106900 -0.099020 68 1 84
0.422865 0.413782 0.208359 68 1 84
-0.026723 0.537384 -0.187507 35 168 131
0.035537 0.483576 -0.191361 31 162 134
0.565417 -0.487820 0.018436 68 1 84
0.121670 -0.203138 -0.237217 66 61 132
-0.003095 0.139592 -0.279601 83 197 103
-0.641359 -0.324252 0.162822 68 1 84
-0.086857 -0.097926 -0.356503 65 66 134
0.536907 -0.453551 -0.069625 68 1 84
0.403238 0.415143 0.291980 68 1 84
-0.321786 -0.253222 -0.163493 68 1 84
-0.682078 -0.349090 0.299231 68 1 84
-0.150701 -0.008907 -0.265028 54 184 119
0.582016 -0.370786 0.069879 68 1 84
-0.161456 -0.262816 -0.164340 68 1 84
0.100567 0.365859 -0.192229 30 152 138
0.065873 -0.361038 -0.289286 68 1 84
0.579804 0.002307 0.367885 68 1 84
0.535092 0.108509 0.088933 68 1 84
0.184568 0.185047 -0.211310 35 168 131
0.126963 -0.061120 -0.257236 32 145 140
-0.230738 0.292227 -0.161500 30 158 136
0.525659 0.129872 0.431953 68 1 84
0.638283 -0.367875 0.271094 68 1 84
0.601763 -0.069326 0.176138 68 1 84
0.291772 -0.163507 -0.166811 68 1 84
0.146504 -0.233987 -0.188553 58 83 139
0.055029 0.362244 -0.212875 51 182 121
0.137347 -0.060791 -0.244780 46 108 142
-0.297234 -0.152233 -0.174300 68 1 84
-0.581028 0.113061 0.378553 68 1 84
-0.010213 0.608252 -0.081641 32 144 140
-0.528442 -0.078189 -0.077274 68 1 84
-0.047931 -0.404120 -0.317466 68 1 84
-0.339126 0.498445 0.143483 69 8 91
-0.702198 -0.404413 0.421379 68 1 84
-0.549287 0.220343 0.337854 68 1 84
-0.675971 -0.241176 0.263624 68 1 84
-0.237544 -0.202166 -0.168184 68 1 84
0.547011 0.039857 0.463521 68 1 84
0.603697 -0.363792 0.137432 68 1 84
0.602773 -0.140619 0.087610 68 1 84
0.400847 0.426319 0.262214 68 1 84
0.381240 0.460484 0.186763 68 1 84
0.661085 -0.363415 0.307384 68 1 84
