ply
format ascii 1.0
element vertex 1260
property float x
property float y
property float z
property uchar red
property uchar green
property uchar blue
end_header
0.212417 0.661163 0.030861 48 180 122
0.461793 -0.060007 -0.113516 68 1 84
0.025408 -0.353060 -0.298293 68 1 84
-0.622971 -0.085267 0.417487 40 122 142
0.177215 0.596781 -0.133071 39 124 142
-0.499960 -0.461654 -0.111689 69 53 128
-0.235488 0.653886 -0.058536 253 231 36
-0.087945 0.158935 -0.290717 68 1 84
0.327868 0.521667 -0.005218 49 101 141
-0.586954 -0.414304 0.127479 55 89 140
0.400024 0.421626 0.004291 70 48 125
0.257030 -0.539305 -0.299842 68 1 84
-0.443514 0.265780 -0.047632 40 122 142
-0.303856 0.181614 -0.177900 68 1 84
-0.540314 0.155870 0.073170 39 125 142
0.476379 0.439797 0.297259 33 167 132
0.325885 -0.396049 -0.231213 68 1 84
-0.573933 -0.027291 0.073446 49 100 141
0.415807 0.207755 -0.082440 68 1 84
-0.507446 0.286587 0.070265 33 140 141
0.447426 -0.431390 -0.185958 68 1 84
0.379000 0.197134 -0.119203 68 1 84
0.217113 -0.138254 -0.194248 68 1 84
0.678859 -0.219828 0.298564 72 25 107
0.231111 -0.421253 -0.249338 68 1 84
-0.557446 0.225695 0.182008 38 127 142
-0.300462 0.023751 -0.184686 68 1 84
-0.215925 0.168897 -0.216443 68 1 84
0.497860 -0.355549 -0.080618 68 1 84
0.630391 0.019519 0.461326 38 127 142
0.042241 0.191917 -0.299105 68 1 84
0.278995 -0.516402 -0.287377 68 1 84
-0.103417 0.133332 -0.268371 68 1 84
0.311893 -0.089482 -0.174486 68 1 84
-0.574473 -0.277661 0.048533 69 5 88
-0.624481 -0.074391 0.370935 36 132 141
0.102989 0.413372 -0.223239 69 54 129
0.648691 -0.069981 0.493761 30 153 138
0.463145 -0.431257 -0.173516 68 1 84
-0.550446 -0.016398 0.021464 52 94 141
0.017523 0.284578 -0.271836 68 1 84
-0.485821 0.389463 0.122083 31 163 134
0.640671 -0.128170 0.208858 68 1 84
0.086073 0.087342 -0.296578 68 1 84
-0.643526 -0.321836 0.304573 37 131 141
-0.580728 0.030196 0.138170 48 103 141
-0.393465 0.349706 -0.071348 41 120 142
0.410386 0.511000 0.306755 51 182 121
-0.187923 -0.131040 -0.222876 68 1 84
0.663614 -0.123127 0.439570 59 80 138
0.535589 0.055304 0.005775 68 1 84
0.633329 -0.472191 0.200971 68 1 84
-0.620244 -0.445958 0.286734 47 106 141
0.337054 0.534337 0.022905 48 103 141
-0.276044 -0.392482 -0.180544 68 1 84
0.005116 0.216706 -0.311136 68 1 84
0.497528 0.298582 0.075165 70 47 124
0.384355 0.407467 -0.028226 71 20 102
0.622489 -0.379094 0.160883 68 1 84
-0.339986 0.095299 -0.166500 68 1 84
0.601753 0.147380 0.452877 41 175 127
-0.106868 0.214623 -0.293807 68 1 84
-0.131187 0.710549 -0.106658 51 182 121
-0.059115 0.193514 -0.306973 68 1 84
-0.629161 -0.224052 0.513796 38 127 142
-0.095327 -0.153436 -0.345634 68 1 84
-0.526062 -0.540663 -0.058883 64 67 135
-0.563782 -0.414119 0.063202 67 60 132
0.659670 -0.133658 0.472472 42 118 142
0.396728 0.106912 -0.128217 68 1 84
-0.230366 0.473520 -0.137081 33 167 132
-0.407535 0.435472 0.007428 31 147 139
-0.578473 -0.362356 0.084555 71 43 122
0.501846 0.389348 0.396763 59 186 117
-0.192058 -0.290624 -0.182952 68 1 84
-0.471455 -0.257092 -0.079317 69 50 127
-0.176837 0.341388 -0.200843 72 28 110
-0.649718 -0.528381 0.483134 47 105 141
-0.423943 -0.219021 -0.124174 68 1 84
0.479431 0.293280 0.038471 72 34 115
0.521000 0.162099 0.035036 71 21 103
0.133449 0.068652 -0.220731 68 1 84
0.302728 0.109623 -0.181844 68 1 84
0.238494 0.524517 -0.097848 34 138 141
-0.096394 -0.411113 -0.267918 68 1 84
0.584817 0.097243 0.161404 69 8 91
0.550141 0.204949 0.129709 68 1 84
-0.499994 0.367803 0.135410 30 151 138
0.629870 -0.159370 0.148424 68 1 84
-0.486248 0.411265 0.243337 31 150 139
0.367947 -0.051052 -0.159745 68 1 84
0.573730 -0.391448 0.044124 68 1 84
0.247490 0.463516 -0.119673 72 26 108
0.064249 -0.243671 -0.279874 68 1 84
0.590084 0.176281 0.256762 42 117 142
0.249811 0.304300 -0.179511 68 1 84
0.535901 -0.470334 -0.078468 68 1 84
-0.070415 -0.252977 -0.320976 68 1 84
0.325189 -0.491210 -0.258896 68 1 84
-0.358089 0.562556 0.148022 33 166 133
-0.355501 0.172268 -0.148786 71 18 101
-0.150818 -0.470507 -0.286750 68 1 84
0.403030 -0.533014 -0.233785 68 1 84
-0.172785 0.174697 -0.240534 68 1 84
-0.463175 -0.425336 -0.136714 72 28 110
-0.201122 0.490419 -0.152496 56 185 118
-0.474996 -0.084997 -0.096855 72 30 112
-0.143904 0.586257 -0.201556 119 208 82
0.581923 -0.406406 0.066723 68 1 84
-0.379740 -0.050118 -0.149018 68 1 84
0.138917 -0.274525 -0.189406 68 1 84
0.024764 -0.204936 -0.375564 68 1 84
-0.157700 -0.517417 -0.315310 68 1 84
-0.326711 -0.255859 -0.170755 68 1 84
-0.013984 0.410759 -0.230505 67 58 131
-0.384398 0.358183 -0.076024 51 97 141
-0.293144 0.611870 0.020722 105 204 91
0.554977 0.108804 0.073883 68 1 84
0.314016 0.596747 0.132920 66 190 113
0.217396 -0.131702 -0.194840 68 1 84
-0.454666 -0.505790 -0.180406 69 54 129
0.638786 -0.074689 0.250246 68 1 84
0.476396 -0.182042 -0.099903 68 1 84
-0.319318 0.140920 -0.172576 71 20 102
0.389500 0.485424 0.049251 53 92 140
-0.195743 0.150542 -0.219892 68 1 84
-0.166883 0.048308 -0.295835 68 1 84
0.656697 -0.101781 0.333790 69 52 127
-0.609764 -0.232110 0.121837 72 29 111
-0.527005 -0.155504 -0.051923 67 60 132
0.117126 -0.313997 -0.192649 68 1 84
0.561801 0.086721 0.076490 68 1 84
0.635176 0.014992 0.435342 43 115 142
0.528283 0.088349 0.010140 68 1 84
0.448772 0.469536 0.319709 66 190 113
-0.178337 0.500516 -0.166684 144 214 67
-0.526981 0.285718 0.444477 31 148 139
-0.145237 0.347546 -0.224848 68 1 84
-0.559394 0.184931 0.151875 36 133 141
0.020409 0.564902 -0.228144 157 217 58
-0.377491 0.442302 -0.028006 36 170 130
-0.607859 -0.508248 0.256453 63 69 135
-0.036830 -0.360766 -0.298736 68 1 84
-0.649116 -0.542154 0.494461 57 84 139
0.701465 -0.238763 0.403297 58 83 139
-0.419655 0.424043 0.016317 37 130 142
-0.057777 0.615033 -0.230312 46 178 124
-0.092048 -0.175575 -0.335108 68 1 84
-0.589685 0.000386 0.580327 68 1 84
0.574182 0.187241 0.193336 64 67 135
-0.611054 -0.579751 0.278792 70 11 94
-0.044187 0.051906 -0.437556 68 1 84
-0.412838 -0.306549 -0.114710 71 22 105
0.168245 -0.406243 -0.229067 68 1 84
0.351651 -0.554228 -0.264166 68 1 84
0.520576 0.152236 0.028799 70 9 92
0.472626 0.423047 0.154744 59 81 138
0.281322 -0.138230 -0.182035 68 1 84
-0.134031 0.023707 -0.375521 68 1 84
-0.230791 -0.556999 -0.309771 71 15 98
0.451613 0.242685 -0.028215 68 1 84
-0.079413 -0.309062 -0.259905 68 1 84
0.551191 0.307821 0.257254 54 90 140
-0.052761 0.235171 -0.309336 68 1 84
0.585084 -0.521707 0.063431 68 1 84
0.616557 0.014189 0.236322 70 45 124
0.489781 0.214502 0.011219 68 1 84
0.278289 0.573418 -0.022107 42 117 142
0.572077 0.212184 0.209711 55 89 140
0.671254 -0.156053 0.495924 50 98 141
-0.395687 -0.578844 -0.232692 68 1 84
0.005103 -0.228906 -0.371431 68 1 84
0.217942 0.643339 -0.035158 59 186 117
-0.227511 0.446302 -0.147981 30 157 136
-0.425109 0.333418 -0.041782 40 122 142
0.128579 0.549671 -0.175283 218 226 24
0.059739 0.717749 -0.135345 114 207 85
-0.058947 0.082728 -0.333908 68 1 84
-0.031717 -0.334021 -0.308501 68 1 84
-0.592532 -0.292157 0.092100 70 9 92
-0.636530 -0.245550 0.271541 65 65 134
0.553898 -0.374565 -0.000699 68 1 84
-0.523854 0.289496 0.449093 36 134 141
-0.219626 -0.324047 -0.176582 68 1 84
0.068313 -0.506083 -0.323159 68 1 84
-0.292983 0.103197 -0.185137 68 1 84
-0.082023 -0.118854 -0.402255 71 40 120
0.621126 0.059438 0.306821 48 103 141
0.605025 0.108929 0.472805 43 177 125
0.629152 0.004201 0.549165 39 173 128
0.094614 0.343092 -0.225767 71 15 98
-0.242116 -0.100258 -0.196627 68 1 84
0.565457 -0.439258 0.019135 68 1 84
0.092147 0.388607 -0.236144 71 17 99
0.314918 -0.028318 -0.177389 68 1 84
0.243313 0.082472 -0.200816 68 1 84
0.401197 -0.376979 -0.204901 68 1 84
0.056002 -0.430717 -0.303478 68 1 84
-0.627611 -0.234906 0.210315 69 50 127
0.454882 -0.242779 -0.102584 68 1 84
-0.467543 0.424951 0.126230 31 163 134
0.598429 0.133192 0.252968 45 110 142
0.280210 0.103842 -0.190665 68 1 84
0.238253 -0.482229 -0.276043 68 1 84
-0.009950 0.281063 -0.280146 68 1 84
-0.401519 -0.425149 -0.193504 71 24 106
0.405742 0.418241 0.010003 69 50 127
0.400585 -0.262171 -0.145105 68 1 84
-0.163124 -0.409448 -0.220165 68 1 84
-0.024039 -0.071569 -0.474168 55 89 140
-0.502709 0.056596 -0.031243 67 60 132
0.367478 0.495803 0.025989 43 116 142
-0.047579 0.274791 -0.285745 68 1 84
0.021910 0.723434 -0.138464 32 165 133
-0.622822 -0.451245 0.298427 47 105 141
0.436649 0.483137 0.316851 96 201 96
-0.649970 -0.295627 0.331949 45 111 142
0.278300 0.391931 -0.130625 68 1 84
-0.517021 -0.214008 -0.053455 67 60 132
0.359711 0.311213 -0.099136 68 1 84
0.287964 -0.369003 -0.190647 68 1 84
0.471880 0.419413 0.144941 50 98 141
0.445946 -0.496247 -0.205540 68 1 84
-0.442148 0.474731 0.201666 32 165 133
-0.175094 0.292450 -0.209603 68 3 87
-0.513364 0.209281 0.038501 44 112 142
-0.613909 -0.108041 0.514147 46 107 142
0.240072 0.098895 -0.200712 68 1 84
0.004846 0.071940 -0.359723 68 1 84
0.081582 -0.018963 -0.408101 68 1 84
0.199375 -0.502504 -0.303183 68 1 84
0.256921 -0.046137 -0.193784 68 1 84
0.440380 -0.418830 -0.189160 68 1 84
-0.517819 0.346682 0.316823 37 131 141
-0.191072 -0.041525 -0.226696 68 1 84
0.563808 -0.045681 0.008495 68 1 84
0.282640 -0.533116 -0.289542 68 1 84
-0.560610 0.129696 0.534504 46 109 142
0.588755 -0.284211 0.057770 68 1 84
0.121687 0.423315 -0.210076 70 48 125
-0.623714 -0.203326 0.513355 34 138 141
-0.630578 -0.131343 0.316502 53 93 140
0.130880 0.531439 -0.173957 146 215 65
0.658193 -0.492722 0.264906 68 1 84
-0.422178 -0.266373 -0.116513 68 1 84
0.589568 -0.391618 0.083809 68 1 84
-0.080962 -0.347413 -0.252900 68 1 84
0.078327 -0.347786 -0.234666 68 1 84
-0.449425 0.450063 0.117177 31 150 139
0.401524 0.243417 -0.084457 68 1 84
-0.394571 0.417814 -0.025001 35 135 141
-0.333061 -0.321095 -0.170685 68 1 84
0.072495 0.361241 -0.244334 68 1 84
-0.145094 0.240076 -0.268035 68 1 84
-0.516597 -0.206655 -0.055889 67 58 131
-0.145194 -0.388291 -0.209404 68 1 84
0.585978 -0.329335 0.063205 68 1 84
0.295960 -0.386837 -0.206336 68 1 84
0.603880 0.087862 0.499207 71 192 110
-0.553335 0.135879 0.097549 47 105 141
-0.528932 0.334908 0.241811 36 134 141
-0.026646 0.165739 -0.298714 68 1 84
0.307858 0.290141 -0.144312 68 1 84
0.323631 0.587397 0.113260 87 198 101
0.321095 0.017941 -0.177307 68 1 84
0.710025 -0.322135 0.404415 65 65 134
-0.348820 0.334148 -0.115962 50 99 141
0.558444 0.287979 0.256617 55 89 140
-0.432089 0.479678 0.255280 31 150 139
-0.544553 0.256953 0.425360 39 173 128
-0.065911 -0.091434 -0.444820 67 59 131
-0.639081 -0.295331 0.283897 49 100 141
-0.235360 0.032041 -0.201717 68 1 84
-0.195846 0.108048 -0.207582 68 1 84
-0.172802 -0.173166 -0.220633 68 1 84
0.612892 0.042489 0.241979 70 48 125
-0.564262 0.147218 0.512694 35 169 130
-0.285318 -0.218423 -0.180241 68 1 84
0.551253 0.280783 0.471914 119 208 82
0.014039 0.678436 -0.203928 31 163 134
0.597688 0.023950 0.149898 68 1 84
-0.112555 -0.165114 -0.304130 68 1 84
0.183065 0.589351 -0.128951 39 173 128
-0.078142 -0.024211 -0.470511 69 50 127
-0.256186 0.610088 -0.084948 197 223 33
0.510956 0.382990 0.230716 49 102 141
0.420977 0.169130 -0.090426 68 1 84
0.560509 -0.353698 0.017286 68 1 84
0.723658 -0.414166 0.424815 70 48 125
0.376505 0.518042 0.069809 51 97 141
-0.031195 0.360328 -0.257905 68 1 84
-0.206096 0.355685 -0.183724 66 61 132
-0.173570 -0.309542 -0.175634 68 1 84
-0.072122 0.114633 -0.298144 68 1 84
0.105170 -0.454714 -0.299124 68 1 84
-0.625672 -0.163995 0.469953 40 122 142
0.625638 0.063064 0.351679 38 129 142
0.696942 -0.246654 0.378980 69 52 127
0.061518 -0.103932 -0.382992 68 1 84
-0.602658 -0.502949 0.227513 66 62 133
-0.408698 0.505405 0.253108 30 156 137
0.287205 0.614530 0.113526 124 210 79
0.338515 0.077268 -0.167085 68 1 84
0.176907 0.592813 -0.134230 100 203 93
0.342897 -0.149753 -0.171173 68 1 84
0.488130 -0.432506 -0.151261 68 1 84
-0.623157 -0.099197 0.429356 48 104 141
0.505700 0.216597 0.037851 68 1 84
-0.654339 -0.372967 0.387141 44 114 142
0.317212 0.498802 -0.039832 58 83 139
0.580581 -0.218401 0.030237 68 1 84
0.384734 -0.209803 -0.155192 68 1 84
-0.539369 -0.178298 -0.034306 70 45 124
-0.336414 0.165848 -0.161417 69 8 91
0.627543 0.062664 0.425723 40 122 142
-0.584246 -0.482130 0.141387 49 102 141
-0.299900 0.583116 -0.034060 210 225 27
-0.186857 -0.057060 -0.232155 68 1 84
-0.490782 0.404832 0.222673 38 129 142
-0.106398 -0.486303 -0.313317 68 1 84
0.161978 0.123746 -0.211044 68 1 84
-0.267469 -0.405363 -0.194946 68 1 84
-0.238938 -0.128367 -0.194952 68 1 84
-0.644884 -0.545455 0.449389 49 102 141
-0.603706 -0.102052 0.132545 53 93 140
-0.567728 0.197989 0.423907 30 154 137
0.680430 -0.197871 0.310178 70 48 125
-0.607774 -0.087018 0.173553 51 96 141
-0.163445 0.059270 -0.303883 68 1 84
-0.652738 -0.326674 0.373862 44 114 142
-0.571477 0.217761 0.263756 31 150 139
-0.378293 0.543287 0.164023 39 173 128
-0.476808 -0.485756 -0.153494 70 45 124
0.044987 0.553097 -0.218717 210 225 27
-0.354776 0.565936 0.131587 38 172 129
0.442224 0.483060 0.199432 38 129 142
-0.615465 -0.135980 0.181255 69 54 129
-0.130444 0.407220 -0.216309 61 76 137
-0.094818 -0.389535 -0.251336 68 1 84
0.388970 0.322736 -0.066060 68 1 84
0.641724 -0.038869 0.321850 70 47 124
-0.539877 -0.440077 -0.004827 71 40 120
-0.176601 -0.309950 -0.175340 68 1 84
-0.575738 -0.543561 0.109028 62 72 136
-0.576944 0.001323 0.099577 48 103 141
0.071585 0.437402 -0.218431 63 71 136
-0.168850 -0.015731 -0.239641 68 1 84
-0.369458 -0.499355 -0.233878 70 9 92
0.580692 0.230285 0.284951 43 115 142
-0.621449 -0.324367 0.214798 72 29 111
-0.365994 0.234407 -0.131291 71 38 118
0.380677 -0.116925 -0.158751 68 1 84
-0.563794 0.092089 0.109093 50 98 141
-0.602157 0.081392 0.352685 34 137 141
-0.621945 -0.262818 0.180771 71 42 121
0.671579 -0.222776 0.275607 68 1 84
-0.627098 -0.155418 0.456195 43 116 142
-0.554349 0.250424 0.196049 34 139 141
-0.353845 -0.214833 -0.160831 70 14 97
-0.117654 0.053861 -0.318717 68 1 84
0.637269 -0.172701 0.171663 68 1 84
-0.556353 -0.389534 0.045732 65 65 134
0.432700 0.459182 0.101257 63 71 136
0.298542 0.183251 -0.173133 68 1 84
0.416965 0.208003 -0.081206 68 1 84
-0.653583 -0.343586 0.438628 40 122 142
0.073936 -0.361655 -0.251569 68 1 84
0.129707 0.514551 -0.173807 77 194 107
-0.607195 0.037824 0.428089 37 131 141
0.447161 0.477472 0.273055 38 172 129
0.168289 0.254577 -0.226338 68 1 84
-0.564898 -0.521963 0.070793 59 81 138
0.030347 -0.262518 -0.333949 68 1 84
-0.304330 0.594069 -0.002854 186 222 39
0.699419 -0.492818 0.375194 68 1 84
0.723657 -0.270717 0.487317 43 116 142
-0.150714 0.650023 -0.181287 105 204 91
0.022070 0.717687 -0.154273 59 186 117
-0.626113 -0.094304 0.384029 40 122 142
0.057164 -0.248600 -0.293591 68 1 84
0.628368 0.003430 0.525391 44 177 125
-0.629567 -0.163442 0.263166 57 84 139
-0.436513 0.478597 0.147754 34 167 132
-0.302019 -0.430272 -0.237928 68 1 84
-0.494458 -0.511346 -0.135531 69 52 127
-0.559307 -0.198830 -0.001180 71 39 119
-0.158597 -0.410633 -0.222195 68 1 84
-0.122179 -0.148522 -0.297240 68 1 84
-0.582315 -0.197807 0.041366 71 15 98
0.556114 -0.290210 0.008912 68 1 84
0.205481 0.029090 -0.212171 68 1 84
0.367087 -0.171869 -0.164066 68 1 84
-0.341932 -0.464451 -0.237216 68 1 84
0.079269 -0.058891 -0.370690 68 1 84
0.477242 0.208785 -0.009428 68 1 84
-0.463835 0.432536 0.130179 31 161 135
-0.102728 0.342258 -0.245487 68 1 84
0.741387 -0.453202 0.494926 71 17 99
-0.474499 -0.096717 -0.098519 72 30 112
0.375919 -0.180725 -0.160113 68 1 84
0.737001 -0.413868 0.486546 62 72 136
-0.226747 -0.251110 -0.187218 68 1 84
-0.140941 -0.478369 -0.298210 68 1 84
0.388037 0.540868 0.204212 30 153 138
0.623114 -0.011579 0.245644 72 30 112
-0.626501 -0.090572 0.328323 42 119 142
0.649412 -0.074070 0.431508 54 90 140
0.294860 0.441408 -0.096396 68 1 84
0.382896 0.444992 -0.000625 65 66 134
0.437467 0.098977 -0.097029 68 1 84
-0.347257 0.361507 -0.105398 56 86 139
-0.621759 -0.062148 0.411654 38 128 142
0.624268 0.059846 0.334874 41 120 142
-0.383744 -0.417440 -0.202473 70 14 97
0.138035 0.523262 -0.169360 91 200 98
0.112027 0.246506 -0.259820 68 1 84
-0.618035 -0.567320 0.308835 70 49 126
0.032642 0.034159 -0.361050 68 1 84
-0.512413 -0.325548 -0.019672 71 38 118
0.115595 0.029974 -0.343208 68 1 84
-0.290054 0.489277 -0.091385 62 188 115
0.719811 -0.312373 0.437674 53 93 140
0.521532 -0.493528 -0.119715 68 1 84
-0.161608 0.697283 -0.102546 248 230 33
0.495463 0.052685 -0.052910 68 1 84
0.457215 -0.224226 -0.105291 68 1 84
0.537956 0.333188 0.391605 30 159 136
0.242055 -0.101077 -0.191099 68 1 84
0.471183 0.438302 0.352538 54 184 119
-0.287193 0.193549 -0.187136 68 1 84
0.546961 0.325277 0.301974 56 86 139
-0.495088 0.395742 0.259590 31 162 134
0.314527 -0.371836 -0.191510 68 1 84
0.252918 0.307520 -0.176930 68 1 84
-0.529600 0.333912 0.249529 38 127 142
-0.602501 0.003489 0.242305 49 102 141
0.472504 0.407198 0.126780 66 61 132
-0.170132 0.566825 -0.182492 159 217 56
0.389345 -0.351381 -0.161135 68 1 84
-0.652979 -0.323491 0.404716 44 113 142
0.433537 0.486580 0.166634 54 90 140
-0.377654 0.479551 0.001963 30 153 138
-0.349796 0.557072 0.045141 81 196 104
0.193732 0.396479 -0.176384 70 11 94
0.008045 0.354399 -0.257630 68 1 84
-0.644231 -0.346017 0.314374 43 115 142
-0.630106 -0.207574 0.235736 69 53 128
0.477033 0.431922 0.197037 44 114 142
0.140261 0.313804 -0.200953 68 1 84
-0.556989 0.265061 0.252902 38 128 142
0.419610 0.236448 -0.067723 68 1 84
0.542886 0.001300 -0.007702 68 1 84
-0.016915 0.713543 -0.162420 36 170 130
0.295604 -0.290130 -0.196629 68 1 84
0.475257 -0.109384 -0.107917 68 1 84
-0.137828 -0.507522 -0.315359 68 1 84
0.269158 -0.220919 -0.190552 68 1 84
0.194816 -0.505389 -0.304765 68 1 84
0.192756 0.213617 -0.215298 68 1 84
-0.543268 0.109958 0.059579 55 88 140
-0.317438 0.590984 0.035602 89 199 100
0.514862 -0.327212 -0.042859 68 1 84
-0.480579 0.421107 0.205856 30 151 138
0.193310 0.674508 0.036431 83 197 103
-0.630023 -0.180544 0.459063 44 113 142
0.416665 -0.171101 -0.140956 68 1 84
0.509079 0.308391 0.107959 72 30 112
-0.120142 -0.071861 -0.341739 68 1 84
-0.370595 0.304878 -0.109727 54 91 140
0.585190 0.217519 0.442990 87 198 101
0.627771 -0.384402 0.175528 68 1 84
-0.653605 -0.274523 0.361318 48 103 141
0.533615 0.084873 0.017394 68 1 84
0.537128 0.343650 0.283036 53 92 140
-0.396525 0.445863 0.000366 30 159 136
-0.650698 -0.228538 0.395287 53 93 140
-0.628282 -0.178218 0.465069 39 126 142
-0.652888 -0.327338 0.379703 42 118 142
-0.031612 0.292858 -0.262546 68 1 84
-0.308293 0.357161 -0.129482 44 112 142
0.097521 0.225452 -0.269276 68 1 84
-0.620151 -0.054930 0.435470 52 95 141
0.211232 0.150232 -0.202481 68 1 84
-0.416445 -0.275715 -0.118855 68 1 84
-0.584208 0.167109 0.385641 46 107 142
0.102273 -0.080279 -0.296841 68 1 84
0.297422 -0.133164 -0.178787 68 1 84
-0.098591 -0.148301 -0.342016 68 1 84
-0.208916 0.023544 -0.207231 68 1 84
-0.540865 0.308137 0.253247 38 127 142
0.565787 -0.414914 0.022167 68 1 84
-0.109133 -0.212568 -0.276106 68 1 84
-0.621669 -0.135957 0.476030 44 113 142
-0.115755 0.692477 -0.166338 59 186 117
-0.234720 0.661765 0.015143 83 197 103
0.710167 -0.275287 0.410871 56 86 139
0.417649 0.512454 0.213340 36 132 141
-0.409548 0.511684 0.181072 30 156 137
-0.648752 -0.318023 0.529883 32 143 140
-0.093785 -0.066632 -0.431385 62 73 137
-0.389667 -0.417081 -0.197305 70 9 92
0.044884 0.607248 -0.226175 62 188 115
0.436764 0.491294 0.243496 33 141 140
0.137993 0.601602 -0.169168 202 224 30
0.741057 -0.465265 0.463654 72 30 112
0.191948 0.668360 -0.035363 134 212 73
0.174788 -0.220667 -0.192983 68 1 84
-0.478366 0.424642 0.229557 35 169 130
-0.621578 -0.235470 0.172891 68 57 130
-0.587065 -0.022312 0.121421 49 100 141
0.357008 0.379888 -0.076169 68 1 84
-0.608091 -0.430596 0.221045 71 39 119
0.361294 0.224232 -0.125255 68 1 84
-0.022340 0.312837 -0.249941 68 1 84
0.390969 0.482691 0.048443 47 106 141
-0.301162 0.354229 -0.133379 49 102 141
-0.649051 -0.318474 0.492535 35 137 141
-0.616857 -0.080885 0.474059 51 96 141
0.693991 -0.205532 0.410381 58 83 139
0.525954 0.122193 0.022368 68 1 84
0.155417 -0.030321 -0.233337 68 1 84
-0.259382 -0.337148 -0.180003 68 1 84
-0.026510 -0.470201 -0.323740 68 1 84
-0.322752 0.204885 -0.167245 71 24 106
0.088816 -0.081768 -0.321883 68 1 84
0.138465 -0.130390 -0.239264 68 1 84
-0.468923 0.403727 0.094143 32 143 140
0.643634 -0.043888 0.508026 31 147 139
-0.218734 0.278767 -0.204532 68 1 84
0.081719 0.124119 -0.255369 68 1 84
-0.571181 -0.325685 0.058554 72 25 107
-0.604846 0.062230 0.392854 38 128 142
0.370756 -0.528767 -0.257683 68 1 84
-0.608597 -0.342348 0.168316 70 47 124
-0.616234 -0.006048 0.401778 39 126 142
-0.576337 0.206508 0.302702 30 151 138
-0.285065 -0.100556 -0.181148 68 1 84
0.063243 -0.046139 -0.440146 68 1 84
0.224143 -0.473221 -0.271723 68 1 84
0.028690 -0.490007 -0.326323 68 1 84
-0.638359 -0.351766 0.291132 47 105 141
0.392766 0.051164 -0.140114 68 1 84
-0.533113 -0.401970 -0.004224 65 65 134
-0.253941 0.646031 0.012781 114 207 85
-0.296813 0.381371 -0.126526 50 99 141
0.040745 -0.378284 -0.291233 68 1 84
0.371028 0.408206 -0.044377 72 29 111
0.365331 0.495151 0.021667 46 109 142
0.479185 0.436133 0.299215 35 169 130
-0.495664 0.332919 0.080125 37 130 142
0.505266 -0.072403 -0.078915 68 1 84
0.486139 0.230500 0.014186 68 1 84
-0.389347 0.015530 -0.140242 68 1 84
-0.132407 0.359639 -0.234596 68 1 84
-0.301297 0.590251 -0.020258 199 224 31
0.483950 -0.235829 -0.078036 68 1 84
-0.644573 -0.298178 0.529198 40 123 142
0.409071 0.346923 -0.031247 68 1 84
-0.344143 0.498000 -0.031496 46 178 124
0.699132 -0.367794 0.357967 70 12 95
-0.355574 -0.046222 -0.158959 68 1 84
-0.638756 -0.193256 0.316339 59 81 138
-0.560573 -0.455648 0.057466 63 69 135
-0.143447 0.193376 -0.266512 68 1 84
0.255922 0.312250 -0.173903 68 1 84
-0.409019 -0.499700 -0.212374 71 43 122
0.593203 0.094211 0.193398 70 49 126
-0.626588 -0.442963 0.307579 49 102 141
-0.562621 0.247902 0.255200 37 131 141
0.583427 0.245670 0.367576 33 142 140
-0.540225 0.251657 0.132389 33 142 140
0.348120 0.218244 -0.136779 68 1 84
0.164648 -0.271169 -0.187952 68 1 84
0.610437 0.069364 0.252305 66 64 133
-0.298778 -0.552087 -0.285662 72 29 111
-0.494305 0.395088 0.182415 35 168 131
0.618486 -0.023126 0.204346 68 1 84
-0.229291 -0.456710 -0.248839 68 1 84
-0.107691 0.371836 -0.244093 68 1 84
-0.165970 0.263031 -0.245972 68 1 84
0.232347 -0.243698 -0.194291 68 1 84
0.334325 0.269574 -0.131503 68 1 84
0.723139 -0.307703 0.450532 60 77 138
0.217919 0.582466 -0.094525 35 137 141
-0.489744 -0.233764 -0.072767 62 72 136
0.249206 -0.450724 -0.256249 68 1 84
-0.608665 0.010223 0.453769 48 103 141
0.536395 -0.020992 -0.028496 68 1 84
-0.563275 0.145597 0.517214 43 177 125
0.644081 -0.320438 0.201384 68 1 84
-0.439915 -0.419898 -0.155595 71 22 105
-0.523912 -0.505301 -0.070540 64 67 135
-0.452962 0.217841 -0.053072 51 97 141
-0.575328 0.016212 0.103811 48 103 141
-0.509736 -0.083000 -0.064514 63 69 135
0.675082 -0.396505 0.307038 68 1 84
-0.462458 0.226793 -0.037400 42 118 142
0.638091 -0.010872 0.334025 62 72 136
-0.370476 0.297715 -0.111986 65 66 134
0.372368 -0.164926 -0.162084 68 1 84
-0.549794 0.279617 0.326400 39 124 142
0.078736 0.530882 -0.198959 215 226 25
0.576126 -0.273988 0.032912 68 1 84
-0.516087 0.326375 0.387296 30 152 138
0.114646 0.003737 -0.311971 68 1 84
-0.504506 0.365719 0.325941 35 136 141
-0.094246 0.082619 -0.292259 68 1 84
0.591090 -0.427110 0.092062 68 1 84
0.138888 0.631537 -0.160876 35 169 130
-0.504275 0.073889 -0.023707 64 68 135
-0.636563 -0.271090 0.542524 38 127 142
0.707485 -0.241854 0.424009 54 90 140
0.494657 -0.337225 -0.069694 68 1 84
0.429337 0.497451 0.268196 39 173 128
0.216549 0.647138 -0.028249 73 193 109
0.605161 0.082116 0.512545 75 194 108
-0.067559 0.241779 -0.303865 68 1 84
0.724620 -0.515219 0.427395 68 1 84
-0.606035 0.053067 0.348686 47 106 141
0.374262 -0.195043 -0.160354 68 1 84
-0.404022 0.497630 0.074705 30 159 136
0.543270 -0.417381 -0.043468 68 1 84
0.561948 0.178343 0.144288 68 1 84
0.601874 0.075936 0.216948 70 45 124
0.699844 -0.231689 0.403751 61 75 137
-0.283991 0.191851 -0.188572 69 5 88
0.672188 -0.402724 0.301566 68 1 84
-0.044260 0.412389 -0.225435 69 52 127
-0.635865 -0.260819 0.266488 60 77 138
-0.467726 0.425916 0.129024 31 162 134
-0.201886 0.209829 -0.231890 68 1 84
-0.581311 0.028760 0.139758 49 100 141
0.493760 0.195791 0.007799 68 1 84
0.431084 0.169710 -0.080083 68 1 84
0.505130 0.246163 0.054203 68 1 84
-0.591887 -0.469095 0.167294 58 82 139
-0.622979 -0.114110 0.443749 41 121 142
-0.209834 0.379741 -0.180725 72 35 116
0.206394 -0.140426 -0.197764 68 1 84
0.437875 0.490315 0.223102 41 121 142
-0.119026 -0.011548 -0.410890 70 45 124
0.364082 0.069232 -0.154059 68 1 84
-0.396082 0.226636 -0.108751 60 78 138
-0.342765 -0.334262 -0.165743 68 1 84
-0.631934 -0.529769 0.380921 53 92 140
-0.239240 0.215798 -0.212855 68 1 84
0.370922 0.045190 -0.152970 68 1 84
0.355153 0.427732 -0.050248 71 42 121
-0.157620 0.058157 -0.317838 68 1 84
0.550879 -0.037871 -0.011591 68 1 84
0.374666 -0.025081 -0.156495 68 1 84
0.450733 -0.009360 -0.113859 68 1 84
0.727890 -0.328069 0.470770 55 89 140
-0.468176 -0.393800 -0.095123 70 47 124
0.587049 -0.039660 0.062517 68 1 84
-0.624500 -0.098580 0.283870 61 76 137
0.064539 -0.354008 -0.260315 68 1 84
-0.347590 0.505067 -0.021921 32 165 133
0.636385 -0.439149 0.207301 68 1 84
-0.578099 0.143455 0.211147 36 132 141
-0.276684 0.190838 -0.192094 68 1 84
0.727147 -0.326651 0.467444 52 94 141
0.409939 -0.479744 -0.220796 68 1 84
-0.499240 0.338174 0.429101 34 137 141
0.361252 0.039783 -0.158463 68 1 84
0.054724 -0.153375 -0.356149 72 33 114
-0.274045 -0.424112 -0.234891 68 1 84
0.264694 0.074077 -0.197027 68 1 84
-0.631665 -0.240530 0.521977 33 141 140
0.274866 0.594928 0.001189 31 150 139
-0.205285 0.475155 -0.152168 32 164 133
-0.120062 -0.209126 -0.261528 68 1 84
0.691330 -0.219151 0.359249 71 39 119
0.595192 0.199258 0.423952 75 194 108
0.010551 0.206129 -0.309144 68 1 84
0.316111 0.596368 0.149296 44 177 125
0.042884 0.403558 -0.245407 68 3 87
0.260840 0.439834 -0.119985 69 5 88
0.501891 -0.380499 -0.096745 68 1 84
-0.634037 -0.159033 0.322554 46 109 142
-0.073154 -0.269461 -0.300567 68 1 84
-0.135171 -0.052038 -0.310007 68 1 84
0.667461 -0.399985 0.289444 68 1 84
-0.276253 -0.318925 -0.182397 68 1 84
-0.228472 -0.111174 -0.201742 68 1 84
0.625297 0.087869 0.385107 39 124 142
-0.243457 0.259034 -0.202711 68 1 84
-0.511369 -0.263757 -0.040848 69 54 129
0.326518 0.577967 0.083558 35 136 141
0.322673 0.395894 -0.100306 68 1 84
-0.229860 0.658977 -0.060321 236 228 26
-0.068834 -0.126484 -0.414019 70 48 125
-0.292819 -0.487473 -0.255551 68 1 84
0.141081 0.342601 -0.195448 70 11 94
0.663625 -0.127864 0.453691 55 89 140
-0.040748 0.158337 -0.299035 68 1 84
0.670902 -0.193350 0.284014 69 8 91
-0.565773 -0.067529 0.028949 47 105 141
-0.327156 0.295901 -0.147788 70 49 126
0.406013 0.523264 0.244687 54 184 119
-0.405760 -0.401768 -0.158770 68 1 84
-0.640054 -0.445774 0.359583 60 77 138
-0.571697 -0.432509 0.088217 65 66 134
0.377039 0.443102 -0.010576 69 52 127
0.514229 0.120217 0.002306 68 1 84
0.061394 0.602052 -0.219527 62 188 115
-0.585700 -0.118315 0.058464 52 94 141
-0.094992 -0.128707 -0.363958 71 22 105
0.599737 0.192212 0.359366 33 142 140
-0.566567 0.210045 0.214765 31 148 139
0.485930 0.410940 0.179169 50 98 141
0.620827 -0.243270 0.119941 68 1 84
-0.595058 0.005114 0.516579 64 67 135
0.296808 -0.446995 -0.253716 68 1 84
-0.208695 0.090787 -0.201263 68 1 84
-0.504211 -0.211068 -0.067547 62 72 136
0.632186 -0.513498 0.191870 68 1 84
0.402349 0.517440 0.139356 50 98 141
0.013572 -0.403727 -0.306780 68 1 84
0.572952 0.256826 0.429167 64 189 114
0.443170 0.480908 0.281194 79 195 105
0.135824 0.439912 -0.196296 60 78 138
0.491627 0.342611 0.098417 72 32 113
-0.651339 -0.327878 0.480356 39 126 142
0.314508 -0.048309 -0.176077 68 1 84
0.125555 0.708874 -0.061790 131 211 75
-0.476076 0.181752 -0.035546 48 103 141
-0.454827 0.452836 0.148313 30 151 138
-0.443568 -0.003237 -0.105331 71 40 120
-0.447930 0.361981 0.012124 36 132 141
0.480675 -0.083913 -0.102560 68 1 84
-0.111824 -0.396515 -0.236890 68 1 84
0.212481 0.259050 -0.206137 68 1 84
0.369501 -0.491628 -0.245128 68 1 84
0.170874 0.321521 -0.181549 68 1 84
-0.579015 -0.070963 0.062349 51 96 141
-0.403718 -0.497141 -0.214986 71 39 119
0.667942 -0.155386 0.295689 71 20 102
0.357056 -0.388241 -0.225367 68 1 84
-0.164304 0.065147 -0.282407 68 1 84
0.428786 0.325157 -0.017415 68 1 84
-0.056404 0.047148 -0.399742 68 1 84
0.141650 0.265903 -0.237635 68 1 84
-0.615990 -0.325875 0.190175 72 33 114
-0.576983 0.142040 0.204335 42 119 142
0.664927 -0.115299 0.385333 69 50 127
-0.635917 -0.196636 0.442434 43 116 142
-0.257969 -0.197402 -0.183744 68 1 84
-0.183329 0.689886 -0.085048 199 224 31
-0.418479 -0.160686 -0.133894 68 1 84
0.514159 -0.401186 -0.097116 68 1 84
-0.624793 -0.408640 0.280792 57 85 139
0.454640 0.017678 -0.105336 68 1 84
0.148299 -0.264102 -0.191164 68 1 84
-0.519075 0.155430 0.026069 35 137 141
-0.342586 0.388502 -0.095156 39 124 142
0.528247 -0.524958 -0.097585 68 1 84
0.150184 -0.267453 -0.189875 68 1 84
0.537468 0.044473 0.003345 68 1 84
0.179184 -0.291789 -0.180770 68 1 84
-0.382382 -0.246924 -0.145138 68 1 84
-0.128071 0.212654 -0.280659 68 1 84
0.462582 -0.304656 -0.082949 68 1 84
-0.261936 -0.119537 -0.186442 68 1 84
0.212080 -0.068255 -0.206630 68 1 84
0.602304 0.171703 0.333798 35 137 141
0.374146 -0.249444 -0.163143 68 1 84
-0.124070 0.568321 -0.211084 141 214 68
-0.059611 -0.454988 -0.312108 68 1 84
-0.437032 -0.205973 -0.118216 71 22 105
-0.231159 0.022760 -0.203566 68 1 84
0.396473 0.480200 0.055023 57 84 139
-0.118564 0.186943 -0.281536 68 1 84
-0.633011 -0.219197 0.479223 44 113 142
-0.224353 0.093637 -0.198252 68 1 84
-0.408722 -0.032960 -0.132486 68 1 84
0.151709 -0.271343 -0.188419 68 1 84
-0.517931 0.081108 -0.000412 64 67 135
0.371908 0.259317 -0.105605 68 1 84
-0.471304 0.342137 0.038563 30 152 138
0.636084 -0.159950 0.172041 68 1 84
-0.610090 -0.167694 0.126331 71 37 117
-0.462451 0.228711 -0.036688 40 122 142
0.207178 0.205695 -0.206999 68 1 84
0.283000 0.618254 0.119507 116 208 84
0.620055 0.035366 0.272885 60 78 138
-0.596482 -0.445238 0.176192 70 49 126
-0.359865 -0.094436 -0.157534 68 1 84
0.587396 0.185211 0.251373 45 110 142
-0.290765 -0.346853 -0.173397 68 1 84
0.346703 -0.094985 -0.167086 68 1 84
0.674124 -0.149943 0.428317 61 75 137
0.598324 -0.059210 0.083264 68 1 84
0.327096 -0.450164 -0.250065 68 1 84
0.657975 -0.129692 0.282377 68 1 84
-0.279956 -0.210637 -0.180554 68 1 84
-0.530697 0.306613 0.372264 32 165 133
0.024185 0.039939 -0.362763 68 1 84
-0.342046 0.577419 0.114219 87 198 101
-0.542960 -0.433350 0.007643 70 49 126
-0.253601 0.226869 -0.205472 68 1 84
0.580273 0.132697 0.174165 71 40 120
0.054118 0.656511 -0.210403 62 188 115
0.588750 -0.261026 0.052605 68 1 84
-0.480385 0.420732 0.196173 32 144 140
-0.152360 -0.062172 -0.268529 68 1 84
0.444969 -0.306641 -0.098331 68 1 84
-0.480563 0.243714 -0.002941 59 81 138
0.648420 -0.170223 0.219789 68 1 84
0.057256 0.098406 -0.287481 68 1 84
-0.585836 0.154484 0.402102 38 129 142
-0.235335 0.658018 -0.037961 191 223 36
-0.455409 -0.199460 -0.107806 72 28 110
0.597621 -0.010933 0.113788 68 1 84
0.617829 0.115974 0.419949 32 165 133
-0.608037 -0.529349 0.261990 63 71 136
0.214721 0.302456 -0.190517 68 1 84
-0.148668 0.009643 -0.343077 68 1 84
-0.042793 0.638770 -0.224348 54 184 119
0.606034 -0.457047 0.130346 68 1 84
-0.319638 0.571280 -0.007689 151 216 62
-0.167535 0.026021 -0.232924 68 1 84
0.521332 -0.193138 -0.054295 68 1 84
-0.227296 0.033354 -0.202771 68 1 84
0.620986 0.057258 0.460771 31 147 139
-0.638113 -0.318789 0.281383 52 95 141
-0.645528 -0.477976 0.416603 59 81 138
-0.520843 0.321432 0.141170 36 132 141
-0.629618 -0.455810 0.324409 50 98 141
-0.236699 0.084673 -0.196757 68 1 84
-0.651705 -0.246759 0.394734 54 91 140
0.648908 -0.418463 0.237577 68 1 84
-0.578102 0.190890 0.374274 36 133 141
-0.607223 0.006965 0.275312 43 116 142
-0.588040 0.019263 0.168118 54 90 140
-0.163052 -0.452986 -0.259718 68 1 84
-0.201875 -0.134210 -0.211624 68 1 84
0.681184 -0.181293 0.471897 50 98 141
-0.566024 -0.293195 0.038885 68 1 84
0.556322 0.034556 0.032284 68 1 84
-0.012705 0.543581 -0.226817 134 212 73
-0.596002 0.070020 0.260004 44 113 142
-0.535993 0.109955 0.044068 60 78 138
-0.506381 0.317498 0.092023 37 131 141
0.140018 0.005138 -0.232178 68 1 84
-0.630610 -0.468804 0.336481 57 84 139
0.520653 0.291240 0.121725 72 35 116
0.598871 -0.337243 0.093180 68 1 84
0.470781 0.086269 -0.067433 68 1 84
0.681340 -0.192368 0.315357 71 40 120
0.480297 0.414229 0.420043 47 179 123
-0.454816 0.289721 -0.021093 37 130 142
-0.215170 0.444433 -0.156031 30 152 138
-0.577056 0.030675 0.121125 49 101 141
0.670526 -0.142933 0.440768 60 77 138
0.582044 0.249536 0.376800 32 144 140
0.459747 -0.460285 -0.185106 68 1 84
-0.538669 0.285091 0.387192 30 156 137
0.152583 0.696348 -0.035993 116 208 84
-0.002467 -0.239779 -0.366249 68 1 84
-0.030252 0.066720 -0.415466 68 1 84
0.288422 0.535589 -0.043426 57 84 139
-0.609300 0.026919 0.325657 46 109 142
-0.484514 -0.338352 -0.043444 66 61 132
0.106175 0.705955 -0.115995 89 199 100
-0.566153 -0.082472 0.022972 56 86 139
-0.472064 -0.545884 -0.168457 72 34 115
-0.500709 0.327684 0.455217 35 137 141
-0.502975 0.142109 -0.006812 42 117 142
0.586505 0.207825 0.284215 44 112 142
0.534451 -0.455728 -0.081072 68 1 84
-0.294806 0.565566 -0.057080 112 206 86
-0.133529 -0.014902 -0.366183 68 1 84
-0.028421 -0.051797 -0.483507 70 14 97
0.488588 0.021559 -0.073005 68 1 84
0.566085 0.073976 0.079232 68 1 84
0.268646 -0.127017 -0.183262 68 1 84
-0.651336 -0.319135 0.440549 47 106 141
-0.039080 -0.292109 -0.327332 68 1 84
-0.596394 0.046080 0.241581 60 77 138
0.649856 -0.077899 0.492374 30 155 137
-0.112943 -0.118748 -0.329891 68 1 84
0.531484 -0.074051 -0.050011 68 1 84
0.698101 -0.365391 0.355415 71 17 99
-0.105669 0.412364 -0.220610 69 52 127
-0.323267 -0.542065 -0.271682 69 5 88
-0.016294 -0.502519 -0.327449 68 1 84
-0.594757 -0.582910 0.190982 71 42 121
-0.536546 -0.169183 -0.038972 64 68 135
0.619664 0.044671 0.479948 31 149 139
-0.114634 -0.070707 -0.362276 68 1 84
-0.375030 -0.086947 -0.152068 68 1 84
0.134834 -0.510973 -0.315626 68 1 84
0.518613 -0.364804 -0.061695 68 1 84
-0.258297 -0.121319 -0.187490 68 1 84
0.545408 0.298258 0.458111 149 215 63
0.310011 0.237909 -0.156861 68 1 84
-0.012065 0.287867 -0.271157 68 1 84
0.079442 0.132466 -0.254020 68 1 84
-0.636760 -0.554239 0.410017 41 121 142
0.526261 0.253174 0.104603 67 60 132
-0.209039 0.291258 -0.193932 71 22 105
0.597774 0.201653 0.398002 46 178 124
0.538166 -0.416618 -0.057981 68 1 84
-0.072009 0.292654 -0.252634 68 1 84
-0.500864 0.046738 -0.036545 66 61 132
0.683588 -0.299382 0.321043 68 1 84
0.123272 -0.511063 -0.317650 68 1 84
-0.635495 -0.154125 0.360654 44 112 142
0.332580 -0.145700 -0.173278 68 1 84
0.634433 -0.007613 0.311143 58 83 139
-0.279563 0.627352 0.060568 109 206 88
-0.448743 0.464645 0.163449 35 169 130
-0.504626 0.201395 0.018188 41 120 142
0.611979 0.135962 0.340283 34 139 141
-0.378877 -0.508835 -0.231423 71 43 122
0.105887 0.362033 -0.226869 72 34 115
-0.059129 0.522192 -0.218117 77 194 107
0.578590 -0.442314 0.057211 68 1 84
-0.229500 0.512336 -0.133234 181 221 43
-0.633536 -0.291842 0.258570 52 94 141
0.081626 0.033435 -0.391474 68 1 84
-0.343497 0.574580 0.089861 71 192 110
0.498519 0.209132 0.021924 68 1 84
0.663531 -0.111408 0.371526 71 40 120
0.642857 -0.027245 0.432560 42 118 142
0.626835 0.070039 0.372940 44 113 142
-0.147508 0.236138 -0.267352 68 1 84
0.555731 -0.406006 -0.004768 68 1 84
0.665044 -0.128445 0.444065 62 73 137
-0.062656 0.554868 -0.227781 119 208 82
-0.499823 -0.170328 -0.079532 66 64 133
0.741352 -0.462578 0.470657 71 37 117
-0.075007 -0.394147 -0.277169 68 1 84
0.572719 -0.445884 0.039372 68 1 84
0.085378 0.721732 -0.081438 44 177 125
0.668212 -0.277566 0.251371 71 18 101
-0.569004 -0.356711 0.062748 69 54 129
-0.634054 -0.417121 0.316625 50 99 141
-0.645359 -0.279236 0.311358 46 107 142
-0.230642 0.172369 -0.210732 68 1 84
0.209837 -0.199780 -0.191228 68 1 84
0.189584 -0.388667 -0.220325 68 1 84
-0.119370 -0.167634 -0.291512 69 5 88
-0.102584 -0.123482 -0.350564 68 1 84
0.095138 -0.453424 -0.301950 68 1 84
-0.150942 -0.139386 -0.261057 68 1 84
0.525122 -0.112406 -0.060594 68 1 84
-0.154930 -0.066782 -0.264477 68 1 84
0.448878 0.476926 0.240754 38 128 142
-0.526297 0.236878 0.528306 31 147 139
0.194057 0.112679 -0.204883 68 1 84
-0.141808 0.381053 -0.225005 68 1 84
0.527737 0.239667 0.098167 71 17 99
-0.560100 0.205892 0.174201 34 137 141
-0.523295 -0.203666 -0.049055 68 55 129
0.730318 -0.341009 0.505325 54 91 140
-0.336117 -0.049033 -0.166726 68 1 84
-0.610690 -0.146801 0.138533 69 52 127
-0.358691 0.016621 -0.158367 68 1 84
-0.392950 0.517721 0.084849 32 164 133
-0.511693 -0.286903 -0.031076 70 45 124
0.351436 0.059382 -0.161749 68 1 84
-0.292046 0.460949 -0.101045 32 164 133
0.700422 -0.225912 0.435891 56 87 140
0.130691 0.593616 -0.175534 220 226 24
-0.481313 0.387248 0.361214 41 120 142
0.511251 -0.068476 -0.072460 68 1 84
0.060278 0.617198 -0.219471 81 196 104
0.648884 -0.260980 0.204550 68 1 84
-0.536478 -0.394033 0.006355 70 48 125
-0.292933 -0.187884 -0.177269 68 1 84
-0.455817 -0.069014 -0.107914 72 33 114
0.438223 -0.019078 -0.123943 68 1 84
0.654662 -0.288657 0.220163 68 1 84
0.633448 -0.435423 0.199413 68 1 84
-0.561884 -0.071442 0.018041 55 89 140
0.390247 -0.081624 -0.153861 68 1 84
-0.234144 -0.288635 -0.185957 68 1 84
0.544617 0.297647 0.206826 62 72 136
-0.573655 -0.556776 0.100385 69 53 128
0.352043 0.042752 -0.162746 68 1 84
0.301193 -0.463078 -0.253483 68 1 84
-0.425210 0.103106 -0.106580 67 58 131
-0.381771 0.388083 -0.060434 38 128 142
0.089127 -0.268793 -0.219421 68 1 84
-0.375738 0.167091 -0.136328 70 49 126
0.202780 0.469168 -0.148484 56 86 139
0.558052 0.279001 0.448668 94 201 97
0.595919 0.155026 0.262586 44 113 142
-0.143202 -0.034938 -0.298341 68 1 84
-0.460851 0.404726 0.074763 31 147 139
-0.599002 -0.468873 0.198076 72 33 114
0.569669 -0.481144 0.027545 68 1 84
-0.477165 -0.528511 -0.161737 63 71 136
-0.237136 0.046911 -0.200017 68 1 84
-0.175454 0.332419 -0.198453 71 39 119
0.368717 0.326124 -0.085710 68 1 84
-0.278134 0.615869 -0.029027 181 221 43
0.029803 0.059396 -0.331736 68 1 84
0.280375 0.027099 -0.192224 68 1 84
0.603834 0.132984 0.458523 50 181 122
0.740348 -0.455258 0.477825 72 33 114
0.351434 -0.505397 -0.258249 68 1 84
0.542465 0.318033 0.231874 61 75 137
-0.626680 -0.091306 0.330452 39 124 142
0.734032 -0.387994 0.493453 63 69 135
0.299434 0.542482 -0.023078 50 99 141
0.202456 0.387488 -0.169959 68 1 84
0.319020 0.586869 0.090809 34 167 132
0.496259 0.077151 -0.041039 68 1 84
0.380613 -0.045422 -0.155116 68 1 84
-0.318524 0.596070 0.079518 71 192 110
-0.357558 -0.147890 -0.158074 68 1 84
-0.105571 -0.104141 -0.360115 68 1 84
-0.633467 -0.149231 0.401307 44 112 142
-0.650103 -0.308524 0.443984 36 134 141
-0.542982 -0.022892 0.003578 51 97 141
-0.653348 -0.340945 0.440457 38 128 142
0.024900 -0.122423 -0.424947 68 1 84
-0.640838 -0.573867 0.432741 31 147 139
0.595477 0.039698 0.155315 68 1 84
0.713194 -0.326318 0.415052 69 52 127
-0.534875 0.295186 0.382419 30 159 136
-0.618202 -0.315510 0.193874 62 73 137
-0.466136 -0.188188 -0.102806 68 1 84
0.383374 0.544710 0.226104 31 163 134
-0.537187 -0.324495 0.007362 72 29 111
0.559894 0.223280 0.174116 72 32 113
0.037551 -0.208496 -0.360765 68 1 84
0.592688 -0.443785 0.096983 68 1 84
-0.571393 -0.496773 0.094616 56 86 139
-0.530009 0.278190 0.122330 40 122 142
-0.313333 -0.247989 -0.174247 68 1 84
-0.529920 0.238922 0.091682 44 113 142
-0.320644 0.010348 -0.175984 68 1 84
0.542382 -0.408030 -0.042541 68 1 84
0.493612 0.294397 0.064191 71 40 120
0.459455 0.088151 -0.079145 68 1 84
0.626817 -0.145495 0.142008 68 1 84
-0.199284 0.138434 -0.214717 68 1 84
0.211562 -0.236521 -0.193245 68 1 84
0.185948 0.184963 -0.213631 68 1 84
0.079019 -0.404616 -0.277247 68 1 84
0.436006 -0.139314 -0.133757 68 1 84
-0.087595 -0.335545 -0.236991 68 1 84
-0.596637 0.012494 0.213303 45 111 142
-0.463425 -0.092392 -0.106226 71 38 118
-0.620350 -0.088354 0.260174 59 80 138
0.290141 0.600503 0.048451 32 144 140
-0.648155 -0.524214 0.466559 43 116 142
0.087560 0.041862 -0.377270 68 1 84
0.574725 0.072344 0.103753 68 1 84
-0.160739 0.093153 -0.219209 68 1 84
-0.589641 0.151057 0.332371 44 112 142
0.365248 0.474794 0.000277 48 104 141
0.650385 -0.081420 0.329012 68 1 84
-0.521565 0.282439 0.102243 43 116 142
-0.135570 -0.024861 -0.345333 68 1 84
0.089710 -0.002244 -0.390855 68 1 84
-0.564866 0.236092 0.246219 30 156 137
0.575858 -0.110056 0.014399 68 1 84
-0.602461 0.068579 0.411585 35 136 141
-0.586445 0.124990 0.437566 36 132 141
-0.595303 -0.008405 0.534574 65 66 134
0.584991 -0.487076 0.070127 68 1 84
0.602293 -0.204967 0.070362 68 1 84
-0.295658 -0.216074 -0.178238 68 1 84
-0.020749 0.411674 -0.227843 70 47 124
-0.459094 0.422481 0.343913 40 122 142
-0.634996 -0.246342 0.496940 33 140 141
-0.186739 -0.458410 -0.255786 68 1 84
-0.540924 0.123698 0.060499 40 122 142
0.545871 0.098091 0.046761 68 1 84
-0.201810 -0.026198 -0.218851 68 1 84
0.636534 -0.226126 0.162666 68 1 84
-0.652755 -0.228668 0.355120 47 105 141
0.492478 0.396098 0.426911 112 206 86
-0.538821 0.237649 0.483586 37 130 142
0.577440 0.260457 0.368275 33 141 140
-0.346424 0.572042 0.176071 30 160 135
-0.594263 -0.530850 0.187106 71 42 121
0.140091 -0.234817 -0.196041 68 1 84
0.096234 0.178559 -0.258772 68 1 84
0.429581 -0.378830 -0.183148 68 1 84
-0.142973 -0.300422 -0.187493 68 1 84
0.330762 0.434546 -0.071077 70 48 125
0.084845 -0.360663 -0.234252 68 1 84
0.682185 -0.161631 0.379393 60 77 138
-0.135313 0.492926 -0.187294 85 198 102
0.433751 0.402290 0.041507 71 44 123
0.416054 0.017498 -0.132180 68 1 84
0.663807 -0.230805 0.250915 68 1 84
-0.167655 0.042982 -0.260593 68 1 84
-0.651570 -0.318887 0.435928 44 112 142
0.420048 -0.450332 -0.208262 68 1 84
0.598474 -0.074566 0.076071 68 1 84
0.066095 0.459439 -0.206438 32 144 140
-0.627806 -0.511329 0.341487 66 61 132
-0.166114 0.023252 -0.264981 68 1 84
0.477294 0.274793 0.023680 68 1 84
-0.571679 0.194008 0.410062 32 145 140
-0.648551 -0.277436 0.322988 47 106 141
0.607794 0.104458 0.273100 48 104 141
0.046006 -0.064781 -0.452556 68 1 84
0.261371 0.619984 0.024727 41 175 127
-0.247132 0.473582 -0.126706 56 185 118
-0.423624 -0.530345 -0.211027 70 45 124
0.188166 -0.111528 -0.211369 68 1 84
-0.327745 0.085214 -0.172929 68 1 84
-0.587938 -0.344004 0.102678 72 30 112
-0.231034 -0.210813 -0.187261 68 1 84
0.529147 0.093492 0.013948 68 1 84
0.529316 0.321299 0.477092 134 212 73
0.598968 0.089476 0.215183 71 42 121
0.198768 0.039432 -0.212011 68 1 84
-0.588793 0.105719 0.243176 45 110 142
-0.233908 0.256971 -0.207974 68 1 84
-0.611976 -0.106157 0.531707 42 118 142
-0.224464 0.390056 -0.168581 57 85 139
-0.487762 0.388752 0.127780 30 158 136
-0.172367 0.268670 -0.238624 68 1 84
-0.623495 -0.399407 0.269371 67 58 131
0.602034 -0.045080 0.104583 68 1 84
0.555948 -0.223407 -0.005149 68 1 84
-0.531201 0.017081 -0.000120 59 80 138
-0.432487 0.467092 0.302618 32 165 133
0.339598 -0.360316 -0.185490 68 1 84
0.312808 0.294115 -0.139649 68 1 84
0.076204 0.591870 -0.211497 205 224 29
-0.524411 0.289244 0.447347 35 136 141
0.139533 -0.232359 -0.196383 68 1 84
-0.057262 -0.037345 -0.480939 61 74 137
-0.105066 -0.398357 -0.246288 68 1 84
-0.206534 0.089526 -0.201658 68 1 84
-0.598362 0.107104 0.362419 32 145 140
-0.230864 0.454687 -0.142989 59 186 117
-0.604701 0.028280 0.278260 35 135 141
0.565278 0.277921 0.279756 49 102 141
-0.486657 0.367144 0.397788 35 137 141
-0.532679 -0.479175 -0.041890 70 49 126
-0.630481 -0.120834 0.343057 48 103 141
-0.550312 0.174668 0.111419 35 136 141
-0.138006 -0.211094 -0.235052 68 1 84
-0.107543 0.434176 -0.206659 58 83 139
-0.104953 0.441924 -0.203622 59 81 138
0.309771 0.252737 -0.152946 68 1 84
0.566375 0.283794 0.321405 36 134 141
-0.394283 0.522716 0.234765 53 183 120
0.238300 0.504864 -0.106472 47 105 141
0.513309 0.324469 0.134504 69 53 128
0.591702 0.156767 0.476289 103 204 92
0.640009 -0.188734 0.177680 68 1 84
0.000429 -0.215194 -0.380511 72 29 111
0.284400 0.265778 -0.165798 68 1 84
0.504478 0.389719 0.379197 61 187 116
-0.633626 -0.143522 0.379660 49 102 141
-0.462901 -0.173159 -0.107590 72 30 112
-0.521974 0.276465 0.098452 42 119 142
-0.329276 0.588505 0.140998 53 183 120
-0.613807 -0.135102 0.555578 42 117 142
-0.462323 0.447770 0.228710 31 147 139
0.541650 -0.464072 -0.057313 68 1 84
0.579926 0.008309 0.072065 68 1 84
0.591791 -0.134758 0.045792 68 1 84
-0.593874 0.042584 0.223617 49 100 141
-0.373854 -0.147866 -0.153326 68 1 84
0.502789 0.347025 0.131882 67 59 131
0.140677 -0.389040 -0.220196 68 1 84
-0.007924 0.412906 -0.230024 70 47 124
0.558964 0.129061 0.099016 68 1 84
0.090775 0.675052 -0.175889 56 185 118
-0.171808 0.675000 -0.136603 243 229 30
-0.529348 0.256052 0.102421 41 121 142
-0.317572 -0.227925 -0.173050 68 1 84
0.632912 -0.417441 0.195540 68 1 84
0.317027 -0.405439 -0.249603 68 1 84
-0.199588 0.619251 -0.149629 215 226 25
0.088627 0.011336 -0.397408 68 1 84
-0.245295 -0.313331 -0.184427 68 1 84
-0.090748 0.104710 -0.283623 68 1 84
-0.287517 0.031561 -0.189361 68 1 84
-0.376581 0.387367 -0.066495 40 122 142
0.492963 -0.353106 -0.083731 68 1 84
-0.208438 -0.476266 -0.265841 68 1 84
0.608781 0.132272 0.309720 34 137 141
0.332044 0.070759 -0.170965 68 1 84
-0.594149 -0.369662 0.132371 64 68 135
-0.433058 -0.032727 -0.117547 71 21 103
0.458744 -0.488317 -0.193301 68 1 84
-0.252989 -0.138571 -0.187590 68 1 84
0.523685 0.332717 0.473093 149 215 63
-0.493667 -0.016957 -0.064858 67 60 132
0.568622 0.228750 0.213596 52 95 141
0.184542 -0.291407 -0.181590 68 1 84
-0.036233 -0.030328 -0.489015 68 1 84
-0.317793 0.309644 -0.147336 63 71 136
0.043382 0.718833 -0.144698 121 209 81
-0.275895 -0.138472 -0.180980 68 1 84
-0.519131 0.302941 0.437537 40 123 142
-0.453936 0.459668 0.217717 35 169 130
-0.442446 0.426384 0.060259 36 133 141
0.353365 -0.353016 -0.176674 68 1 84
0.089789 -0.140317 -0.294325 68 1 84
-0.647515 -0.526793 0.463386 45 110 142
0.021026 -0.315262 -0.311253 68 1 84
-0.303943 0.378405 -0.123979 44 113 142
-0.503428 0.315433 0.474028 32 145 140
0.486944 -0.455619 -0.160856 68 1 84
0.726072 -0.307121 0.463609 45 111 142
-0.580049 -0.321905 0.075345 70 12 95
-0.287476 0.017667 -0.189076 68 1 84
0.609968 -0.449330 0.139880 68 1 84
0.094207 0.050513 -0.360819 68 1 84
-0.166125 0.046526 -0.241277 68 1 84
-0.228739 0.605585 -0.123211 165 218 53
0.129949 0.647312 -0.162157 46 178 124
-0.098012 0.289511 -0.244243 68 1 84
-0.407132 -0.065631 -0.136673 69 8 91
-0.213718 0.037762 -0.204176 68 1 84
-0.433667 0.123555 -0.097341 71 39 119
-0.504100 -0.560743 -0.110573 68 55 129
0.073939 0.623338 -0.211694 116 208 84
0.094387 0.177836 -0.259737 68 1 84
0.642194 -0.017972 0.417270 67 59 131
0.493479 0.395506 0.423341 114 207 85
-0.022249 -0.159642 -0.416724 72 35 116
-0.092096 0.003823 -0.447027 70 12 95
0.598869 -0.137029 0.061857 68 1 84
-0.214957 -0.059572 -0.214874 68 1 84
0.007724 -0.013267 -0.489769 68 1 84
0.032874 0.417886 -0.234050 71 39 119
-0.502644 0.360187 0.351357 36 133 141
-0.500767 -0.428434 -0.088724 68 55 129
-0.472678 0.429428 0.168851 33 166 133
-0.291042 0.526844 -0.078183 51 182 121
-0.352958 0.522497 0.000307 61 187 116
-0.267750 -0.282942 -0.185634 68 1 84
0.320985 -0.364739 -0.189086 68 1 84
0.045719 -0.175989 -0.363327 68 3 87
0.234257 -0.306828 -0.189650 68 1 84
-0.038272 -0.094516 -0.457676 60 78 138
-0.281592 -0.174526 -0.179022 68 1 84
-0.520062 -0.416905 -0.043764 67 58 131
-0.513005 0.221923 0.043385 43 116 142
0.731855 -0.505609 0.451917 68 1 84
-0.586070 -0.032510 0.109094 57 85 139
-0.225973 0.323143 -0.161367 59 80 138
0.341071 -0.504172 -0.261148 68 1 84
-0.261293 0.192693 -0.199364 68 1 84
-0.636031 -0.166889 0.408883 42 119 142
-0.142385 0.285207 -0.231251 68 1 84
0.342610 0.232524 -0.136815 68 1 84
0.310428 -0.311626 -0.191363 68 1 84
-0.077290 -0.040207 -0.467586 56 87 140
0.134025 0.534157 -0.171765 165 218 53
0.121606 -0.360409 -0.207018 68 1 84
0.108470 0.516824 -0.183665 112 206 86
-0.247982 -0.034039 -0.200988 68 1 84
-0.507729 0.375953 0.256457 30 156 137
