ply
format ascii 1.0
element vertex 1245
property float x
property float y
property float z
property uchar red
property uchar green
property uchar blue
end_header
-0.585423 -0.304249 0.298392 68 1 84
-0.588962 -0.140324 0.217876 70 9 92
-0.400306 0.465558 0.161147 52 95 141
-0.556010 0.155369 0.426761 54 184 119
-0.394836 -0.291393 -0.103939 70 11 94
0.278220 0.225339 -0.145613 68 1 84
0.587938 0.002312 0.297097 43 116 142
0.155223 -0.336688 -0.120635 53 92 140
0.307939 -0.034989 -0.179587 71 39 119
-0.086298 -0.461636 -0.276728 186 222 39
0.471849 -0.446600 -0.095075 52 95 141
-0.548730 0.183366 0.357089 57 185 118
-0.261028 0.408227 -0.100625 68 1 84
-0.109907 -0.208666 -0.245761 36 134 141
0.592418 -0.466160 0.367606 52 94 141
0.543116 0.196912 0.171311 55 89 140
0.005046 0.316837 -0.257168 69 8 91
-0.225912 0.525967 -0.082983 68 1 84
-0.435986 -0.484096 -0.152214 31 149 139
-0.574600 0.015548 0.311557 56 87 140
-0.359766 -0.384666 -0.160567 71 38 118
0.263665 0.473407 -0.098050 68 1 84
-0.379292 0.482470 0.133134 53 92 140
0.559315 -0.184169 0.092769 71 44 123
-0.143466 0.587355 -0.092268 68 1 84
-0.377174 0.481084 0.117089 63 71 136
-0.393161 0.340736 -0.014031 61 75 137
0.420291 0.300964 -0.019324 67 58 131
0.608334 -0.468613 0.448297 52 94 141
-0.524187 0.099079 0.094770 69 8 91
0.596205 -0.462809 0.389484 56 87 140
0.026733 0.248031 -0.280455 67 60 132
0.372617 -0.254030 -0.110217 68 57 130
0.096582 0.461061 -0.237332 68 1 84
0.574729 -0.349713 0.194524 67 60 132
-0.505813 -0.240062 0.005435 68 1 84
0.313837 -0.394580 -0.176985 30 152 138
0.570591 -0.075667 0.138858 71 37 117
0.616445 -0.316161 0.414980 51 97 141
0.287952 -0.090622 -0.179719 71 38 118
0.523965 -0.375356 0.055262 66 61 132
-0.583098 0.045198 0.408286 30 159 136
0.614913 -0.039756 0.464326 42 117 142
0.510175 0.177347 0.072775 71 39 119
0.617699 -0.097893 0.447436 38 127 142
0.355411 0.109043 -0.137191 68 1 84
0.290588 0.534961 0.020196 68 1 84
0.044335 0.218695 -0.265274 70 47 124
-0.544936 0.176695 0.262532 31 146 140
0.105995 -0.412453 -0.245075 62 188 115
-0.544633 0.198594 0.399221 46 178 124
0.449407 0.419977 0.277995 40 123 142
0.544813 0.023848 0.093038 71 38 118
0.132839 0.003265 -0.252893 71 24 106
-0.406522 -0.384918 -0.137599 67 58 131
-0.184665 0.408670 -0.156204 68 1 84
0.288348 0.317299 -0.118239 68 1 84
0.157359 -0.336166 -0.119761 54 90 140
0.186227 -0.112955 -0.206497 70 47 124
0.603136 -0.008669 0.548393 31 149 139
-0.081708 0.002250 -0.278402 55 89 140
0.493955 -0.310162 0.028278 71 37 117
0.243834 -0.390245 -0.170612 33 141 140
-0.046771 -0.226767 -0.343774 31 162 134
0.518271 0.259945 0.135165 58 83 139
0.526126 0.292773 0.205416 38 128 142
-0.220725 -0.458317 -0.241486 85 198 102
0.511620 -0.107144 -0.005932 71 18 101
0.494858 -0.039923 -0.025590 68 2 85
0.514980 -0.080348 0.001130 68 1 84
-0.473051 0.113527 -0.024832 68 57 130
0.578433 -0.188617 0.143612 71 38 118
0.038160 0.012364 -0.361261 64 67 135
0.578470 0.114691 0.335949 40 122 142
0.130871 -0.121560 -0.268082 49 102 141
-0.108893 0.245153 -0.247293 58 83 139
0.336392 0.373950 -0.069615 68 1 84
-0.356116 0.457692 0.025136 62 72 136
-0.522647 0.024009 0.024522 69 5 88
-0.093415 0.195418 -0.259637 35 135 141
0.617599 -0.275227 0.433434 51 97 141
-0.196762 0.551610 -0.092012 68 1 84
-0.054516 0.126800 -0.292655 35 135 141
0.491501 0.365961 0.199056 41 121 142
-0.066332 0.165581 -0.288382 37 130 142
-0.436998 0.425820 0.199827 36 134 141
0.269485 -0.153696 -0.167171 64 68 135
-0.477003 0.104551 -0.023589 69 54 129
0.083366 -0.258365 -0.277856 51 97 141
-0.590169 0.039319 0.489446 30 155 137
-0.181773 0.583825 -0.043390 68 1 84
0.591507 -0.323336 0.294642 61 74 137
-0.085734 -0.254525 -0.244008 40 122 142
0.105800 -0.088141 -0.381545 53 92 140
-0.431167 -0.435620 -0.149316 32 144 140
-0.537603 0.215809 0.427787 54 184 119
0.392457 0.139195 -0.098949 68 1 84
0.137494 0.242514 -0.240959 71 20 102
0.208200 -0.354876 -0.138220 39 124 142
0.544624 0.046698 0.106641 71 43 122
0.521231 -0.335586 0.060488 68 55 129
0.079721 -0.192641 -0.332994 58 83 139
0.489551 0.371651 0.287379 31 146 140
0.187985 0.135902 -0.226899 68 1 84
-0.474793 -0.274887 -0.015845 68 1 84
-0.256749 -0.036463 -0.205273 34 137 141
-0.263838 -0.098209 -0.195884 49 100 141
0.603927 -0.182400 0.252265 67 60 132
-0.029856 0.260882 -0.281974 52 94 141
-0.556607 0.149702 0.379200 32 164 133
0.578299 0.074570 0.289153 54 90 140
0.583255 -0.377008 0.301168 55 88 140
-0.428270 -0.128961 -0.122796 71 44 123
0.309402 0.399458 -0.079529 68 1 84
-0.335222 0.394752 -0.047715 71 39 119
-0.387272 0.477252 0.148125 49 100 141
0.553454 0.015790 0.122337 62 72 136
0.309895 0.033618 -0.174698 70 45 124
-0.574489 -0.311879 0.207439 68 1 84
-0.539419 0.110230 0.177365 62 73 137
0.555449 0.025721 0.139847 62 72 136
-0.482138 0.070765 -0.033483 68 1 84
-0.543006 0.177563 0.249988 41 121 142
-0.003980 0.249972 -0.280870 65 65 134
-0.578640 -0.139136 0.159797 68 1 84
0.227436 0.401284 -0.147432 68 1 84
0.442968 -0.207750 -0.065376 70 9 92
-0.632663 -0.397714 0.390591 68 1 84
0.233638 0.504614 -0.120535 68 1 84
-0.563390 -0.196731 0.104914 68 1 84
-0.535347 0.030258 0.070118 68 1 84
0.595001 0.012243 0.356313 43 116 142
-0.025156 -0.501651 -0.287483 253 231 36
0.216155 -0.091360 -0.198931 71 40 120
-0.164348 0.490993 -0.165471 68 1 84
0.613428 -0.124908 0.385985 45 111 142
-0.607023 -0.244939 0.428927 71 37 117
-0.380005 0.264832 -0.068181 58 82 139
0.402006 0.223519 -0.063580 72 26 108
-0.115379 0.138063 -0.264220 35 135 141
-0.572267 0.100011 0.439835 30 157 136
-0.340136 0.226808 -0.119233 72 33 114
-0.119432 -0.156071 -0.264012 54 91 140
-0.719254 -0.548743 0.408089 40 122 142
0.473228 -0.184576 -0.044709 71 37 117
-0.568286 -0.052315 0.164564 71 24 106
0.493531 0.369171 0.243593 33 140 141
-0.093723 -0.292897 -0.186968 39 124 142
-0.446579 0.413304 0.270446 33 142 140
0.137499 -0.062431 -0.326968 53 93 140
0.522334 -0.411594 0.041022 57 85 139
-0.456585 0.261450 0.029053 49 102 141
0.414477 0.310873 -0.022041 71 43 122
-0.146046 0.008978 -0.223385 55 89 140
0.508047 0.107622 0.039586 71 42 121
-0.592948 0.029145 0.456542 30 154 137
0.506763 -0.194516 0.001109 72 28 110
0.184416 0.060192 -0.215932 71 22 105
-0.599567 -0.092859 0.368515 61 76 137
-0.605403 -0.168267 0.360825 71 43 122
0.111619 0.544723 -0.207932 68 1 84
0.380039 0.490042 0.155416 61 75 137
-0.588196 -0.294396 0.308179 68 1 84
-0.196875 0.268236 -0.164224 68 1 84
0.231805 0.312777 -0.150854 68 1 84
-0.672859 -0.494592 0.345410 47 105 141
-0.527862 0.049352 0.059070 68 3 87
-0.480571 -0.300959 -0.000927 68 1 84
-0.052874 0.570630 -0.197525 68 1 84
-0.512870 0.111107 0.060137 68 1 84
0.075552 -0.010120 -0.287232 62 73 137
-0.360433 0.430303 0.005074 71 38 118
-0.080466 -0.428731 -0.259533 73 193 109
-0.491483 -0.479776 -0.058871 69 50 127
0.444087 0.238162 -0.012894 71 38 118
0.307366 0.366681 -0.092610 68 1 84
-0.592450 -0.276054 0.320424 68 1 84
0.429710 -0.322555 -0.052104 72 33 114
-0.421893 0.437789 0.300697 46 109 142
0.602875 -0.194263 0.244611 62 73 137
-0.389808 -0.180486 -0.129417 71 42 121
-0.095511 0.558077 -0.187110 68 1 84
0.260325 0.300699 -0.134160 68 1 84
0.108684 -0.278415 -0.185550 47 105 141
-0.460825 -0.096778 -0.097738 71 40 120
-0.550102 -0.007126 0.102603 62 73 137
0.609172 -0.009347 0.465906 32 143 140
-0.632603 -0.502031 0.337283 51 96 141
-0.161354 0.092875 -0.233266 31 150 139
0.445954 -0.170907 -0.077450 72 25 107
0.519498 -0.234489 0.036490 70 14 97
0.232197 -0.442194 -0.231925 85 198 102
0.618374 -0.095744 0.452205 44 112 142
0.581460 -0.171129 0.153117 70 48 125
0.577473 -0.285648 0.171273 68 55 129
-0.352745 0.507411 0.145741 71 40 120
0.301499 -0.457271 -0.224146 61 187 116
-0.605206 -0.233454 0.465267 66 61 132
0.138439 -0.387135 -0.190876 30 153 138
0.564689 0.081493 0.220000 56 87 140
-0.256099 0.543971 -0.016657 69 6 90
-0.231230 0.212298 -0.165677 72 30 112
0.335132 -0.338643 -0.142031 44 113 142
0.614006 -0.409594 0.461167 57 85 139
0.163425 0.340053 -0.192515 68 1 84
-0.645696 -0.374566 0.446716 62 73 137
0.580752 -0.083840 0.187143 69 54 129
0.348045 -0.256066 -0.126596 61 74 137
0.461743 0.301483 0.040111 66 62 133
0.338586 0.512765 0.079941 70 48 125
-0.407870 0.440077 0.104436 61 75 137
-0.456202 0.384452 0.150981 36 134 141
-0.618551 -0.296629 0.483474 72 32 113
0.588363 0.055146 0.482650 33 142 140
0.350338 -0.250500 -0.122850 61 76 137
0.079861 -0.280503 -0.261064 44 112 142
-0.171795 -0.164069 -0.206375 48 104 141
-0.063947 -0.481432 -0.284149 218 226 24
-0.078081 0.193000 -0.265328 45 111 142
-0.394016 0.472757 0.241578 51 97 141
-0.458099 0.381980 0.152911 36 134 141
-0.709868 -0.508539 0.354581 34 137 141
0.488218 -0.344636 0.009663 61 75 137
0.112690 0.198174 -0.244338 71 37 117
0.104116 -0.242686 -0.236756 56 86 139
-0.246830 -0.043827 -0.206914 45 111 142
0.550639 0.110925 0.163153 58 82 139
-0.398248 0.371623 0.011837 63 69 135
-0.385326 0.078269 -0.140318 60 78 138
-0.415486 0.038714 -0.128556 61 76 137
0.611619 -0.102915 0.379469 50 98 141
0.274395 0.546278 0.017825 68 1 84
0.124281 0.192080 -0.244922 69 54 129
-0.482433 0.334940 0.415553 51 182 121
-0.020394 -0.006409 -0.397800 37 130 142
-0.504258 0.280477 0.170511 32 144 140
0.593569 -0.335345 0.327421 59 80 138
0.061052 -0.134364 -0.409718 43 116 142
0.602707 -0.306364 0.354395 55 89 140
-0.080913 -0.062587 -0.402377 38 172 129
-0.213722 0.397044 -0.136802 68 1 84
0.123161 -0.041725 -0.358378 53 93 140
-0.593684 -0.142378 0.250578 71 24 106
0.584786 -0.391577 0.349351 61 76 137
-0.123843 -0.096533 -0.292947 44 112 142
0.114642 0.053723 -0.243200 70 47 124
0.297052 -0.217790 -0.142161 53 92 140
-0.321702 -0.464387 -0.228556 107 205 89
0.578889 0.088186 0.473392 31 148 139
0.149743 0.230763 -0.223557 69 5 88
0.295244 0.505307 -0.028932 69 5 88
0.302041 -0.174263 -0.152700 67 59 131
-0.071325 -0.098916 -0.406149 31 147 139
-0.174866 0.458032 -0.160521 68 1 84
-0.381223 0.217430 -0.086511 57 85 139
0.323525 -0.470423 -0.217951 116 208 84
-0.725199 -0.542825 0.385653 33 141 140
0.175456 -0.128576 -0.210041 66 61 132
0.497748 0.167704 0.043118 70 48 125
0.292973 0.265895 -0.129777 68 1 84
-0.567276 -0.179097 0.112491 68 1 84
-0.170213 0.430350 -0.165924 68 1 84
-0.199238 -0.181660 -0.179849 61 74 137
-0.505555 -0.170358 -0.031616 68 1 84
0.369769 0.498885 0.154839 42 118 142
-0.504550 0.315531 0.346520 75 194 108
-0.442877 0.402962 0.141848 42 118 142
0.132542 0.579065 -0.148707 68 1 84
0.562653 -0.135407 0.097224 72 33 114
0.045750 -0.266693 -0.342210 30 160 135
-0.455891 -0.289780 -0.031737 68 1 84
0.019986 -0.392601 -0.279382 57 185 118
-0.576384 -0.428122 0.247446 68 1 84
0.582599 -0.458113 0.309284 41 120 142
-0.494104 -0.108520 -0.058857 68 1 84
0.570626 0.158018 0.409524 36 133 141
0.242292 0.452030 -0.129016 68 1 84
0.484469 0.376587 0.194895 39 125 142
0.403800 0.245781 -0.055718 71 38 118
-0.023779 0.528348 -0.232927 68 1 84
0.388072 -0.467494 -0.182883 32 144 140
-0.614457 -0.111690 0.472392 48 104 141
0.030109 -0.186315 -0.391507 36 134 141
0.251594 0.135383 -0.190556 68 1 84
-0.326387 -0.256979 -0.142823 70 48 125
0.230251 -0.021139 -0.197088 71 18 101
-0.612817 -0.089343 0.516032 34 137 141
-0.543242 0.215191 0.314610 31 161 135
-0.533027 -0.402041 0.093477 68 1 84
0.178705 0.583460 -0.069591 68 1 84
0.119747 -0.007298 -0.285389 69 52 127
-0.533790 0.117614 0.157405 66 62 133
0.111564 -0.337857 -0.159995 44 112 142
0.611078 -0.214741 0.326825 57 85 139
0.417204 0.350926 0.003681 70 48 125
-0.298669 -0.346763 -0.152667 62 72 136
-0.031569 -0.251234 -0.348977 46 178 124
-0.528980 0.253816 0.257760 30 157 136
-0.424584 -0.406710 -0.148232 48 104 141
0.362392 -0.095309 -0.150387 72 33 114
-0.545464 -0.360022 0.124074 68 1 84
0.611933 -0.025249 0.472870 33 140 141
-0.525990 -0.103722 -0.007976 68 1 84
0.558077 0.177065 0.479981 30 158 136
-0.163527 -0.487728 -0.260982 183 221 41
0.087939 -0.200596 -0.311456 62 73 137
0.556480 -0.014366 0.115820 64 68 135
0.233443 0.083976 -0.198763 68 1 84
0.175089 0.448049 -0.190820 68 1 84
0.400455 0.435572 0.049658 64 67 135
-0.587370 -0.403815 0.297205 68 1 84
0.053998 0.461483 -0.244424 68 1 84
-0.568086 0.062751 0.313754 42 118 142
0.099746 -0.278886 -0.200574 49 102 141
-0.331314 0.358497 -0.069571 71 24 106
0.488368 -0.385384 -0.024309 52 95 141
-0.601483 -0.038431 0.427624 31 150 139
-0.439911 -0.015505 -0.116554 71 40 120
0.239363 0.567751 0.011600 68 1 84
-0.506824 -0.505974 -0.004336 69 54 129
0.196053 0.274312 -0.182745 68 1 84
0.033607 0.477493 -0.245741 68 1 84
-0.361420 0.101291 -0.148586 55 89 140
-0.584100 -0.273174 0.241234 68 1 84
0.604510 -0.097459 0.321747 60 78 138
0.450250 -0.317867 -0.026168 64 67 135
-0.183578 0.437087 -0.154976 68 1 84
-0.285417 0.498733 -0.034410 68 1 84
-0.418010 0.446064 0.260749 56 87 140
-0.505044 0.317014 0.273818 68 190 112
-0.600312 -0.030496 0.425607 38 127 142
0.247635 -0.356242 -0.147164 46 109 142
-0.531467 0.105805 0.135286 70 45 124
0.589073 0.059951 0.468115 33 142 140
-0.283139 -0.111403 -0.187291 62 72 136
0.064541 -0.267819 -0.318887 37 130 142
-0.479343 0.367097 0.251242 38 172 129
-0.108663 0.521639 -0.200407 68 1 84
-0.222142 0.045473 -0.204194 53 93 140
-0.042849 -0.263519 -0.328904 42 176 126
0.545812 -0.064209 0.064278 70 45 124
-0.177507 0.297525 -0.179703 72 28 110
0.147068 0.380325 -0.197070 68 1 84
0.383503 0.409069 -0.001416 71 38 118
0.621266 -0.328707 0.510638 49 102 141
0.610546 -0.447900 0.455153 55 89 140
0.360860 -0.226237 -0.115785 62 73 137
-0.594667 -0.209530 0.254775 69 6 90
-0.328695 0.117015 -0.161656 56 87 140
-0.422326 0.347149 0.029395 60 77 138
0.549789 0.177875 0.188083 51 96 141
0.201175 0.274420 -0.176939 68 1 84
0.499419 0.237165 0.075238 70 49 126
-0.064225 -0.190995 -0.337559 34 139 141
-0.078302 -0.408934 -0.246808 46 178 124
0.123771 0.017054 -0.235157 72 35 116
-0.096204 0.520750 -0.209227 68 1 84
0.052993 0.389922 -0.220753 68 1 84
0.081048 0.385383 -0.215881 68 1 84
0.450734 -0.004598 -0.079050 68 1 84
0.239460 -0.257260 -0.147509 46 108 142
-0.017264 0.293459 -0.277165 65 65 134
-0.466641 0.374533 0.338264 51 182 121
0.428422 0.094195 -0.078333 71 17 99
-0.524959 0.017412 0.026870 70 14 97
-0.380094 -0.072352 -0.161255 65 66 134
-0.532373 0.239253 0.396452 59 186 117
-0.610386 -0.130883 0.452112 54 91 140
0.124146 -0.159457 -0.263620 71 44 123
-0.485090 0.307254 0.131224 42 118 142
0.354039 0.205874 -0.112931 68 1 84
-0.455156 -0.364035 -0.056423 69 8 91
0.313104 0.224374 -0.137962 68 1 84
-0.138807 0.564300 -0.143217 68 1 84
0.531647 -0.416135 0.068507 63 69 135
0.309041 0.121969 -0.163383 68 1 84
-0.405077 0.462841 0.218736 49 100 141
-0.620559 -0.325442 0.438127 72 26 108
0.508693 -0.316507 0.044833 67 59 131
-0.535874 0.212558 0.445778 51 182 121
-0.606446 -0.184087 0.459572 69 52 127
0.284401 -0.399774 -0.182815 30 152 138
-0.542114 0.205903 0.277853 31 149 139
0.423616 0.451338 0.228959 50 98 141
-0.585811 -0.380432 0.290272 68 1 84
0.368586 -0.493210 -0.202391 30 156 137
0.484491 0.263202 0.058832 69 53 128
-0.512387 0.254434 0.172018 33 140 141
-0.537614 -0.114494 0.016268 68 1 84
-0.156169 -0.383640 -0.166836 52 94 141
-0.110326 -0.122116 -0.303161 44 113 142
-0.268789 -0.124819 -0.185903 56 86 139
-0.229659 -0.161644 -0.178959 61 76 137
-0.373538 -0.328954 -0.123211 70 12 95
0.359943 0.496870 0.087920 57 84 139
0.538281 0.282289 0.297548 33 142 140
0.397916 -0.251950 -0.090679 72 35 116
-0.069091 0.441734 -0.229245 68 1 84
0.302626 0.284452 -0.121827 68 1 84
0.539890 -0.348425 0.092983 70 49 126
-0.547485 -0.201382 0.063579 68 1 84
0.540256 0.246776 0.433205 33 141 140
0.125170 -0.070136 -0.352104 51 97 141
-0.178050 -0.327741 -0.135311 60 78 138
-0.099958 -0.404498 -0.224889 31 162 134
0.132874 0.031924 -0.226846 70 11 94
0.471550 0.396798 0.201363 41 121 142
0.143975 0.175117 -0.250461 71 22 105
-0.233231 0.494744 -0.095091 68 1 84
-0.025696 0.327899 -0.243407 72 26 108
0.490512 -0.067662 -0.034798 68 1 84
-0.417304 -0.384650 -0.128411 70 48 125
0.083488 0.184837 -0.265208 71 42 121
0.156118 0.464808 -0.206900 68 1 84
-0.612115 -0.072836 0.518299 31 148 139
0.143814 0.346323 -0.201311 68 1 84
0.026809 0.055754 -0.290421 70 48 125
0.154805 -0.475890 -0.265325 149 215 63
-0.575600 -0.138250 0.144509 68 1 84
-0.154646 -0.248125 -0.161721 61 76 137
-0.442923 0.401459 0.367685 31 162 134
0.542249 0.251146 0.223843 39 125 142
0.531493 -0.108044 0.026750 72 25 107
-0.131358 -0.213016 -0.212253 48 103 141
0.274199 -0.192866 -0.153085 62 73 137
-0.081089 -0.152737 -0.343380 36 132 141
-0.306428 0.431280 -0.055015 69 5 88
0.318350 -0.187584 -0.143834 63 69 135
-0.286593 0.531900 0.017330 68 3 87
0.554293 0.185830 0.213895 47 106 141
0.587847 0.067083 0.365448 40 122 142
-0.570891 -0.097936 0.134638 68 1 84
-0.071995 0.170012 -0.284375 38 128 142
-0.529981 -0.212700 0.030328 68 1 84
-0.488651 0.349945 0.249391 40 174 127
-0.445957 0.323030 0.052339 43 115 142
-0.609280 -0.153024 0.459297 52 95 141
-0.702215 -0.485216 0.372928 47 105 141
0.599469 -0.026538 0.345097 43 116 142
-0.189925 -0.086247 -0.217167 54 91 140
-0.311372 0.533091 0.098435 71 40 120
0.083337 0.158419 -0.285965 64 68 135
0.579851 -0.407732 0.300086 50 99 141
0.507826 -0.349965 0.036411 67 58 131
0.507237 0.128412 0.046005 68 55 129
-0.538788 -0.184136 0.035495 68 1 84
0.132516 -0.386763 -0.193408 30 160 135
-0.383001 -0.384063 -0.148965 64 68 135
-0.000642 0.285116 -0.282813 70 45 124
-0.069704 0.164189 -0.287663 37 130 142
0.084026 -0.302953 -0.214564 43 116 142
0.396383 -0.469638 -0.177728 38 128 142
-0.567349 -0.009101 0.229285 70 48 125
-0.169156 -0.220348 -0.170925 63 71 136
0.350430 0.503351 0.080723 65 66 134
-0.599973 -0.334115 0.347248 71 15 98
0.581492 -0.392458 0.307028 50 99 141
-0.564875 0.058900 0.282431 52 94 141
0.550662 -0.010296 0.095669 72 34 115
0.093993 0.053611 -0.254672 69 8 91
-0.272085 0.485203 -0.060275 68 1 84
0.582110 0.061777 0.518436 31 148 139
0.552174 -0.026556 0.093952 72 33 114
0.028115 -0.268050 -0.351171 38 172 129
0.612193 -0.187028 0.323931 54 90 140
-0.329465 -0.299836 -0.154715 40 123 142
0.489669 0.304451 0.096325 58 82 139
-0.443354 0.008601 -0.108767 69 53 128
-0.065777 0.528232 -0.222344 68 1 84
0.087253 0.033025 -0.256783 71 24 106
0.399793 0.013641 -0.126789 70 48 125
-0.059950 -0.411552 -0.260648 56 185 118
-0.068345 0.529046 -0.220884 68 1 84
-0.580367 -0.414386 0.259323 71 22 105
-0.408835 -0.454992 -0.173106 31 147 139
0.529646 0.045132 0.061711 71 24 106
0.447723 -0.113148 -0.087589 69 5 88
-0.228421 0.209484 -0.168067 71 43 122
0.543255 -0.499552 0.120632 48 104 141
-0.109042 -0.150923 -0.283953 41 121 142
-0.562497 -0.294709 0.147100 68 1 84
-0.605563 -0.130962 0.409251 69 52 127
0.578675 -0.424434 0.277694 60 77 138
0.117145 -0.444620 -0.263733 205 224 29
0.472828 -0.035199 -0.055469 68 1 84
0.068778 -0.094492 -0.431881 34 137 141
-0.195559 -0.131828 -0.206840 64 67 135
0.165097 -0.066180 -0.216515 71 42 121
0.555229 -0.496125 0.165665 55 88 140
0.491031 0.009440 -0.019772 68 2 85
0.095982 0.009204 -0.262156 71 44 123
-0.069322 0.521058 -0.223788 68 1 84
0.346425 0.284725 -0.100016 68 1 84
-0.590049 0.035575 0.508746 36 133 141
0.606734 -0.484839 0.442953 47 106 141
-0.520264 0.154553 0.124420 72 35 116
0.551864 -0.331374 0.119134 71 42 121
0.053539 0.459543 -0.244319 68 1 84
-0.200359 0.215594 -0.166794 70 48 125
-0.299326 -0.384939 -0.159977 61 74 137
-0.152402 0.354010 -0.183257 68 1 84
0.497370 0.255392 0.080822 67 60 132
0.037247 0.547859 -0.220722 68 1 84
-0.114512 0.008038 -0.264111 49 100 141
0.203141 0.203635 -0.181607 68 1 84
-0.071661 -0.078978 -0.414244 30 155 137
-0.458820 -0.135621 -0.094725 71 18 101
-0.555809 -0.048107 0.090833 68 1 84
-0.288965 -0.409224 -0.194726 40 122 142
-0.594954 -0.131726 0.277891 71 43 122
0.595556 0.010788 0.359047 40 122 142
0.552066 -0.456846 0.149148 65 66 134
-0.380352 0.479259 0.123054 59 80 138
0.411487 0.460578 0.260064 46 108 142
0.345738 0.461815 -0.002747 72 32 113
0.338110 0.464119 -0.011103 72 26 108
-0.193981 -0.139298 -0.204817 62 72 136
-0.068710 -0.303964 -0.226611 45 110 142
-0.523915 0.128204 0.121120 72 25 107
0.557173 -0.034469 0.107297 69 52 127
0.459041 -0.405150 -0.089015 47 105 141
-0.085475 0.096368 -0.271609 36 134 141
0.087443 -0.276714 -0.234579 48 103 141
-0.012718 0.061039 -0.293459 72 29 111
-0.112409 0.030559 -0.242065 53 92 140
0.511376 0.121033 0.051988 69 54 129
0.486806 -0.116399 -0.041943 68 1 84
0.205488 -0.066549 -0.202350 71 21 103
-0.415948 0.282258 -0.018557 55 89 140
-0.336953 0.484158 0.026338 69 54 129
0.472532 0.156242 -0.002012 71 20 102
-0.437909 0.356635 0.063945 51 96 141
0.358302 0.502876 0.115923 60 78 138
0.414166 0.014557 -0.113933 67 58 131
-0.528263 -0.149378 0.000292 68 1 84
0.416745 0.274306 -0.033277 66 62 133
0.552509 0.180166 0.491717 61 187 116
-0.564060 0.119168 0.377742 30 160 135
0.187726 0.274592 -0.193173 68 1 84
-0.562219 -0.328653 0.166711 68 1 84
0.284076 0.436015 -0.089860 68 1 84
0.599718 -0.337906 0.379834 56 86 139
0.615903 -0.047206 0.466543 39 124 142
0.603943 -0.311953 0.367003 52 95 141
0.597391 -0.115718 0.256136 64 67 135
0.221565 0.058681 -0.199835 69 8 91
-0.032186 0.498568 -0.240495 68 1 84
0.134520 -0.290054 -0.150483 59 81 138
0.448977 0.408882 0.123191 54 90 140
0.420458 0.085760 -0.089923 71 24 106
0.020635 0.116867 -0.289920 54 91 140
0.470904 -0.400853 -0.069873 42 117 142
-0.606194 -0.230945 0.416913 58 82 139
0.371020 -0.088298 -0.146878 72 32 113
-0.186712 0.509542 -0.137656 68 1 84
-0.081680 -0.030194 -0.341175 36 134 141
0.067421 -0.318371 -0.272040 31 149 139
0.515419 0.066158 0.039510 72 35 116
0.596573 -0.119847 0.246572 67 59 131
-0.552182 0.139276 0.490358 33 167 132
0.356305 0.165300 -0.120941 68 1 84
-0.074135 -0.377784 -0.226066 36 132 141
-0.524203 0.120367 0.116010 71 38 118
-0.150516 -0.291276 -0.149117 67 60 132
-0.559061 0.127837 0.313872 31 146 140
-0.194201 -0.468390 -0.247386 149 215 63
0.412644 0.362850 0.004795 71 44 123
0.610420 -0.237186 0.422596 52 95 141
0.524663 0.312939 0.285366 32 144 140
-0.450047 -0.438193 -0.124820 38 129 142
-0.444265 0.343012 0.064079 54 90 140
-0.388830 -0.352516 -0.104672 72 28 110
0.581050 -0.468080 0.291903 47 105 141
-0.352399 -0.511917 -0.211832 159 217 56
-0.607013 -0.277953 0.394834 71 37 117
0.001997 -0.010342 -0.427095 36 132 141
-0.480011 -0.154469 -0.068338 68 1 84
0.572345 0.148925 0.417967 37 131 141
0.148069 0.273443 -0.232441 68 3 87
-0.078903 -0.012125 -0.291019 44 112 142
0.428381 0.037422 -0.095122 70 14 97
0.447859 -0.523944 -0.131552 38 127 142
0.378790 0.225674 -0.086356 69 6 90
0.585475 0.055190 0.328469 38 127 142
-0.193826 0.541413 -0.107543 68 1 84
-0.545243 0.160039 0.247132 36 132 141
0.203889 -0.451207 -0.237684 154 216 60
0.549084 0.203843 0.484327 53 183 120
0.329975 -0.125098 -0.157762 66 61 132
-0.353534 0.494659 0.081359 70 12 95
-0.247313 0.484500 -0.085254 68 1 84
-0.589226 -0.388465 0.308128 68 1 84
0.564106 0.138793 0.485483 35 169 130
0.562645 -0.158165 0.097811 72 34 115
0.063624 -0.018680 -0.416145 47 106 141
-0.303310 -0.200293 -0.153005 69 50 127
0.371741 0.420381 -0.006324 72 26 108
-0.522377 -0.138146 -0.013051 68 1 84
-0.496182 -0.108592 -0.055976 68 1 84
0.471990 -0.526384 -0.089650 32 165 133
0.109550 0.331456 -0.221622 68 1 84
0.071167 -0.019422 -0.316814 49 101 141
0.603705 -0.317189 0.371973 53 93 140
0.335131 0.291936 -0.105541 68 1 84
-0.231042 0.453415 -0.111767 68 1 84
0.187500 0.521898 -0.164711 68 1 84
0.042509 0.267461 -0.283299 70 48 125
-0.562682 -0.167617 0.095132 68 1 84
-0.534130 0.094669 0.137829 72 34 115
0.538818 -0.478567 0.102996 52 95 141
-0.019192 -0.337529 -0.301057 75 194 108
-0.436608 0.426259 0.260473 36 133 141
-0.506485 0.098450 0.031014 68 2 85
-0.125934 0.038868 -0.235058 42 118 142
0.546091 0.233242 0.422692 38 127 142
-0.318310 0.234473 -0.132908 61 76 137
0.300888 0.225174 -0.142058 68 1 84
-0.536092 -0.115197 0.012813 68 1 84
-0.458708 0.332109 0.086345 45 110 142
0.056815 0.195943 -0.265465 70 49 126
0.562169 -0.391628 0.172222 69 53 128
-0.465557 -0.155606 -0.083547 72 32 113
-0.558029 -0.174259 0.081785 68 1 84
0.614785 -0.147112 0.387692 50 98 141
-0.380920 -0.271431 -0.114673 65 65 134
-0.090231 -0.368237 -0.196804 40 122 142
-0.476020 -0.530035 -0.083634 52 94 141
0.238949 -0.123245 -0.185085 69 50 127
0.474933 0.176368 0.008464 72 28 110
-0.241796 -0.228552 -0.156300 61 75 137
0.245045 -0.391085 -0.171420 33 140 141
-0.506445 0.303530 0.222625 32 164 133
0.505417 0.299065 0.134587 61 76 137
-0.501265 -0.411089 -0.011372 68 1 84
0.272455 -0.222359 -0.146519 50 99 141
0.116174 0.050712 -0.241251 71 40 120
-0.333617 -0.337623 -0.148463 65 65 134
-0.566473 -0.151414 0.105532 68 1 84
-0.450059 0.399498 0.162552 37 130 142
-0.498331 0.241443 0.110999 44 112 142
-0.053322 0.593327 -0.162681 68 1 84
-0.104281 -0.379661 -0.192079 39 125 142
0.139421 -0.000380 -0.241964 71 18 101
-0.531464 -0.286738 0.065255 68 1 84
-0.585160 0.051059 0.432071 33 166 133
0.080754 0.293338 -0.267321 68 1 84
0.517027 -0.225100 0.029233 72 26 108
-0.212977 -0.337592 -0.150461 65 65 134
0.599206 0.008528 0.519024 41 120 142
-0.149686 0.252127 -0.210803 67 59 131
-0.465744 0.367406 0.382136 39 173 128
-0.679591 -0.452313 0.401704 62 72 136
0.399422 -0.138007 -0.121348 71 24 106
0.020898 0.412332 -0.233344 68 1 84
0.331367 0.158997 -0.141572 68 1 84
0.571614 -0.052784 0.163321 70 49 126
-0.252395 -0.321523 -0.160089 57 84 139
-0.349037 -0.462497 -0.213792 59 186 117
0.398506 -0.400847 -0.150400 37 130 142
0.463017 0.406185 0.275034 36 132 141
-0.078011 0.556080 -0.199756 68 1 84
0.598575 -0.481623 0.400436 52 95 141
-0.590049 -0.261384 0.284561 72 25 107
0.090267 -0.303940 -0.198406 46 108 142
-0.005985 0.011395 -0.370182 44 112 142
0.581454 -0.448002 0.295615 54 90 140
-0.330344 0.030759 -0.182000 57 85 139
0.271907 0.167860 -0.174404 68 1 84
-0.330573 0.459174 -0.010493 70 48 125
0.062373 -0.016271 -0.325196 59 80 138
0.486551 -0.376655 -0.020046 55 88 140
-0.591358 -0.357039 0.314863 68 1 84
0.137733 0.464228 -0.218957 68 1 84
0.033303 -0.196133 -0.384658 35 137 141
0.476742 0.391982 0.217261 35 136 141
0.142588 -0.375084 -0.169024 35 137 141
0.360147 0.473796 0.034004 71 39 119
-0.604824 -0.246505 0.381677 72 29 111
0.341638 0.411385 -0.045885 70 11 94
-0.166428 -0.241089 -0.160959 61 76 137
-0.175203 -0.192709 -0.185583 53 93 140
0.615214 -0.163523 0.392678 45 111 142
-0.538928 -0.125626 0.019958 68 1 84
-0.056970 -0.472248 -0.283991 159 217 56
-0.026793 -0.047653 -0.445879 31 161 135
0.427358 0.027702 -0.098434 71 21 103
0.172766 0.099277 -0.231597 69 53 128
0.093092 -0.285065 -0.208714 50 99 141
-0.557661 0.017163 0.197054 66 64 133
-0.224342 0.567487 -0.019019 68 1 84
-0.580110 0.064100 0.418189 30 159 136
0.461977 0.169838 -0.011357 72 33 114
-0.425897 -0.146188 -0.120333 71 44 123
0.417774 -0.448035 -0.158543 34 137 141
-0.082911 0.137455 -0.282753 30 152 138
0.469753 0.017747 -0.049386 69 5 88
-0.536040 0.199178 0.464000 41 175 127
-0.364975 -0.482201 -0.205213 46 178 124
0.086212 0.111296 -0.279579 67 59 131
0.556019 0.212836 0.394796 37 130 142
-0.352743 0.498749 0.092233 72 25 107
0.581364 0.106888 0.432673 37 130 142
-0.516270 0.009543 0.001811 68 3 87
-0.144094 0.433186 -0.185424 68 1 84
-0.127691 0.562149 -0.156886 68 1 84
0.555277 -0.010013 0.113460 65 66 134
0.605041 -0.150192 0.279006 57 84 139
0.377325 -0.162111 -0.127149 71 42 121
-0.331360 -0.230520 -0.139714 69 52 127
0.016437 -0.038385 -0.454403 30 151 138
0.553632 -0.260641 0.102592 71 37 117
0.297556 0.118104 -0.170055 68 1 84
-0.131450 -0.127349 -0.252881 51 97 141
0.505380 0.327921 0.389752 30 153 138
-0.125087 -0.448980 -0.257782 109 206 88
-0.368303 -0.083651 -0.165811 71 39 119
-0.222405 0.508921 -0.099120 68 1 84
-0.304192 0.539173 0.103912 71 39 119
-0.372356 -0.517231 -0.201491 96 201 96
-0.465398 0.376349 0.172464 33 142 140
0.487575 -0.040935 -0.036066 68 1 84
-0.032013 -0.201901 -0.373054 35 168 131
-0.600350 -0.211563 0.310614 69 54 129
-0.469776 0.194813 0.016823 56 86 139
-0.125520 0.174916 -0.258762 37 130 142
-0.500000 0.056332 -0.008779 72 25 107
-0.412042 -0.082237 -0.140015 67 60 132
0.325383 0.512546 0.040929 69 50 127
0.197067 -0.094172 -0.203981 72 33 114
0.178364 0.518688 -0.175380 68 1 84
0.560622 0.028480 0.172660 64 68 135
0.566106 0.138786 0.475615 30 153 138
0.354530 0.352293 -0.066174 68 1 84
0.519229 0.277120 0.474099 45 110 142
-0.247443 -0.216933 -0.157381 61 74 137
0.610791 -0.170415 0.312785 55 89 140
-0.004110 -0.157127 -0.414181 37 130 142
-0.691856 -0.550234 0.357183 40 122 142
0.549800 0.232603 0.394771 43 115 142
0.502773 -0.110036 -0.019594 71 24 106
0.250096 -0.045382 -0.194653 71 22 105
-0.137638 0.592316 -0.086021 68 1 84
0.157673 -0.063598 -0.226532 68 57 130
-0.063386 -0.180157 -0.347742 34 139 141
-0.339842 0.302199 -0.089636 68 55 129
-0.276562 0.553038 0.066320 72 25 107
0.388412 -0.376762 -0.122681 55 88 140
0.569185 0.170882 0.294609 45 110 142
0.090790 0.058654 -0.258509 72 26 108
0.542004 0.180880 0.158861 51 97 141
0.559590 -0.237231 0.106957 71 38 118
-0.591989 -0.439570 0.320678 70 11 94
-0.422338 0.403541 0.082461 60 78 138
-0.422378 0.399632 0.077915 64 67 135
-0.608939 -0.079595 0.447969 45 110 142
0.085472 -0.144012 -0.363831 60 77 138
-0.205814 -0.299941 -0.156869 64 68 135
-0.179198 0.104703 -0.226982 33 142 140
-0.420902 0.429677 0.122559 55 89 140
-0.499031 -0.300887 0.021313 68 1 84
0.184496 -0.399405 -0.201037 30 153 138
0.603464 -0.397514 0.423349 58 83 139
0.115241 -0.084960 -0.362710 52 95 141
0.377936 -0.380644 -0.137850 51 97 141
-0.466964 0.138989 -0.019647 71 44 123
0.473466 0.386123 0.328896 32 144 140
-0.585432 -0.026667 0.337119 46 107 142
-0.515097 0.072201 0.034009 68 1 84
0.439431 0.428811 0.300585 38 127 142
0.468352 -0.522627 -0.097781 32 143 140
-0.567768 0.001471 0.243655 69 50 127
-0.445890 -0.054496 -0.113211 66 64 133
0.561753 0.064162 0.197465 62 72 136
0.460792 -0.283650 -0.014646 71 37 117
-0.466877 -0.025337 -0.088553 72 35 116
0.466700 0.178844 -0.002167 69 50 127
-0.415683 0.450382 0.179967 43 115 142
0.179117 -0.265045 -0.147755 57 85 139
0.608532 -0.374220 0.435923 57 85 139
-0.210417 0.369710 -0.144917 68 1 84
-0.516998 0.285512 0.362848 69 191 111
-0.545336 0.196267 0.398530 47 179 123
0.055108 0.323553 -0.242945 71 15 98
-0.060453 0.597884 -0.149242 68 1 84
0.247227 0.551322 -0.035079 68 1 84
0.029265 0.150565 -0.298750 53 93 140
0.228149 -0.243761 -0.149264 55 89 140
0.462840 0.406028 0.185892 49 100 141
-0.608226 -0.320406 0.382585 72 25 107
0.558538 -0.511615 0.177572 54 91 140
-0.578228 -0.225195 0.168778 70 11 94
0.427635 0.312465 -0.004355 69 52 127
-0.094657 0.599317 -0.115120 68 1 84
0.257387 0.554640 0.000334 68 1 84
-0.501760 0.215954 0.103128 54 90 140
0.617099 -0.358503 0.480021 51 97 141
0.517806 0.013052 0.028367 71 17 99
-0.087376 -0.275195 -0.214419 47 105 141
-0.208201 0.046197 -0.206933 57 85 139
-0.293011 -0.305275 -0.161010 47 105 141
0.245936 0.339323 -0.140037 68 1 84
-0.327177 0.345563 -0.078819 72 34 115
-0.564895 -0.020802 0.191518 71 44 123
-0.093684 0.269568 -0.260199 46 107 142
0.153975 -0.388609 -0.188947 33 142 140
-0.238614 0.478296 -0.097067 68 1 84
-0.271769 0.331316 -0.118450 72 35 116
-0.420279 0.438456 0.145634 53 92 140
0.100118 -0.460243 -0.274531 183 221 41
0.564216 0.005833 0.176497 67 58 131
-0.084054 0.431405 -0.220223 68 1 84
-0.528320 0.092305 0.107054 72 33 114
-0.331571 -0.166663 -0.156744 69 50 127
0.346079 0.192138 -0.122584 68 1 84
0.580482 0.105922 0.346698 43 116 142
-0.278671 -0.154368 -0.171054 72 35 116
0.621100 -0.293035 0.428092 50 98 141
0.263209 0.449411 -0.107148 68 1 84
-0.645876 -0.468043 0.343619 62 73 137
-0.517350 -0.397218 0.043626 69 6 90
-0.443748 0.417832 0.208927 36 132 141
0.434711 0.333793 0.018047 66 61 132
0.608032 -0.239822 0.452334 47 105 141
-0.200985 0.069114 -0.212000 40 122 142
0.440803 0.106855 -0.059573 71 21 103
0.573682 0.156442 0.369896 38 129 142
0.617228 -0.368083 0.490481 55 89 140
-0.578347 -0.340621 0.256917 68 1 84
-0.099110 0.149431 -0.275084 38 129 142
-0.571946 0.090717 0.485356 30 154 137
-0.245095 -0.034788 -0.207034 42 119 142
0.018328 0.462219 -0.245903 68 1 84
0.055611 -0.424074 -0.272309 107 205 89
0.595916 -0.269718 0.249509 64 67 135
0.100034 0.068638 -0.256861 69 8 91
0.279548 0.159825 -0.173171 68 1 84
0.215999 -0.346047 -0.140052 38 129 142
0.576871 0.135556 0.349763 42 118 142
-0.482166 -0.268120 -0.009499 68 1 84
-0.380681 -0.083701 -0.159681 67 60 132
0.473060 0.081810 -0.026371 71 17 99
0.435268 0.439518 0.204360 51 97 141
-0.000877 -0.251496 -0.363052 42 176 126
-0.058376 -0.090453 -0.424239 32 145 140
-0.643470 -0.376253 0.435370 58 82 139
0.605372 -0.256254 0.317629 61 75 137
-0.192615 -0.357250 -0.145408 70 49 126
0.191358 0.315493 -0.179438 68 1 84
0.263878 -0.424840 -0.227081 30 159 136
0.553829 0.187898 0.212904 49 102 141
0.322823 -0.136448 -0.157426 62 72 136
0.370657 0.386143 -0.030880 71 18 101
0.071795 0.304228 -0.260925 68 1 84
-0.139455 -0.136493 -0.242833 54 90 140
0.258935 0.230952 -0.141805 68 1 84
0.293646 0.215870 -0.147606 68 1 84
0.596038 -0.229649 0.219724 70 49 126
0.583214 -0.439211 0.332021 50 99 141
0.208160 -0.291846 -0.147477 50 98 141
0.104273 0.459531 -0.234891 68 1 84
0.307384 -0.149140 -0.158657 66 61 132
-0.308762 -0.220497 -0.147800 67 59 131
-0.457818 -0.009239 -0.096536 71 37 117
-0.201781 -0.239731 -0.155695 67 58 131
-0.239777 0.313231 -0.139641 68 1 84
-0.065561 0.330246 -0.234472 71 39 119
-0.560707 -0.150792 0.085734 68 1 84
-0.328604 0.516734 0.078763 71 21 103
-0.597315 -0.202795 0.273067 71 22 105
-0.105141 0.587982 -0.135674 68 1 84
-0.131824 0.362987 -0.192245 68 1 84
0.418773 0.363179 0.013384 68 55 129
0.064192 -0.010217 -0.357168 46 107 142
0.308865 0.079954 -0.168750 70 11 94
0.292923 0.542639 0.062344 72 35 116
-0.093700 0.595868 -0.126562 68 1 84
0.605536 -0.135533 0.296088 50 98 141
-0.481264 -0.324371 -0.000486 68 1 84
-0.465881 -0.462717 -0.109199 55 88 140
-0.573572 0.087221 0.408669 41 175 127
0.604249 -0.208913 0.257708 61 75 137
0.167063 -0.090234 -0.216732 71 38 118
-0.216431 -0.256415 -0.155556 62 72 136
-0.550525 0.089065 0.223881 52 95 141
-0.077296 0.595038 -0.144492 68 1 84
-0.265424 0.363632 -0.110114 68 1 84
-0.125013 0.535679 -0.181320 68 1 84
0.138612 -0.266071 -0.161048 60 77 138
0.173646 0.329417 -0.188303 68 1 84
0.150386 -0.184729 -0.211108 67 60 132
-0.406232 0.397537 0.044921 61 74 137
-0.602780 -0.019182 0.449676 32 164 133
0.569613 0.073121 0.240104 54 90 140
-0.581907 -0.119143 0.187365 68 1 84
0.447449 -0.444207 -0.128751 46 107 142
0.044530 -0.424653 -0.275562 75 194 108
0.557952 -0.291674 0.121718 71 43 122
0.580192 0.118096 0.368344 38 129 142
-0.256032 -0.407473 -0.195682 33 142 140
0.589990 0.056058 0.371377 47 106 141
-0.194039 -0.383925 -0.165760 61 76 137
-0.555586 -0.501160 0.190553 68 1 84
0.491997 0.329891 0.127662 57 84 139
0.061845 0.010293 -0.289383 61 74 137
-0.572238 0.004067 0.276460 54 91 140
0.499882 -0.414520 -0.020783 56 87 140
-0.344903 0.191728 -0.128206 69 52 127
0.549950 0.151395 0.176218 58 83 139
-0.126348 0.318185 -0.211554 71 44 123
-0.469501 -0.492773 -0.106175 49 102 141
0.214899 0.243822 -0.157646 68 1 84
0.164917 -0.226830 -0.169123 72 33 114
-0.319653 0.468844 -0.016485 70 49 126
0.280946 -0.210895 -0.147329 53 92 140
0.589054 -0.330106 0.281858 59 81 138
0.291444 -0.204533 -0.146568 54 90 140
0.571185 0.109993 0.265274 54 90 140
-0.532412 0.244631 0.368761 66 190 113
-0.065774 -0.166270 -0.356913 34 138 141
0.472844 0.386245 0.332505 31 150 139
-0.106670 -0.306907 -0.164963 43 116 142
0.132727 -0.054757 -0.340887 57 84 139
0.519832 0.319927 0.246217 31 147 139
-0.570965 0.035241 0.306156 56 87 140
-0.515563 0.242609 0.483333 35 168 131
0.610442 -0.101461 0.363921 56 86 139
0.495412 0.060788 0.001027 72 33 114
-0.594669 -0.194839 0.244927 71 22 105
-0.403449 -0.441410 -0.176785 33 140 141
0.420991 -0.129857 -0.108614 72 29 111
0.254508 0.113627 -0.190659 68 1 84
-0.468595 0.359044 0.149157 35 136 141
0.229846 0.199511 -0.168315 68 1 84
0.041192 -0.176889 -0.392095 42 117 142
0.193747 0.287238 -0.183055 68 1 84
0.086256 -0.232937 -0.295487 61 76 137
0.612603 -0.215819 0.512808 37 130 142
-0.131815 -0.431094 -0.235577 39 173 128
-0.180991 0.064294 -0.218875 35 137 141
-0.433821 0.430552 0.213214 36 134 141
-0.387177 0.474541 0.131975 50 99 141
0.462441 0.382336 0.114465 59 80 138
0.485403 0.377683 0.205325 42 117 142
-0.470746 -0.190390 -0.063902 68 1 84
0.391883 -0.269820 -0.098260 72 29 111
-0.512518 0.143243 0.086912 71 24 106
-0.470265 -0.367372 -0.037640 68 1 84
0.039443 -0.366328 -0.279843 33 166 133
0.567009 0.193602 0.324972 46 108 142
0.017382 0.270352 -0.285002 69 53 128
0.505674 0.314936 0.441467 44 114 142
0.563313 0.013852 0.177811 65 65 134
0.616009 -0.151183 0.427780 42 117 142
-0.491285 0.158618 0.037447 71 37 117
-0.039270 0.472818 -0.241238 68 1 84
-0.582520 0.029251 0.380501 39 126 142
0.330265 -0.251568 -0.133202 51 96 141
0.065052 -0.348856 -0.263584 31 149 139
0.164095 -0.142934 -0.214857 62 73 137
0.225771 0.296172 -0.155211 68 1 84
-0.453107 0.391289 0.339584 35 169 130
0.598674 -0.303860 0.323850 63 71 136
0.234266 -0.085031 -0.195321 69 54 129
-0.114724 -0.364428 -0.166950 50 99 141
0.201379 0.173458 -0.210627 68 1 84
0.547208 0.242183 0.390577 34 138 141
0.324533 0.419874 -0.057437 68 1 84
-0.349110 0.146210 -0.140705 55 89 140
-0.051579 0.566351 -0.202647 68 1 84
0.586227 0.061969 0.344058 42 119 142
-0.164678 0.512086 -0.158141 68 1 84
-0.158255 -0.400572 -0.192453 39 125 142
-0.500674 0.283754 0.159775 30 151 138
0.551241 -0.486137 0.149786 60 77 138
0.444128 -0.210062 -0.063376 70 11 94
-0.009063 -0.020402 -0.433496 30 151 138
0.614305 -0.438531 0.483849 58 82 139
-0.338822 0.292827 -0.094548 70 45 124
-0.076415 -0.063499 -0.407881 40 174 127
0.328744 0.061952 -0.162317 71 22 105
-0.363706 -0.370768 -0.131420 71 39 119
-0.552358 0.157289 0.301715 36 134 141
-0.121592 -0.082556 -0.318304 39 124 142
0.509123 0.282649 0.128964 56 87 140
-0.081500 -0.480163 -0.281558 238 229 27
-0.463443 -0.248151 -0.042997 68 1 84
-0.543131 0.203715 0.284667 34 139 141
-0.157782 -0.330382 -0.128315 60 77 138
-0.364524 -0.274454 -0.127698 66 64 133
0.189991 0.460606 -0.178508 68 1 84
0.072345 0.125639 -0.290002 54 91 140
0.535003 -0.372265 0.080563 66 64 133
-0.368063 -0.207377 -0.130469 70 12 95
-0.072370 -0.232982 -0.293196 34 139 141
-0.357691 0.278449 -0.084630 69 50 127
0.266688 0.189727 -0.167304 68 1 84
-0.227782 -0.210094 -0.160599 69 50 127
-0.595703 0.013953 0.444568 34 167 132
0.339281 0.177589 -0.131245 68 1 84
-0.338023 -0.156784 -0.158372 71 44 123
-0.438146 0.219436 -0.019153 51 96 141
-0.442151 0.419054 0.267631 33 140 141
0.460297 0.412660 0.226184 47 105 141
-0.229358 -0.295671 -0.161562 57 84 139
-0.275466 -0.173537 -0.164778 72 35 116
-0.135100 -0.074765 -0.277373 37 131 141
-0.584543 -0.112617 0.208262 69 6 90
-0.701487 -0.476751 0.444741 72 33 114
0.366040 0.088007 -0.135533 68 1 84
-0.576822 -0.342361 0.243985 68 1 84
0.415803 0.459506 0.223933 50 99 141
-0.718567 -0.557582 0.403534 37 130 142
0.574403 0.148859 0.387580 38 127 142
0.606104 -0.245237 0.307437 60 77 138
-0.598773 -0.096388 0.356604 53 92 140
0.443070 -0.415540 -0.117453 44 112 142
-0.306573 -0.331260 -0.155424 64 68 135
0.299522 0.076804 -0.173003 68 1 84
-0.405547 0.455999 0.293641 60 77 138
-0.403164 0.364138 0.013510 60 78 138
0.451485 -0.467252 -0.130680 51 96 141
-0.029274 0.216115 -0.265839 59 81 138
0.537288 0.275314 0.241198 38 129 142
-0.450828 0.082515 -0.073234 69 53 128
-0.352659 0.302596 -0.078440 71 22 105
-0.176323 0.274908 -0.183109 68 1 84
0.586984 -0.386556 0.367897 61 75 137
0.587130 0.071967 0.457400 31 148 139
-0.463673 -0.223502 -0.054864 68 1 84
-0.475024 0.297519 0.094051 34 139 141
-0.105580 -0.103045 -0.340848 38 127 142
0.440101 -0.129778 -0.093454 71 20 102
0.447939 -0.129898 -0.086074 72 25 107
-0.342120 0.380166 -0.049016 68 1 84
0.481055 -0.111382 -0.049358 68 1 84
0.193792 0.336950 -0.174262 68 1 84
-0.575086 -0.079782 0.179240 71 15 98
0.603040 -0.208112 0.249110 61 76 137
-0.339467 -0.236971 -0.136233 69 53 128
0.123073 0.329146 -0.217385 68 1 84
-0.212383 0.419107 -0.133832 68 1 84
-0.146962 0.522820 -0.169537 68 1 84
-0.603935 -0.069103 0.425570 42 117 142
0.500666 -0.257768 0.022187 70 11 94
-0.421158 -0.288583 -0.073224 68 1 84
-0.508456 -0.465031 0.001750 68 1 84
0.428114 -0.340368 -0.059098 65 66 134
0.273604 -0.091649 -0.183621 71 44 123
0.612289 -0.210513 0.348545 50 98 141
-0.202458 -0.419495 -0.216723 30 159 136
-0.557468 0.150655 0.424900 47 179 123
-0.211431 0.063795 -0.207338 58 82 139
-0.057691 0.304186 -0.262078 63 71 136
-0.540112 -0.032604 0.042801 70 11 94
0.221968 0.573924 -0.007971 68 1 84
0.213192 0.423878 -0.158196 68 1 84
-0.481959 0.338073 0.161865 35 137 141
0.551872 -0.306679 0.112678 70 48 125
-0.311329 0.163600 -0.159469 49 100 141
-0.485515 0.341301 0.187132 30 155 137
0.032826 -0.389355 -0.276463 51 182 121
-0.726872 -0.513664 0.404649 46 108 142
0.311704 0.051495 -0.171234 72 34 115
-0.489748 0.338772 0.358938 32 165 133
-0.187512 0.176619 -0.215149 42 117 142
-0.557057 -0.150349 0.074361 68 1 84
0.082864 -0.318199 -0.210763 41 120 142
0.544405 0.229698 0.452516 31 146 140
0.610822 -0.249864 0.374979 56 86 139
0.341030 0.093949 -0.149118 68 1 84
0.164260 -0.054059 -0.215649 71 43 122
0.467467 -0.465542 -0.107599 48 103 141
-0.424086 0.437732 0.277466 44 112 142
0.537168 0.195154 0.148799 58 82 139
0.177221 0.482249 -0.188581 68 1 84
-0.563540 -0.130604 0.094458 68 1 84
-0.099541 0.488691 -0.215003 68 1 84
-0.248338 0.433133 -0.102424 68 1 84
-0.605071 -0.152639 0.369789 67 60 132
-0.050426 -0.019425 -0.324966 33 167 132
-0.615462 -0.459325 0.333460 68 1 84
-0.364169 0.398779 -0.013652 71 38 118
-0.381741 -0.156157 -0.142546 70 47 124
0.478732 -0.511137 -0.080504 32 143 140
0.078052 -0.361621 -0.242113 30 154 137
0.448969 -0.173263 -0.073775 72 26 108
0.580541 -0.322420 0.201059 68 57 130
-0.132391 -0.223341 -0.200142 49 102 141
0.549464 0.213193 0.214916 49 102 141
0.100643 0.058775 -0.252534 71 15 98
0.558320 0.077346 0.186798 54 91 140
-0.352053 -0.489218 -0.211562 98 202 95
0.112665 0.135565 -0.272845 67 59 131
-0.528866 -0.193060 0.018332 68 1 84
-0.145859 0.225226 -0.211827 60 77 138
0.260900 0.510115 -0.076880 68 1 84
-0.140296 -0.171553 -0.230126 44 114 142
0.082587 -0.378607 -0.241787 31 161 135
0.410293 -0.165448 -0.107124 72 25 107
-0.274046 -0.001888 -0.201742 41 120 142
-0.582882 -0.072875 0.245970 72 25 107
0.064540 0.151552 -0.293354 60 77 138
-0.527957 0.148351 0.151215 71 39 119
0.615692 -0.081674 0.436830 40 122 142
-0.579463 -0.093108 0.194099 68 1 84
-0.566103 0.095800 0.338594 34 138 141
-0.117562 -0.122758 -0.281571 43 115 142
-0.341745 0.356587 -0.061623 68 3 87
0.608638 -0.253461 0.351368 59 81 138
-0.056990 0.537089 -0.221549 68 1 84
-0.017226 0.286749 -0.280354 66 64 133
-0.148009 0.011648 -0.221703 54 90 140
0.535503 0.202636 0.147526 51 97 141
0.580799 -0.413769 0.319674 57 84 139
0.045252 0.574543 -0.194174 68 1 84
0.023872 0.586628 -0.177011 68 1 84
0.481775 -0.270101 0.005194 70 12 95
0.480127 0.125870 -0.002245 71 22 105
-0.446533 -0.332532 -0.043767 68 1 84
0.140830 -0.110296 -0.250248 65 66 134
-0.560909 0.111407 0.301205 31 149 139
-0.603660 -0.177174 0.329492 71 39 119
-0.584129 -0.139852 0.189666 68 1 84
0.327401 0.526009 0.110300 69 52 127
-0.547780 0.137451 0.244478 42 119 142
-0.574478 -0.138376 0.139107 68 1 84
-0.055107 0.269413 -0.277625 47 105 141
0.383170 0.489086 0.185161 59 81 138
-0.409819 -0.049449 -0.143716 61 75 137
-0.502647 -0.025929 -0.036814 68 1 84
-0.545044 0.198015 0.391998 56 185 118
0.488086 -0.334763 0.015004 70 45 124
-0.510303 0.267850 0.180368 36 132 141
0.442791 0.425169 0.300214 36 132 141
-0.305321 0.170442 -0.161259 50 99 141
0.370736 0.497147 0.144005 49 100 141
0.497779 -0.275374 0.026754 71 20 102
-0.454464 0.318512 0.065743 43 116 142
0.021205 0.035317 -0.312513 68 55 129
0.136141 0.009148 -0.228718 68 1 84
0.544093 0.129186 0.144841 54 90 140
0.597571 -0.010576 0.347742 39 125 142
0.022349 -0.261787 -0.355975 36 170 130
0.383509 0.375842 -0.023653 71 22 105
-0.340022 -0.306500 -0.150596 42 118 142
-0.470614 0.371556 0.186881 39 125 142
0.306323 0.331918 -0.105651 68 1 84
-0.584741 -0.069842 0.265532 72 30 112
0.269131 0.279790 -0.131586 68 1 84
-0.028644 0.328086 -0.242882 71 24 106
0.211280 0.027318 -0.199439 71 20 102
-0.581975 -0.349460 0.281153 68 1 84
0.187971 -0.366367 -0.146080 31 146 140
-0.421138 0.392071 0.066654 65 66 134
0.541632 -0.058944 0.055684 71 42 121
-0.373596 0.487172 0.129580 63 71 136
0.263153 -0.100992 -0.184980 70 45 124
-0.529032 0.073067 0.087532 72 32 113
-0.361984 0.455530 0.032089 62 73 137
-0.262877 0.417935 -0.096285 68 1 84
-0.058366 -0.197233 -0.342936 31 147 139
-0.560518 -0.155357 0.085690 68 1 84
0.149815 -0.047820 -0.289542 66 64 133
0.519861 0.306102 0.199078 43 116 142
0.526903 -0.386149 0.058986 65 65 134
0.251923 0.484380 -0.107070 68 1 84
-0.622892 -0.444956 0.345037 70 48 125
-0.268052 0.545339 0.010241 69 8 91
-0.237798 0.555782 -0.024221 68 1 84
-0.483503 0.351073 0.203989 30 156 137
-0.509421 -0.051701 -0.031515 71 17 99
-0.167688 -0.433516 -0.225434 31 161 135
-0.607564 -0.190021 0.497373 64 68 135
0.501470 0.330770 0.407230 35 136 141
-0.415075 0.148682 -0.081010 70 47 124
-0.376113 -0.472129 -0.198067 30 160 135
0.198466 -0.320155 -0.134897 47 105 141
0.458432 0.290575 0.028635 71 40 120
-0.228841 0.567300 -0.010661 68 1 84
-0.606992 -0.199397 0.489756 67 59 131
-0.053874 -0.025436 -0.375152 30 151 138
-0.004237 0.263727 -0.284314 65 65 134
0.231636 0.375652 -0.145865 68 1 84
0.146736 -0.310026 -0.131365 58 83 139
-0.533889 0.201170 0.216550 36 134 141
-0.440404 -0.509755 -0.146365 30 157 136
-0.481844 0.355625 0.330230 50 181 122
-0.425708 0.306977 0.008137 55 88 140
0.611145 -0.232220 0.407449 51 96 141
-0.385827 -0.293898 -0.113865 71 44 123
0.601930 -0.046499 0.343994 48 104 141
0.240507 -0.386739 -0.167384 32 144 140
0.254647 0.523463 -0.071262 68 1 84
0.599678 -0.348259 0.392760 57 84 139
-0.313709 -0.472259 -0.231657 112 206 86
0.451298 -0.249407 -0.040705 72 28 110
0.556838 -0.491571 0.173827 60 77 138
-0.607208 -0.084816 0.437328 56 87 140
-0.547423 -0.247701 0.081987 68 1 84
0.409756 -0.208607 -0.091538 72 29 111
0.435597 -0.496370 -0.153569 41 120 142
0.340215 0.276459 -0.106698 68 1 84
-0.030111 0.012176 -0.324537 47 105 141
0.237593 0.392275 -0.140007 68 1 84
0.539844 -0.404345 0.093988 59 80 138
0.151560 0.082259 -0.237186 71 22 105
-0.500084 -0.076891 -0.050079 69 5 88
0.495129 -0.128222 -0.030407 68 1 84
-0.443540 0.414209 0.180918 33 141 140
0.583156 -0.225185 0.165737 71 42 121
-0.649541 -0.414281 0.406230 70 9 92
0.496240 -0.281567 0.027048 71 20 102
0.424239 -0.163066 -0.098414 72 32 113
0.492678 -0.325105 0.024180 70 48 125
-0.584253 0.022771 0.383436 40 123 142
-0.070744 -0.024651 -0.319243 30 152 138
0.578876 -0.036791 0.227701 65 66 134
0.594548 -0.058680 0.297440 61 74 137
-0.592064 -0.111914 0.271532 72 34 115
-0.551912 0.108470 0.246496 46 109 142
0.586171 -0.452520 0.337239 51 96 141
0.538930 -0.263266 0.076645 72 32 113
-0.599633 -0.031040 0.420534 34 139 141
-0.057235 -0.399185 -0.256297 41 175 127
-0.596842 -0.302205 0.341628 68 1 84
-0.382506 -0.237727 -0.114887 70 45 124
-0.094070 0.588332 -0.145953 68 1 84
0.149316 -0.086513 -0.243501 71 38 118
0.283528 0.546754 0.051103 72 25 107
0.058476 -0.130444 -0.415447 40 122 142
0.321773 -0.117221 -0.162335 69 54 129
0.518039 -0.476686 0.032220 40 123 142
0.457973 0.413852 0.199260 43 115 142
-0.515559 -0.274266 0.035409 68 1 84
0.437043 -0.518008 -0.148519 34 137 141
0.477025 0.378712 0.343951 30 151 138
-0.579417 -0.242128 0.183259 69 5 88
-0.579547 0.077162 0.475282 47 179 123
-0.201210 0.419008 -0.142796 68 1 84
-0.278545 -0.384615 -0.163321 61 74 137
-0.599592 -0.176030 0.288292 61 75 137
0.024689 0.197563 -0.271396 70 49 126
0.231005 0.568599 -0.009397 68 1 84
-0.568255 -0.377471 0.222225 68 1 84
0.457037 -0.353731 -0.044339 63 69 135
