ply
format ascii 1.0
element vertex 1269
property float x
property float y
property float z
property uchar red
property uchar green
property uchar blue
end_header
0.563801 -0.491095 0.051457 68 1 84
-0.644164 -0.365330 0.222752 68 1 84
-0.637445 -0.478544 0.190880 68 1 84
0.413764 -0.066682 -0.154921 68 1 84
-0.332068 0.287244 -0.102750 71 15 98
-0.565368 -0.315124 0.029825 68 1 84
-0.417426 0.068712 -0.137944 68 1 84
0.659761 -0.287563 0.450370 56 86 139
-0.482872 0.281530 0.066409 68 1 84
-0.344114 0.524799 0.187640 30 151 138
-0.666073 -0.280073 0.281976 68 1 84
-0.688437 -0.419465 0.438716 70 14 97
0.542480 0.346356 0.223533 67 58 131
-0.525062 0.325435 0.254014 72 28 110
0.648747 -0.321916 0.282737 71 43 122
0.613103 0.141534 0.242794 56 87 140
0.269017 -0.463649 -0.253955 68 1 84
-0.623027 0.006381 0.408402 69 6 90
0.231590 -0.445335 -0.239454 68 1 84
0.622697 -0.044206 0.185482 72 33 114
-0.535587 -0.089875 -0.048596 71 15 98
0.248153 0.526260 -0.110965 46 109 142
0.124140 0.419897 -0.204850 72 34 115
-0.277509 0.464287 -0.051890 41 121 142
0.058242 0.496772 -0.216002 62 72 136
-0.616396 0.029647 0.361576 72 33 114
0.514575 -0.167247 -0.069015 68 1 84
0.673721 -0.529496 0.487085 70 47 124
-0.605669 0.035715 0.270854 68 2 85
0.343983 -0.403179 -0.170977 72 33 114
-0.188106 -0.280549 -0.178930 50 99 141
0.661831 -0.347655 0.411047 71 24 106
0.210110 -0.494618 -0.273673 68 1 84
-0.364831 0.139410 -0.143959 68 1 84
-0.163264 0.439236 -0.153270 68 1 84
-0.510322 -0.496810 -0.110861 68 1 84
-0.591084 -0.034104 0.104494 68 1 84
-0.566937 -0.466765 0.009456 68 1 84
-0.251512 -0.408613 -0.220692 72 25 107
-0.297184 0.479576 -0.021351 35 135 141
-0.145200 0.085229 -0.226853 68 1 84
0.140729 -0.039376 -0.350893 68 1 84
0.533048 0.366446 0.277801 35 135 141
0.066311 -0.046060 -0.470916 68 1 84
-0.474683 0.383590 0.184353 68 1 84
0.266121 0.242925 -0.187995 68 1 84
0.666971 -0.511362 0.420416 68 1 84
-0.043250 -0.225269 -0.367532 68 1 84
-0.582866 0.186496 0.332624 70 9 92
0.594593 0.194723 0.501781 129 211 76
-0.127837 0.078426 -0.234137 68 1 84
0.076809 0.248676 -0.267530 68 1 84
0.626838 -0.032896 0.569458 114 207 85
-0.576084 0.027502 0.111504 68 1 84
-0.441701 0.239666 -0.019422 68 1 84
0.467097 0.445028 0.218952 37 130 142
0.593617 -0.123196 0.038175 68 1 84
-0.320244 0.116520 -0.174002 68 1 84
0.166013 0.543089 -0.176133 46 107 142
0.626408 0.119544 0.385251 35 135 141
0.323282 -0.052908 -0.191108 68 1 84
0.050154 0.154222 -0.309587 68 1 84
-0.097940 0.344225 -0.245524 68 1 84
-0.447612 0.265267 0.003675 68 1 84
0.662282 -0.355750 0.453603 60 77 138
-0.285845 0.396246 -0.079830 66 62 133
0.334930 0.479277 -0.032040 59 81 138
0.269382 -0.413547 -0.186205 65 65 134
-0.610927 0.061977 0.388556 66 61 132
0.578996 0.005310 0.049819 68 1 84
-0.213869 -0.046127 -0.212392 68 1 84
0.044394 -0.495696 -0.312022 68 1 84
-0.587596 0.160480 0.307300 72 26 108
0.504833 0.072726 -0.049308 71 24 106
0.453678 0.313872 0.004997 58 83 139
-0.608985 0.022251 0.275897 71 20 102
0.603536 0.232716 0.320972 39 126 142
0.071356 -0.023944 -0.465737 68 1 84
0.054555 0.503544 -0.216534 56 86 139
0.459431 -0.357411 -0.076727 71 37 117
0.326152 0.570094 0.104682 31 146 140
-0.210013 0.317639 -0.155295 71 39 119
0.186173 0.516299 -0.167465 53 93 140
-0.501991 -0.059214 -0.086159 69 8 91
0.238618 -0.251640 -0.174204 71 24 106
0.209649 0.048502 -0.210181 70 12 95
-0.375004 0.474263 0.092669 49 101 141
0.019394 0.665834 -0.080747 91 200 98
0.491712 0.358430 0.090714 54 91 140
-0.652697 -0.088348 0.494796 72 34 115
0.584105 -0.488220 0.102476 68 1 84
-0.076782 0.593534 -0.179202 48 104 141
0.594563 0.252603 0.371612 31 146 140
0.001953 0.344108 -0.288722 68 1 84
-0.676638 -0.470919 0.324093 68 1 84
0.145932 0.450500 -0.191499 70 49 126
0.061397 0.305442 -0.287816 68 1 84
-0.169092 -0.004185 -0.218765 68 1 84
-0.561032 -0.064016 0.000555 68 1 84
0.585688 0.098395 0.121717 72 35 116
0.149354 0.295057 -0.245758 68 1 84
-0.458531 0.385546 0.133466 70 9 92
0.000684 -0.432534 -0.306463 68 1 84
0.550234 0.329468 0.361430 39 125 142
0.637426 -0.083493 0.543945 36 170 130
0.279323 -0.210158 -0.163851 72 30 112
0.298584 -0.054318 -0.196410 68 1 84
-0.679326 -0.460079 0.343063 68 1 84
0.263911 0.514295 -0.098466 53 92 140
0.112460 -0.418460 -0.250713 69 52 127
0.257745 -0.290756 -0.189945 72 33 114
-0.572792 0.143492 0.200333 68 57 130
-0.542563 0.293239 0.341543 72 26 108
0.076862 0.011046 -0.316419 68 1 84
-0.563210 0.077889 0.113841 68 1 84
0.363174 -0.511784 -0.238166 68 1 84
-0.421240 0.448761 0.248844 55 88 140
0.131159 -0.032432 -0.374728 68 1 84
0.371144 0.510056 0.048508 41 120 142
-0.581012 0.018206 0.122380 68 3 87
-0.192230 -0.314814 -0.163725 61 75 137
0.547074 0.152009 0.062088 70 47 124
0.544378 0.111347 0.036697 71 24 106
-0.562583 0.249175 0.304127 72 26 108
0.522750 -0.233176 -0.039946 68 1 84
0.163324 -0.085047 -0.243503 68 1 84
-0.295946 0.196583 -0.157788 68 1 84
-0.495839 0.335825 0.454533 46 108 142
-0.612871 0.045726 0.353326 71 22 105
-0.090302 -0.245472 -0.274713 69 53 128
-0.464268 0.042383 -0.101422 68 1 84
-0.548610 -0.127368 -0.029655 71 43 122
0.472483 -0.090925 -0.114815 68 1 84
-0.432769 0.438902 0.234718 62 73 137
0.096677 -0.358671 -0.221717 63 71 136
-0.122877 -0.082449 -0.294572 68 1 84
-0.571712 0.003472 0.070782 68 1 84
0.139243 0.044063 -0.250442 68 1 84
0.595386 0.249008 0.276358 38 128 142
-0.363585 -0.322565 -0.159062 71 24 106
-0.671832 -0.244198 0.322067 68 1 84
-0.261701 0.038758 -0.204960 68 1 84
0.512065 0.296655 0.075276 67 58 131
-0.061783 0.526891 -0.206361 50 98 141
-0.083136 0.626572 -0.143821 62 72 136
-0.550453 0.167208 0.140390 68 1 84
-0.121500 0.646533 -0.039412 49 101 141
0.063786 0.005230 -0.374046 68 1 84
0.061418 0.099104 -0.312059 68 1 84
-0.449551 0.404805 0.357652 49 100 141
-0.361692 0.195824 -0.118743 68 1 84
-0.486866 -0.337091 -0.067345 68 2 85
-0.292369 0.393306 -0.076546 71 42 121
0.497986 -0.402988 -0.058409 72 30 112
0.149392 0.606060 -0.152477 56 87 140
0.628833 0.030976 0.296584 50 99 141
0.635639 -0.346629 0.234034 71 17 99
0.374764 0.531899 0.128312 40 174 127
0.464088 0.269171 -0.006082 72 29 111
-0.617599 -0.301187 0.128252 68 2 85
-0.001447 0.444364 -0.212347 53 92 140
-0.518860 0.332718 0.344887 71 44 123
0.656416 -0.287081 0.309765 59 81 138
-0.679371 -0.298363 0.491861 70 48 125
0.150559 -0.381029 -0.192158 68 55 129
0.642083 -0.273895 0.217206 72 32 113
0.510178 0.180640 0.013992 68 57 130
-0.182888 0.078968 -0.211277 70 9 92
-0.275749 0.538486 0.006447 50 99 141
-0.284539 -0.483355 -0.275462 68 1 84
0.123037 0.244422 -0.255467 68 1 84
0.663501 -0.389219 0.438099 67 58 131
0.504374 -0.328005 -0.022676 70 49 126
-0.525023 0.327309 0.324392 72 26 108
-0.252912 0.553375 -0.012225 59 81 138
-0.275524 0.443420 -0.064716 43 115 142
0.466667 0.408806 0.097089 49 100 141
0.379582 -0.293660 -0.157183 68 1 84
-0.630181 -0.043066 0.325538 68 1 84
0.646039 -0.121298 0.533108 36 133 141
-0.205135 0.133798 -0.207983 68 1 84
0.662029 -0.298957 0.400680 56 87 140
-0.574112 -0.346392 0.042702 69 5 88
-0.693736 -0.431031 0.504554 69 53 128
0.183953 0.463263 -0.171745 67 58 131
-0.255015 0.056217 -0.202878 68 1 84
-0.461736 -0.046051 -0.122184 68 1 84
-0.365293 0.295889 -0.072678 72 28 110
-0.593161 -0.448812 0.072108 68 1 84
0.588664 0.268888 0.310417 41 120 142
0.113542 0.468462 -0.203709 61 74 137
0.666283 -0.412397 0.465954 68 55 129
-0.244382 0.571887 0.003896 43 116 142
0.387733 0.422921 -0.003478 67 60 132
-0.583046 0.184717 0.326857 68 1 84
-0.140563 0.326275 -0.205955 68 1 84
-0.643236 -0.347351 0.217714 68 1 84
0.046397 -0.387380 -0.291741 68 1 84
0.603782 0.180424 0.226628 57 84 139
0.458819 -0.408010 -0.113514 69 8 91
0.506595 0.026767 -0.065493 68 1 84
-0.326785 0.537557 0.133364 46 109 142
0.352348 0.031356 -0.177341 72 26 108
0.266802 -0.077114 -0.199405 70 45 124
-0.372750 0.122984 -0.147828 68 1 84
-0.494498 -0.532863 -0.136195 68 1 84
-0.547348 0.125233 0.100042 68 1 84
0.557096 0.250599 0.133407 60 77 138
0.004429 0.042668 -0.445941 68 1 84
0.494413 -0.319904 -0.032578 69 54 129
-0.220561 0.450532 -0.106699 72 35 116
0.621840 -0.131205 0.108225 68 1 84
-0.381629 0.461592 0.086526 65 65 134
-0.374723 -0.215544 -0.147770 71 43 122
-0.674464 -0.181262 0.522929 70 48 125
-0.638839 -0.127113 0.240816 68 1 84
0.400581 0.476341 0.056121 56 86 139
-0.578863 0.199568 0.368106 71 15 98
0.087313 0.009248 -0.311885 68 1 84
-0.114455 -0.302828 -0.206129 70 49 126
-0.043491 0.260067 -0.251833 68 1 84
0.597425 -0.260696 0.072840 70 45 124
-0.027618 0.038608 -0.346309 68 1 84
0.383316 0.523045 0.114484 32 165 133
0.266306 -0.385756 -0.176224 65 66 134
0.255714 0.258509 -0.177594 68 1 84
-0.666717 -0.413219 0.287198 68 1 84
-0.674096 -0.273033 0.360615 72 29 111
0.652225 -0.210474 0.545805 32 164 133
-0.146873 -0.349502 -0.183892 58 82 139
-0.650292 -0.356243 0.240682 68 1 84
-0.210649 -0.396886 -0.206475 68 2 85
0.178211 0.417924 -0.183295 70 49 126
0.183742 -0.044403 -0.223443 68 1 84
0.545933 -0.408783 0.015347 67 58 131
0.231830 -0.200697 -0.175359 62 72 136
-0.218485 -0.002302 -0.211169 68 1 84
0.459681 0.440782 0.133015 39 126 142
-0.381618 -0.015665 -0.177816 68 1 84
0.172035 0.118969 -0.246619 68 1 84
-0.574177 0.162939 0.514214 40 122 142
0.195136 0.246462 -0.219302 68 1 84
-0.091040 -0.155394 -0.328838 68 1 84
-0.568496 -0.388273 0.026035 68 1 84
-0.385142 0.324758 -0.035846 71 22 105
-0.009491 -0.222092 -0.382122 68 1 84
-0.077794 0.110052 -0.280279 68 1 84
0.352792 0.086860 -0.165028 71 18 101
-0.475242 0.277816 0.050943 68 1 84
0.186792 0.595723 -0.132442 44 112 142
-0.185819 -0.311254 -0.164420 59 80 138
0.622084 0.132101 0.449961 33 166 133
-0.367852 0.502267 0.147038 42 119 142
0.362226 0.240016 -0.115624 68 1 84
0.663771 -0.487209 0.406567 71 15 98
-0.543145 0.254151 0.479613 48 104 141
0.626428 -0.179649 0.124215 69 6 90
-0.111416 0.232243 -0.257479 68 1 84
-0.397167 -0.144559 -0.152165 65 66 134
0.209237 0.316296 -0.194050 68 1 84
0.209945 -0.406351 -0.194617 56 87 140
-0.657218 -0.129819 0.354099 72 25 107
-0.696554 -0.553630 0.413759 68 2 85
0.071106 0.190570 -0.312503 68 1 84
0.172474 -0.105437 -0.234056 69 50 127
0.629339 -0.046398 0.570201 129 211 76
0.471370 -0.506337 -0.136421 68 1 84
0.616073 0.192233 0.368256 40 122 142
-0.438644 -0.391879 -0.179824 68 1 84
0.366568 0.121455 -0.147305 71 42 121
-0.671728 -0.186591 0.370808 68 1 84
0.104583 -0.055646 -0.420515 68 1 84
-0.387550 0.269228 -0.064584 68 3 87
0.439951 -0.285184 -0.092434 68 1 84
0.059182 0.002062 -0.461078 68 1 84
0.498913 -0.396245 -0.052549 72 32 113
0.621877 0.161770 0.357992 41 121 142
-0.027694 0.621482 -0.171772 72 29 111
0.620520 0.046571 0.520981 46 178 124
-0.207641 -0.394397 -0.203741 70 12 95
-0.059644 0.272130 -0.248803 68 1 84
-0.611673 -0.051924 0.185692 68 1 84
-0.348693 0.217576 -0.118331 68 1 84
-0.538654 -0.455175 -0.048913 68 1 84
0.616989 -0.251935 0.117149 69 53 128
0.535051 -0.126800 -0.051606 68 1 84
0.645442 -0.106158 0.385583 50 99 141
-0.313619 -0.009723 -0.200731 68 1 84
-0.422429 0.177894 -0.078285 68 1 84
-0.433504 0.159459 -0.077772 68 1 84
0.372229 -0.313932 -0.165857 68 1 84
0.108412 -0.395098 -0.233358 61 75 137
-0.475510 -0.310582 -0.064146 68 1 84
0.203430 0.461410 -0.160115 61 76 137
-0.657187 -0.111937 0.493598 70 48 125
-0.050606 -0.111644 -0.431541 68 1 84
-0.282237 0.103688 -0.189062 68 1 84
-0.459866 -0.383904 -0.139878 68 2 85
0.432797 0.448749 0.080061 55 88 140
0.179507 0.536260 -0.168705 48 103 141
-0.307654 0.278784 -0.122312 68 1 84
0.652386 -0.581980 0.355222 68 1 84
0.595703 -0.355136 0.103608 69 50 127
0.374625 -0.158467 -0.152712 68 1 84
0.653804 -0.177216 0.461748 39 126 142
-0.203412 -0.089861 -0.212309 68 1 84
0.247323 0.438020 -0.130306 65 66 134
-0.362659 0.503443 0.130081 42 117 142
0.497287 0.407298 0.286412 44 113 142
-0.013171 0.528135 -0.215381 66 62 133
0.409028 -0.302103 -0.133988 68 1 84
-0.552145 0.272301 0.262270 68 1 84
-0.318321 0.540924 0.111992 36 134 141
0.351360 0.118090 -0.157336 68 1 84
0.585773 0.201508 0.523653 253 231 36
-0.378329 0.476348 0.104765 61 74 137
0.581716 0.262017 0.222358 48 104 141
0.634867 -0.012484 0.389294 35 135 141
-0.485629 -0.500945 -0.155435 68 1 84
0.621841 0.019298 0.229857 44 114 142
-0.407292 0.464168 0.235210 49 101 141
0.390000 0.064411 -0.153379 70 14 97
-0.060958 -0.318020 -0.294969 68 1 84
-0.338840 0.187726 -0.136496 68 1 84
0.661574 -0.306117 0.371993 66 62 133
0.651520 -0.150396 0.392568 53 92 140
0.647965 -0.140607 0.319749 72 35 116
0.222578 0.625254 -0.003574 48 180 122
0.110206 0.258050 -0.253680 68 1 84
0.572977 -0.398215 0.063786 67 58 131
0.323612 -0.421453 -0.189827 72 26 108
-0.609067 0.051780 0.539526 45 111 142
-0.641981 -0.048147 0.417347 67 60 132
-0.358979 -0.146058 -0.166055 65 66 134
0.486646 0.384766 0.107852 43 116 142
-0.627045 -0.243634 0.148499 68 1 84
-0.023343 0.511976 -0.216014 67 59 131
0.661342 -0.241959 0.424104 42 119 142
-0.647719 -0.201726 0.228853 70 14 97
-0.134728 -0.005547 -0.334615 68 1 84
0.036912 -0.264070 -0.347862 68 1 84
0.142651 0.551525 -0.188347 61 75 137
-0.070600 0.230663 -0.274141 68 1 84
-0.460526 0.244175 0.007983 68 1 84
-0.409319 -0.469243 -0.218585 68 1 84
0.313979 -0.330331 -0.177170 70 9 92
0.638334 -0.071399 0.434370 35 136 141
-0.466127 0.369109 0.127370 68 1 84
0.241058 -0.135742 -0.195100 67 59 131
-0.694835 -0.554667 0.398293 68 1 84
-0.357890 0.280651 -0.086182 70 12 95
0.355823 0.548560 0.119731 30 153 138
-0.303902 0.039035 -0.199353 68 2 85
-0.392734 0.254810 -0.066676 68 1 84
-0.135018 0.221958 -0.251027 68 1 84
0.143117 0.007595 -0.331214 68 1 84
0.308833 -0.144749 -0.174353 69 6 90
0.648217 -0.126487 0.383026 48 103 141
-0.016643 0.110337 -0.312845 68 1 84
-0.199713 0.357046 -0.151255 68 1 84
0.344209 -0.373005 -0.157923 70 48 125
-0.588058 -0.482552 0.054510 68 1 84
0.169735 0.188506 -0.263252 68 1 84
0.362712 -0.138385 -0.161899 68 1 84
-0.669827 -0.155960 0.508850 60 77 138
0.629702 -0.053000 0.233414 61 76 137
-0.504313 -0.113358 -0.084388 71 38 118
-0.683938 -0.356127 0.479192 68 57 130
0.625819 -0.024839 0.554658 85 198 102
-0.349654 0.518664 0.225307 36 134 141
0.277790 0.021714 -0.197425 72 32 113
0.661557 -0.336451 0.392049 71 42 121
0.383723 0.032626 -0.164216 68 1 84
0.656202 -0.252349 0.486359 44 114 142
0.593378 -0.424558 0.114997 68 1 84
-0.680765 -0.440681 0.362610 68 1 84
0.590135 -0.487582 0.119675 68 1 84
0.012585 -0.033722 -0.490222 68 1 84
-0.687314 -0.401307 0.454335 72 34 115
-0.545058 0.240477 0.500656 40 122 142
-0.374136 0.216811 -0.100649 68 1 84
-0.675318 -0.209594 0.373548 72 29 111
0.340106 0.029427 -0.182049 71 21 103
-0.394919 0.380158 0.017661 68 1 84
0.066305 -0.178542 -0.361566 68 1 84
0.619606 0.029337 0.532895 57 185 118
0.085627 0.000647 -0.422103 68 1 84
-0.340867 0.250448 -0.111007 68 1 84
-0.578527 0.199726 0.375253 72 25 107
0.322793 -0.138709 -0.173444 68 1 84
0.088635 0.557563 -0.206397 63 69 135
-0.378454 0.490982 0.231404 42 117 142
0.351346 0.278349 -0.109917 68 1 84
-0.266791 0.575656 0.071801 31 146 140
0.059153 -0.502236 -0.311525 68 1 84
-0.411177 -0.515924 -0.218884 68 1 84
-0.575837 0.132650 0.204137 69 53 128
0.613065 -0.320321 0.137216 71 39 119
-0.440205 -0.471929 -0.196413 68 1 84
-0.592720 -0.086897 0.073014 68 1 84
-0.021011 -0.239771 -0.370300 68 1 84
-0.534901 -0.146070 -0.045404 71 42 121
0.162475 -0.168566 -0.228478 56 86 139
-0.494511 0.371371 0.282240 68 1 84
0.053615 0.118207 -0.311620 68 1 84
0.188195 -0.338921 -0.161038 65 65 134
-0.479706 0.386148 0.226328 71 20 102
-0.045472 0.297472 -0.274919 68 1 84
0.097725 -0.405498 -0.251750 65 65 134
0.191062 -0.338448 -0.161599 66 61 132
0.132811 -0.248201 -0.217695 69 53 128
0.272854 0.316097 -0.144618 72 26 108
-0.542782 0.284125 0.394275 66 61 132
-0.149243 0.567357 -0.141422 35 137 141
0.278081 -0.074304 -0.198089 70 47 124
-0.571826 -0.415647 0.028096 69 5 88
0.467671 -0.342920 -0.061717 71 24 106
0.026357 0.214399 -0.314975 68 1 84
0.640337 -0.237168 0.196406 71 40 120
-0.191140 -0.056101 -0.218187 68 1 84
-0.188572 -0.459297 -0.278369 68 1 84
-0.121720 -0.022904 -0.366146 68 1 84
-0.185715 0.308251 -0.169754 71 40 120
0.646746 -0.126051 0.492139 45 111 142
-0.362826 0.235422 -0.101197 68 1 84
-0.437756 0.284654 0.003243 68 3 87
-0.520552 -0.140170 -0.063473 71 39 119
-0.673321 -0.539325 0.298541 68 1 84
0.192520 -0.346558 -0.160569 65 66 134
-0.092438 0.551551 -0.188939 46 107 142
0.414847 0.494690 0.155402 31 149 139
-0.550406 0.259562 0.428981 65 66 134
0.536435 0.097055 0.015235 70 12 95
-0.312556 0.283929 -0.117033 68 1 84
-0.476122 0.275780 0.050953 68 1 84
0.120072 0.537851 -0.201942 50 99 141
0.452183 0.459364 0.252038 31 146 140
0.512425 0.119821 -0.013875 68 1 84
-0.362436 -0.000715 -0.186325 68 1 84
-0.556083 0.260532 0.363613 71 37 117
0.071837 0.342436 -0.284792 68 1 84
-0.571805 -0.511218 0.014795 68 1 84
0.520575 -0.326249 -0.008732 71 17 99
0.614052 0.136712 0.490884 41 175 127
0.518342 0.179856 0.026267 72 33 114
0.647354 -0.117119 0.366109 58 82 139
0.330870 0.390080 -0.074519 71 15 98
-0.123321 -0.165996 -0.261175 54 90 140
-0.682296 -0.403595 0.401986 70 11 94
0.059102 -0.508601 -0.311564 68 1 84
-0.362503 -0.379565 -0.191190 68 1 84
-0.149872 0.505711 -0.154706 70 49 126
-0.045468 -0.198783 -0.380894 68 1 84
0.540598 0.352248 0.316860 45 110 142
0.445238 -0.542346 -0.161485 68 1 84
0.547989 -0.129897 -0.035620 68 1 84
-0.047069 0.012819 -0.339874 68 1 84
-0.066555 0.026277 -0.299301 68 1 84
0.629919 -0.050048 0.239599 58 82 139
-0.181408 0.530116 -0.123586 31 146 140
0.514381 -0.505907 -0.057462 68 1 84
0.507480 -0.130400 -0.080689 68 1 84
-0.648818 -0.190443 0.237578 70 12 95
-0.612240 0.054824 0.518481 51 97 141
-0.125246 0.018181 -0.335733 68 1 84
0.252970 0.472853 -0.118603 54 91 140
0.037376 0.127958 -0.310274 68 1 84
-0.387055 0.029745 -0.170496 68 1 84
0.613734 0.200556 0.348085 38 128 142
-0.238971 0.575188 -0.000956 47 106 141
-0.462271 -0.139658 -0.116017 71 42 121
0.595101 0.254780 0.318631 41 121 142
-0.443360 0.111230 -0.094328 68 1 84
-0.399035 -0.119804 -0.157422 72 29 111
0.525024 0.358736 0.171244 57 84 139
-0.263686 0.489637 -0.053795 47 105 141
0.352235 0.018059 -0.179331 69 8 91
-0.593349 0.111383 0.511141 57 85 139
-0.346575 0.522913 0.185260 30 151 138
-0.285133 0.282373 -0.135223 68 1 84
-0.034668 0.307996 -0.283908 68 1 84
-0.563169 -0.171672 -0.000176 68 1 84
-0.229753 -0.478060 -0.281512 68 1 84
0.636041 -0.026881 0.428455 44 112 142
-0.177910 -0.248453 -0.186789 48 104 141
-0.083695 -0.060288 -0.437318 68 1 84
-0.540403 0.002509 -0.004404 68 1 84
-0.323876 -0.499698 -0.266666 68 1 84
-0.515557 -0.379350 -0.061042 68 1 84
0.546831 -0.361629 0.020013 70 45 124
-0.161088 0.107451 -0.223165 68 1 84
0.648057 -0.214273 0.230626 69 54 129
0.419037 -0.427162 -0.185084 68 1 84
-0.573726 0.131569 0.195964 71 38 118
-0.583696 0.162544 0.462075 64 68 135
-0.326095 -0.181999 -0.168128 56 87 140
0.039147 -0.273361 -0.341135 68 1 84
-0.314072 0.497355 0.017256 49 101 141
0.469420 0.337511 0.040852 47 105 141
0.356598 0.440226 -0.027854 69 54 129
0.178869 -0.253767 -0.180470 70 48 125
0.563667 -0.209072 -0.002310 68 1 84
0.065496 0.657352 -0.102971 33 141 140
-0.382605 0.436451 0.055187 70 14 97
-0.128711 0.216520 -0.256683 68 1 84
-0.199222 -0.345495 -0.162872 60 77 138
0.603447 -0.268145 0.088908 68 1 84
0.213411 -0.312396 -0.178876 71 44 123
0.511946 -0.525662 -0.059190 68 1 84
-0.670444 -0.236185 0.314163 68 3 87
0.378079 0.530302 0.167026 33 166 133
-0.655543 -0.100378 0.560081 58 82 139
-0.701622 -0.514901 0.479549 69 54 129
0.040676 -0.168953 -0.396269 68 1 84
-0.597601 -0.024416 0.148711 69 8 91
-0.274594 0.238426 -0.157826 68 1 84
0.626926 0.059471 0.459997 33 167 132
-0.581498 0.096351 0.202790 70 11 94
-0.170263 0.283422 -0.183122 68 1 84
-0.135273 0.033205 -0.258834 68 1 84
-0.521005 0.028067 -0.026155 68 1 84
0.083879 0.589330 -0.193681 70 48 125
0.600018 -0.139662 0.050647 68 1 84
-0.020911 -0.187352 -0.400144 68 1 84
-0.663947 -0.276330 0.273592 69 6 90
-0.423192 0.450778 0.205139 49 100 141
0.192220 0.503841 -0.164066 49 100 141
0.254044 0.587388 -0.051496 31 148 139
0.090590 -0.383698 -0.244458 53 93 140
-0.206626 0.428872 -0.124328 72 25 107
-0.641270 -0.064887 0.364566 67 59 131
-0.062555 -0.117179 -0.417522 68 1 84
0.654089 -0.591990 0.364325 68 1 84
-0.619467 0.035160 0.466488 72 28 110
0.086765 0.092741 -0.297348 68 1 84
0.620965 -0.131836 0.105133 68 1 84
-0.104615 -0.248085 -0.246576 61 75 137
-0.345395 -0.455512 -0.254547 68 1 84
-0.667831 -0.156374 0.473282 71 39 119
-0.170583 -0.464682 -0.289807 68 1 84
-0.043240 0.063154 -0.310283 68 1 84
0.396258 0.359889 -0.031263 71 39 119
-0.557091 0.230240 0.217854 70 12 95
-0.455314 0.413377 0.267589 72 28 110
0.590326 -0.184182 0.034934 68 1 84
0.131393 -0.107993 -0.284769 68 1 84
-0.573135 -0.416926 0.030665 70 11 94
0.435153 -0.480509 -0.177784 68 1 84
0.057403 0.396719 -0.228523 68 1 84
0.548380 -0.464676 0.015518 68 1 84
0.631239 -0.570629 0.270715 68 1 84
-0.670467 -0.175089 0.554639 55 88 140
0.495377 0.284008 0.042113 69 6 90
-0.552523 0.146061 0.130738 68 1 84
0.279088 -0.422882 -0.199747 71 20 102
0.461950 0.443227 0.152685 39 124 142
-0.210676 0.592917 -0.025425 62 72 136
-0.589694 -0.047932 0.085986 70 12 95
0.161990 0.054629 -0.230529 68 1 84
0.620355 0.156503 0.452888 32 143 140
-0.121166 -0.162527 -0.265881 62 72 136
0.108419 -0.073215 -0.394253 68 1 84
0.473496 0.271164 0.006472 71 38 118
-0.271805 0.578254 0.122344 33 167 132
-0.440202 0.221592 -0.031991 68 1 84
-0.251683 0.142927 -0.190733 68 1 84
0.652551 -0.202470 0.528934 38 128 142
-0.049841 0.224764 -0.289491 68 1 84
0.170949 0.626415 -0.105621 35 135 141
-0.560287 0.174947 0.544456 34 138 141
0.612414 -0.565476 0.196850 71 42 121
-0.552627 -0.440580 -0.016825 68 1 84
-0.304564 0.017734 -0.201725 68 2 85
0.103682 -0.158968 -0.308807 68 1 84
-0.497069 -0.380969 -0.091033 71 18 101
0.452085 -0.051568 -0.132560 68 1 84
0.562246 0.215219 0.124637 61 74 137
0.384017 0.035756 -0.163475 68 1 84
0.635127 0.001420 0.445205 45 111 142
-0.332459 0.476888 0.023637 63 71 136
0.529393 0.017759 -0.035198 68 1 84
0.225178 0.286120 -0.178753 68 1 84
-0.143861 0.205289 -0.248623 68 1 84
-0.676167 -0.351009 0.386663 71 37 117
0.663753 -0.253216 0.372873 70 49 126
-0.170014 -0.189919 -0.208035 65 65 134
0.595995 -0.311104 0.088468 69 54 129
0.237939 0.620342 0.028758 50 181 122
0.619128 0.135078 0.470157 30 159 136
-0.304418 0.215811 -0.146260 68 1 84
-0.137147 -0.438153 -0.274351 68 1 84
-0.661796 -0.139640 0.378279 70 11 94
-0.502993 0.018212 -0.063043 68 1 84
0.581120 0.123508 0.122686 72 33 114
0.100848 -0.440442 -0.277190 68 1 84
-0.357514 -0.327176 -0.163461 72 30 112
-0.234502 -0.294575 -0.181976 55 88 140
0.204513 0.500701 -0.155310 55 89 140
-0.465454 -0.261607 -0.073442 71 44 123
0.564177 -0.011421 0.012686 68 1 84
-0.291672 -0.148931 -0.181683 72 32 113
0.124580 0.607798 -0.166266 58 83 139
-0.561766 0.248179 0.273966 68 2 85
0.314250 0.466979 -0.061844 57 84 139
0.025190 0.478802 -0.216656 48 103 141
0.497487 0.026603 -0.077427 68 1 84
-0.241224 0.508549 -0.068872 40 123 142
-0.496408 -0.527607 -0.133754 68 1 84
0.041567 0.504482 -0.217902 57 84 139
-0.599516 -0.353159 0.089522 68 1 84
-0.076366 0.131780 -0.285407 68 1 84
-0.616592 -0.274315 0.123277 68 1 84
-0.642611 -0.093655 0.317128 68 1 84
-0.568677 -0.401130 0.023901 70 14 97
0.661268 -0.209936 0.347951 61 74 137
-0.065989 0.240943 -0.257363 68 1 84
0.378846 0.490820 0.037795 44 114 142
0.636273 -0.131666 0.184377 69 5 88
-0.532730 -0.463104 -0.061325 68 1 84
0.216269 0.072810 -0.212918 68 1 84
0.071880 -0.471162 -0.302339 68 1 84
0.366389 0.263371 -0.105000 68 1 84
-0.584376 -0.057185 0.063442 68 1 84
-0.585493 -0.370883 0.060795 68 1 84
-0.568001 -0.230887 0.021906 68 1 84
0.436344 -0.012941 -0.141531 68 1 84
0.359309 0.546126 0.161169 32 165 133
0.104591 -0.426780 -0.264406 72 25 107
-0.596429 0.032681 0.212885 68 3 87
0.214585 -0.016859 -0.209140 68 1 84
-0.507813 -0.462397 -0.115383 68 1 84
0.514269 0.299733 0.081486 65 66 134
-0.545102 0.163337 0.120678 68 1 84
0.590732 -0.376605 0.097752 69 52 127
0.484241 0.341465 0.064957 59 81 138
-0.673160 -0.410299 0.328775 68 1 84
-0.628955 -0.105334 0.209949 68 1 84
0.050689 0.337064 -0.291267 68 1 84
-0.500499 -0.080270 -0.089762 72 29 111
0.336962 0.351150 -0.087326 70 14 97
0.611783 0.139098 0.233251 68 57 130
0.450628 -0.524664 -0.158280 68 1 84
-0.170816 0.567440 -0.119553 71 42 121
-0.557846 0.238540 0.441054 69 54 129
-0.260526 0.443627 -0.077674 59 81 138
0.629550 0.063229 0.349536 33 140 141
-0.102636 0.013336 -0.350321 68 1 84
-0.532242 0.313845 0.260228 71 18 101
-0.038759 0.638326 -0.149288 64 68 135
0.439002 -0.057187 -0.141166 68 1 84
-0.637360 -0.523532 0.170936 68 1 84
0.617437 -0.011564 0.176822 71 42 121
0.591283 -0.407201 0.105896 68 3 87
0.200669 0.437111 -0.164863 69 53 128
0.272329 0.600253 0.031076 30 156 137
0.579076 0.286538 0.350537 41 120 142
0.597790 0.236184 0.260332 40 122 142
-0.318353 0.116997 -0.174597 68 1 84
0.297631 0.309743 -0.132316 68 1 84
0.572567 -0.092090 0.005247 68 1 84
0.566303 0.313996 0.295392 39 124 142
0.148530 0.484746 -0.190270 49 102 141
0.601465 -0.533546 0.158122 68 1 84
0.356832 -0.022482 -0.181342 68 1 84
-0.064882 0.547126 -0.202502 57 84 139
-0.660112 -0.476145 0.248038 68 1 84
-0.533432 0.268959 0.488162 42 119 142
-0.119620 -0.392926 -0.237876 68 1 84
-0.199741 0.442214 -0.125976 71 43 122
-0.576047 0.118271 0.196047 71 18 101
-0.618430 0.040913 0.472037 71 24 106
0.140640 0.409645 -0.203388 71 21 103
-0.612485 -0.092630 0.141490 68 1 84
0.096636 -0.498947 -0.306053 68 1 84
0.648751 -0.279450 0.250545 63 69 135
-0.659329 -0.369346 0.268858 68 1 84
-0.381474 0.067878 -0.164309 68 1 84
-0.157232 0.013704 -0.221052 68 1 84
0.070091 -0.355505 -0.266377 55 89 140
-0.149014 -0.012541 -0.242824 68 1 84
0.493637 0.386584 0.126677 42 117 142
0.610300 -0.407058 0.163864 71 18 101
0.384487 0.522957 0.154973 30 158 136
-0.368070 0.226259 -0.101225 68 1 84
-0.211657 0.359380 -0.143035 69 6 90
-0.242849 0.444873 -0.092011 65 66 134
-0.461606 0.255964 0.016829 68 1 84
-0.610725 -0.282644 0.109689 68 1 84
0.424078 -0.476829 -0.190170 68 1 84
0.545233 0.218650 0.091036 62 72 136
0.632715 -0.424222 0.271536 69 8 91
0.041663 -0.227535 -0.363606 68 1 84
-0.623198 -0.396099 0.156415 68 1 84
0.221616 0.144856 -0.223873 68 1 84
0.544976 0.262363 0.114967 59 81 138
0.073848 0.341103 -0.284869 68 1 84
0.059482 -0.119411 -0.420767 68 1 84
-0.017305 -0.070613 -0.475504 68 1 84
-0.145691 0.006642 -0.242238 68 1 84
-0.678575 -0.201865 0.430843 71 40 120
-0.524403 0.307316 0.204258 68 1 84
0.534409 -0.430335 -0.009786 67 59 131
-0.187546 0.277725 -0.181990 68 1 84
0.510852 0.332350 0.101529 60 77 138
0.614672 -0.080317 0.104019 69 8 91
-0.599127 -0.213809 0.076281 70 14 97
-0.108711 -0.247863 -0.240486 59 81 138
0.142062 0.235365 -0.261395 68 1 84
0.146999 0.063632 -0.242491 68 1 84
-0.297115 -0.141416 -0.181947 71 15 98
-0.365581 -0.127489 -0.169257 71 21 103
0.559151 0.326628 0.282073 35 136 141
-0.669925 -0.515722 0.288026 68 1 84
0.196311 0.147857 -0.239013 68 1 84
-0.512327 0.308699 0.162742 68 1 84
-0.589924 0.140455 0.461251 56 87 140
-0.606802 0.054531 0.548428 45 110 142
0.499083 0.179607 -0.002985 68 1 84
0.519760 0.160198 0.018997 68 2 85
-0.531716 0.316642 0.316381 70 9 92
0.130114 0.646723 -0.099725 40 174 127
-0.675002 -0.191182 0.515368 72 35 116
-0.121554 0.645336 -0.049055 65 65 134
-0.547516 0.144082 0.113212 68 1 84
-0.690328 -0.544615 0.371764 68 1 84
0.582170 -0.219350 0.029421 68 1 84
-0.620580 -0.493343 0.136258 68 1 84
0.039018 -0.012787 -0.482262 68 1 84
-0.434517 -0.341981 -0.109361 71 15 98
0.522802 0.350887 0.427535 30 155 137
-0.442130 -0.175497 -0.118291 68 55 129
0.334246 0.549034 0.042516 35 136 141
-0.637317 -0.144786 0.213057 68 1 84
-0.675257 -0.411341 0.342764 68 1 84
0.220571 0.406354 -0.158442 71 43 122
0.628969 -0.463755 0.274016 68 1 84
0.087682 0.490960 -0.212416 64 68 135
-0.485904 -0.371095 -0.097262 70 11 94
0.428261 0.055612 -0.133533 68 1 84
0.578148 -0.274153 0.040946 68 1 84
0.597159 0.170615 0.192094 56 87 140
-0.127130 0.228188 -0.253982 68 1 84
0.571573 -0.168219 0.000373 68 1 84
0.409063 0.036880 -0.150554 68 1 84
0.651753 -0.421434 0.339691 68 3 87
-0.190125 -0.486654 -0.296936 68 1 84
-0.612156 0.043154 0.336466 71 15 98
0.191552 -0.272536 -0.178027 69 52 127
0.436295 0.041174 -0.131717 68 1 84
0.306080 0.233521 -0.161079 68 1 84
-0.499748 -0.445759 -0.124698 68 1 84
-0.488296 -0.199035 -0.076250 70 48 125
0.568578 -0.417589 0.057033 71 39 119
-0.548344 0.219468 0.176576 68 1 84
-0.329076 0.018436 -0.196025 68 1 84
0.409018 0.351764 -0.022995 72 29 111
0.413055 -0.272274 -0.115460 71 18 101
0.442121 0.337893 0.006052 66 61 132
-0.234607 0.593849 0.042264 42 119 142
-0.359969 0.199443 -0.118233 68 1 84
0.571364 0.269757 0.191844 58 83 139
-0.647499 -0.367605 0.233068 68 1 84
-0.475444 0.361241 0.139236 68 1 84
-0.321115 -0.321786 -0.181407 69 54 129
0.639697 -0.069547 0.358939 52 95 141
0.071653 -0.503612 -0.310084 68 1 84
0.642575 -0.085864 0.374389 47 106 141
0.648830 -0.403827 0.317415 72 35 116
-0.633044 -0.329121 0.178889 68 1 84
-0.270912 -0.465662 -0.269394 68 1 84
-0.187897 0.617294 0.001528 35 135 141
-0.015614 -0.151559 -0.423030 68 1 84
-0.592843 0.131055 0.306093 71 20 102
-0.280226 -0.357178 -0.175777 59 80 138
-0.208987 0.125641 -0.206015 68 1 84
0.648986 -0.285676 0.255819 53 93 140
0.520044 0.357813 0.413874 31 162 134
-0.131261 0.312454 -0.213313 68 1 84
-0.260204 0.585625 0.125989 30 155 137
0.516860 -0.461262 -0.051631 68 1 84
0.636387 -0.064492 0.494154 40 123 142
0.184560 0.609174 -0.119624 39 126 142
-0.508774 0.097355 -0.004486 68 1 84
0.232777 0.261104 -0.181189 68 1 84
-0.463320 -0.276877 -0.072886 72 34 115
-0.387064 0.484299 0.154031 52 94 141
-0.504125 -0.116050 -0.084342 71 40 120
-0.312701 0.493026 0.010592 59 81 138
-0.282520 0.568247 0.098953 40 122 142
-0.443458 -0.247351 -0.098124 69 50 127
0.540145 -0.404391 0.006400 69 52 127
-0.309519 -0.386307 -0.191987 72 29 111
-0.355362 -0.265716 -0.168436 68 1 84
-0.572521 0.042394 0.114321 68 1 84
-0.567476 -0.133855 0.001544 70 9 92
-0.340072 -0.368192 -0.174984 72 25 107
-0.257179 0.547639 -0.013056 58 82 139
-0.653562 -0.088572 0.548237 70 49 126
0.047825 -0.092808 -0.453934 68 1 84
0.576035 -0.574203 0.088613 68 1 84
-0.313178 0.550171 0.181098 33 167 132
0.496591 -0.000084 -0.085825 68 1 84
0.091778 0.402337 -0.221119 68 1 84
0.359577 0.545812 0.163467 30 160 135
0.109571 0.308537 -0.274447 68 1 84
0.105802 -0.102023 -0.352612 68 1 84
0.633978 -0.000923 0.382354 45 110 142
0.277275 -0.297773 -0.191635 72 29 111
-0.099211 -0.405419 -0.267789 68 1 84
-0.540588 -0.446331 -0.044040 68 1 84
-0.368051 0.374776 -0.020152 52 94 141
0.004736 0.168462 -0.306004 68 1 84
-0.616681 0.028299 0.579166 46 109 142
-0.226492 0.435382 -0.107172 62 73 137
0.573077 -0.496298 0.074655 68 1 84
0.626133 -0.024406 0.545745 100 203 93
0.201744 -0.392746 -0.182722 68 57 130
-0.455452 0.402075 0.329530 71 38 118
-0.133049 -0.038849 -0.314649 68 1 84
0.589628 0.247579 0.236182 52 94 141
0.129699 0.359165 -0.245620 68 1 84
0.147594 0.641353 -0.096368 42 176 126
0.143747 0.278862 -0.242472 68 1 84
0.607332 -0.082639 0.077182 71 15 98
-0.238285 -0.331786 -0.172285 61 75 137
-0.567209 0.177762 0.204597 64 68 135
-0.185030 -0.141241 -0.211855 67 59 131
0.457316 0.452103 0.171795 38 127 142
0.648138 -0.127742 0.393934 44 112 142
-0.106260 -0.095393 -0.339468 68 1 84
0.500005 -0.535888 -0.084159 68 1 84
-0.407499 0.416601 0.072644 71 15 98
-0.482457 -0.059426 -0.105808 68 1 84
-0.604807 -0.280789 0.095772 68 1 84
-0.627453 0.002589 0.468898 71 15 98
0.474786 -0.136533 -0.107224 68 1 84
-0.639616 -0.100318 0.288231 71 20 102
0.191188 0.151507 -0.242843 68 1 84
0.058528 0.036816 -0.325770 68 1 84
-0.332334 0.281998 -0.104598 71 17 99
-0.647825 -0.449529 0.221221 68 1 84
0.475735 -0.529604 -0.131608 68 1 84
-0.611885 -0.537021 0.100136 68 1 84
0.569401 0.246957 0.508307 149 215 63
-0.561529 0.228705 0.444529 70 45 124
0.635879 -0.019204 0.431417 44 113 142
0.573826 0.241557 0.168831 70 47 124
-0.456525 -0.233595 -0.089182 70 47 124
-0.570045 -0.471892 0.015440 68 1 84
0.473339 -0.282462 -0.061886 71 37 117
0.008474 0.231142 -0.301893 68 1 84
-0.108232 -0.043869 -0.397254 68 1 84
-0.107563 -0.503601 -0.314379 68 1 84
-0.395146 -0.252138 -0.138937 67 59 131
0.069813 0.412841 -0.217413 71 24 106
0.665339 -0.439362 0.433261 70 47 124
-0.183976 0.278841 -0.181684 68 1 84
0.359463 0.535453 0.070970 39 125 142
-0.584682 0.124221 0.235096 69 6 90
-0.519949 0.335633 0.265166 71 17 99
0.649662 -0.504935 0.338393 68 1 84
0.623728 -0.049098 0.188120 71 43 122
-0.562711 0.068501 0.102592 68 1 84
-0.670811 -0.360109 0.316690 68 1 84
0.422484 -0.456288 -0.196223 68 1 84
0.132766 -0.238326 -0.225616 72 33 114
-0.489098 -0.249809 -0.054980 71 44 123
-0.591343 0.154047 0.365220 71 15 98
0.416151 -0.266685 -0.112323 69 5 88
-0.351188 0.399122 -0.019327 71 15 98
-0.049903 0.561378 -0.204093 71 38 118
-0.253710 0.491358 -0.063693 52 94 141
-0.291068 0.223968 -0.151515 68 1 84
-0.299440 0.559615 0.186273 31 162 134
0.119766 -0.399273 -0.228445 60 78 138
0.131526 0.250850 -0.247315 68 1 84
0.454812 -0.076942 -0.129398 68 1 84
0.040719 0.213439 -0.313022 68 1 84
-0.111013 0.550662 -0.178277 50 99 141
-0.102408 -0.171406 -0.291844 69 6 90
0.342090 0.215816 -0.137466 71 18 101
-0.697824 -0.464369 0.481365 72 28 110
0.399853 0.348751 -0.034175 71 44 123
0.443494 0.015812 -0.131955 68 1 84
-0.678655 -0.361021 0.407194 71 22 105
-0.502998 0.340681 0.387436 65 66 134
-0.062814 -0.276723 -0.313314 68 1 84
-0.335209 0.040334 -0.191148 68 1 84
-0.657329 -0.105832 0.535719 61 76 137
-0.198364 0.214331 -0.210654 68 1 84
0.240549 -0.258573 -0.176110 71 22 105
0.066117 -0.197616 -0.351264 68 1 84
0.325678 -0.365429 -0.161428 72 33 114
-0.404397 -0.298494 -0.129646 71 43 122
-0.274203 0.353558 -0.109308 69 6 90
-0.137256 0.483149 -0.164961 72 35 116
-0.637324 -0.228579 0.183213 68 1 84
0.665922 -0.599950 0.439307 58 83 139
-0.382285 0.359633 -0.015478 72 32 113
-0.232791 -0.022447 -0.210384 68 1 84
0.613423 -0.089681 0.093194 68 1 84
-0.675162 -0.449131 0.325378 68 1 84
-0.391007 -0.194258 -0.141590 70 45 124
-0.037994 0.342842 -0.281436 68 1 84
0.235617 0.360419 -0.160246 69 6 90
0.274019 -0.218459 -0.164713 72 34 115
-0.593822 0.095178 0.261382 68 57 130
0.108549 -0.026650 -0.416426 68 1 84
0.538516 0.328206 0.418564 32 145 140
0.215127 0.321890 -0.187330 68 1 84
-0.608452 -0.402988 0.113303 68 1 84
-0.517022 -0.410610 -0.079848 68 1 84
0.411360 0.371204 -0.008304 72 25 107
-0.240477 0.209533 -0.186844 68 1 84
0.072605 -0.300230 -0.281438 68 1 84
0.310119 0.578751 0.073686 53 183 120
-0.287966 0.204428 -0.159581 68 1 84
0.149990 -0.189457 -0.233497 71 42 121
0.534642 0.337900 0.402249 31 146 140
0.553342 -0.335080 0.026396 72 35 116
-0.624373 -0.058482 0.251511 68 1 84
0.148817 0.607548 -0.151487 54 91 140
0.555413 -0.499638 0.032759 68 1 84
0.400407 0.473581 0.052834 58 83 139
0.309385 0.140240 -0.176610 68 1 84
0.204632 -0.091963 -0.216004 71 40 120
-0.548305 0.254722 0.453890 52 95 141
-0.453665 0.236418 -0.005810 68 1 84
-0.088855 -0.044371 -0.437102 68 1 84
0.648097 -0.143799 0.558831 32 165 133
0.483669 -0.573827 -0.105692 68 1 84
0.645698 -0.137614 0.289994 61 76 137
-0.605045 0.087412 0.477186 71 39 119
0.130036 -0.188614 -0.257522 68 1 84
0.652953 -0.195359 0.293367 70 9 92
-0.478985 -0.310004 -0.060348 68 1 84
0.536377 0.354847 0.214001 47 105 141
0.169468 0.326571 -0.231452 68 1 84
0.576652 0.271527 0.421224 30 158 136
-0.612052 -0.283878 0.112975 70 12 95
0.661675 -0.230785 0.431170 40 122 142
0.438604 -0.239501 -0.099696 68 1 84
0.539165 0.357624 0.262545 40 122 142
0.398745 -0.520131 -0.207635 68 1 84
0.539683 0.325762 0.426826 30 158 136
-0.550412 0.118297 0.104390 68 1 84
0.602119 0.178878 0.216985 69 54 129
-0.511634 -0.141479 -0.073018 72 33 114
0.658946 -0.318491 0.514138 33 141 140
-0.564297 0.205692 0.486350 59 80 138
-0.669418 -0.347338 0.309888 68 1 84
0.654063 -0.263686 0.544459 38 172 129
-0.371960 -0.352368 -0.151933 71 17 99
0.601429 0.201402 0.474666 56 185 118
-0.673679 -0.330107 0.362330 72 35 116
0.319189 0.575768 0.108981 33 166 133
0.615466 0.193732 0.355026 44 113 142
-0.540127 -0.493654 -0.046186 68 1 84
0.534507 -0.468838 -0.015460 68 1 84
-0.412384 0.236913 -0.055400 68 1 84
0.424497 -0.168533 -0.130041 68 1 84
0.141259 0.094004 -0.258747 68 1 84
0.427798 0.276338 -0.045778 68 1 84
-0.573910 -0.253816 0.035339 68 1 84
-0.690103 -0.423633 0.449827 68 1 84
0.273179 -0.026477 -0.201749 69 5 88
0.617610 0.148912 0.278344 39 124 142
-0.370463 0.499772 0.215907 37 131 141
-0.533195 0.307938 0.355612 57 84 139
-0.084193 -0.346609 -0.250948 68 1 84
0.623918 0.125398 0.311043 50 99 141
-0.605857 -0.173536 0.091875 69 6 90
-0.485015 0.374410 0.205216 68 1 84
0.398194 0.123524 -0.127249 68 1 84
-0.107526 0.634683 -0.108849 70 49 126
0.144126 -0.104666 -0.265678 69 8 91
-0.060296 0.007739 -0.340050 68 1 84
0.142553 -0.452379 -0.267332 68 1 84
0.581351 -0.565498 0.100874 68 1 84
0.648899 -0.141023 0.439849 40 122 142
-0.441026 -0.164398 -0.122742 71 43 122
0.608521 0.133910 0.213144 65 66 134
0.318769 0.260311 -0.142641 68 1 84
-0.192495 0.191147 -0.216894 68 1 84
-0.212666 0.286895 -0.168372 68 1 84
-0.623439 -0.001962 0.369640 68 2 85
0.548540 -0.396230 0.021686 66 62 133
0.561315 0.283957 0.450871 43 177 125
0.639849 -0.468922 0.301406 68 1 84
0.141761 -0.088332 -0.278801 68 1 84
0.310324 -0.010501 -0.194642 70 14 97
-0.463183 -0.143817 -0.114268 70 47 124
-0.316988 -0.470719 -0.262329 68 1 84
0.316770 0.534523 -0.014145 41 120 142
-0.602059 -0.429634 0.097353 68 1 84
0.601587 0.176799 0.213075 60 78 138
0.111230 0.160091 -0.295296 68 1 84
-0.127347 -0.349278 -0.198978 69 52 127
0.438537 0.114337 -0.102146 68 1 84
-0.089263 -0.139275 -0.349776 68 1 84
0.455316 0.204956 -0.045690 68 1 84
0.610148 -0.051224 0.103788 72 32 113
0.667052 -0.419577 0.475910 59 80 138
-0.598520 0.033969 0.224884 72 26 108
-0.575090 -0.177760 0.021542 68 3 87
-0.260218 -0.008317 -0.208258 68 1 84
-0.503029 0.129710 0.006511 68 1 84
-0.341771 0.139369 -0.155689 68 1 84
-0.432751 0.416168 0.121304 65 66 134
0.626937 -0.030202 0.555573 105 204 91
-0.683768 -0.489647 0.352955 68 1 84
-0.269552 0.105471 -0.191201 68 1 84
0.386444 -0.428884 -0.224740 68 1 84
0.482207 -0.494741 -0.120527 68 1 84
0.231356 -0.158846 -0.191175 67 58 131
0.533949 -0.043581 -0.046599 68 1 84
0.651525 -0.154515 0.426059 41 120 142
0.670386 -0.528331 0.439975 68 1 84
0.341614 -0.040756 -0.186508 68 1 84
0.215729 -0.155245 -0.197538 66 62 133
-0.467102 0.230506 0.008936 68 1 84
-0.322853 -0.452341 -0.259444 68 1 84
-0.292012 0.202392 -0.157942 68 1 84
-0.544991 -0.162181 -0.029249 72 32 113
0.464089 -0.445179 -0.135026 71 20 102
-0.290961 -0.045799 -0.201604 68 1 84
-0.578447 0.130542 0.212458 72 32 113
-0.517110 -0.327586 -0.027267 71 18 101
0.621836 0.031442 0.235343 40 123 142
-0.648692 -0.300768 0.226541 68 1 84
0.292707 0.010931 -0.196335 68 1 84
0.313432 -0.505157 -0.259342 68 1 84
-0.598039 0.054921 0.243941 71 40 120
0.223573 0.361007 -0.170434 68 1 84
-0.438971 -0.415967 -0.193967 68 1 84
0.002830 0.472722 -0.215133 57 84 139
0.604542 -0.319596 0.112995 67 58 131
0.346650 0.550831 0.078896 34 137 141
-0.065760 -0.125173 -0.407750 68 1 84
0.450702 0.460069 0.179556 46 109 142
-0.265793 -0.219820 -0.181661 62 73 137
0.630865 -0.543321 0.266833 68 1 84
0.572737 0.158150 0.119571 69 53 128
0.632436 0.028672 0.405185 40 122 142
0.637644 -0.259244 0.192787 68 1 84
-0.639919 -0.235789 0.193372 71 18 101
0.158841 0.017504 -0.259258 68 1 84
0.433880 0.443716 0.076030 56 87 140
0.584111 -0.493717 0.103398 71 15 98
-0.682722 -0.493844 0.346268 68 1 84
-0.385601 -0.227465 -0.142616 71 37 117
-0.063548 -0.193293 -0.362807 68 1 84
-0.533721 0.098304 0.046528 68 1 84
-0.511278 -0.229410 -0.042942 72 35 116
-0.443013 -0.238454 -0.099945 69 54 129
0.268256 -0.068792 -0.200550 71 42 121
-0.494751 0.366783 0.229922 68 1 84
0.227690 0.504451 -0.135971 52 95 141
0.372437 0.061976 -0.162642 68 1 84
0.662571 -0.203068 0.382736 50 98 141
-0.299854 -0.472352 -0.267154 68 1 84
-0.463847 0.378138 0.426295 52 94 141
0.142978 0.008359 -0.329329 68 1 84
0.429133 0.127637 -0.103764 68 1 84
-0.679459 -0.287384 0.513075 67 60 132
0.623486 -0.361855 0.192001 68 1 84
0.585610 -0.259105 0.048422 70 9 92
0.050569 0.354551 -0.281952 68 1 84
-0.621899 -0.303265 0.139592 68 1 84
0.481223 0.410094 0.132514 45 111 142
-0.415557 0.447537 0.284092 41 120 142
0.166377 0.163457 -0.261307 68 1 84
-0.432524 -0.501051 -0.204752 68 1 84
-0.441279 0.061778 -0.118018 68 1 84
0.654795 -0.170258 0.371020 54 91 140
-0.540265 -0.436841 -0.042941 68 1 84
-0.046360 0.045805 -0.311122 68 1 84
-0.386991 0.456835 0.089719 70 47 124
-0.682706 -0.437306 0.377465 68 1 84
-0.121984 0.642794 -0.063071 68 55 129
-0.567491 0.234177 0.326739 68 1 84
0.258004 0.401816 -0.130565 69 6 90
0.587128 0.104611 0.128611 71 44 123
-0.487976 0.128429 -0.020426 68 1 84
0.280234 -0.037991 -0.200755 69 8 91
-0.511299 0.135943 0.025521 68 1 84
0.600306 -0.537487 0.154212 68 1 84
-0.614139 -0.205265 0.112584 68 1 84
0.438161 0.070778 -0.121140 71 20 102
-0.248192 0.215628 -0.180800 68 1 84
0.654972 -0.559160 0.361554 68 1 84
-0.298986 0.464958 -0.029374 46 109 142
0.494197 0.317052 0.062103 66 64 133
-0.313480 -0.084430 -0.191704 68 1 84
0.331274 0.157331 -0.160448 68 1 84
-0.310218 0.550297 0.125569 32 145 140
0.046360 -0.085003 -0.460944 68 1 84
0.141872 -0.388700 -0.204023 69 54 129
0.357518 0.547356 0.166796 32 164 133
-0.322374 -0.025762 -0.197922 68 1 84
-0.119430 -0.183643 -0.259385 53 92 140
-0.594625 0.115802 0.294857 68 55 129
-0.593328 0.055370 0.219952 70 9 92
0.432438 0.473315 0.127766 34 137 141
0.165745 -0.511321 -0.292013 68 1 84
0.060144 0.651772 -0.120456 35 135 141
0.658972 -0.608186 0.390923 72 30 112
0.603731 0.048495 0.151493 70 11 94
0.516757 0.339258 0.121267 61 76 137
0.308366 -0.141115 -0.175835 68 1 84
-0.133592 0.641617 -0.041278 58 82 139
0.527938 0.367511 0.321267 40 123 142
0.301085 0.527567 -0.046016 39 126 142
-0.292811 -0.350394 -0.177334 58 82 139
-0.393777 0.452171 0.096648 70 12 95
0.634868 -0.383758 0.253832 68 1 84
0.471598 0.436083 0.291049 30 158 136
0.277061 0.416974 -0.110155 71 39 119
0.275738 0.173143 -0.194559 68 1 84
-0.013438 -0.121656 -0.444066 68 1 84
-0.087716 -0.261741 -0.267988 71 43 122
0.209200 0.384646 -0.173989 69 6 90
0.480074 0.077222 -0.079257 68 1 84
0.659219 -0.553857 0.378694 68 1 84
0.630616 -0.011401 0.300343 47 106 141
-0.118309 0.556106 -0.171809 36 132 141
0.245201 -0.091948 -0.202031 71 43 122
-0.225388 0.548256 -0.063806 56 87 140
-0.053432 0.207522 -0.299804 68 1 84
-0.214832 0.125946 -0.204316 68 1 84
-0.648544 -0.073050 0.418441 71 40 120
0.654233 -0.536159 0.356230 68 1 84
-0.124363 0.411090 -0.184168 68 1 84
-0.613592 -0.465515 0.127735 68 1 84
0.393650 -0.291068 -0.143570 68 1 84
0.507860 0.261822 0.047743 69 53 128
-0.113562 0.005865 -0.368852 68 1 84
-0.097702 -0.237824 -0.265838 68 57 130
-0.652972 -0.113014 0.354474 70 12 95
0.506883 -0.060629 -0.083772 68 1 84
-0.080514 -0.135424 -0.376832 68 1 84
-0.660740 -0.290021 0.262685 68 1 84
-0.666009 -0.172786 0.348305 69 8 91
0.050834 0.017607 -0.392080 68 1 84
-0.558630 0.258616 0.284133 71 20 102
0.350332 -0.492134 -0.246638 68 1 84
-0.579371 -0.128245 0.026353 68 3 87
0.039140 -0.507158 -0.313334 68 1 84
-0.124004 -0.290357 -0.200374 61 76 137
-0.064537 -0.345912 -0.285728 68 1 84
-0.618993 -0.298712 0.131505 68 1 84
0.314210 -0.363557 -0.163967 64 67 135
0.351645 0.275437 -0.110866 68 1 84
-0.623615 -0.369568 0.152888 68 1 84
-0.036850 -0.218179 -0.375990 68 1 84
0.642616 -0.100056 0.306712 53 93 140
0.569055 0.038370 0.046742 68 1 84
-0.603617 0.092756 0.449156 68 57 130
-0.540891 -0.194475 -0.025012 71 22 105
0.362881 0.229569 -0.118138 68 1 84
0.233755 -0.048548 -0.208533 71 20 102
0.385727 0.516018 0.093419 33 141 140
0.485191 -0.544962 -0.112525 68 1 84
0.004644 0.054131 -0.425313 68 1 84
-0.563493 0.192513 0.510664 50 99 141
-0.143771 0.638470 -0.025241 35 137 141
-0.607587 -0.021749 0.205258 68 1 84
-0.348992 -0.084228 -0.183117 68 1 84
-0.592827 -0.210774 0.061665 68 1 84
-0.421157 0.453049 0.201021 48 104 141
0.382066 -0.069542 -0.169676 68 1 84
-0.641863 -0.216721 0.202553 69 6 90
-0.568964 0.192547 0.489781 53 93 140
0.150135 0.313056 -0.249788 68 1 84
0.533832 -0.006078 -0.037207 68 1 84
0.639489 -0.075177 0.416016 49 100 141
0.048333 0.103104 -0.315176 68 1 84
0.402034 -0.079666 -0.159556 68 1 84
-0.059159 -0.302601 -0.304823 68 1 84
-0.475828 -0.383065 -0.118846 68 1 84
0.349191 0.538350 0.052860 40 123 142
-0.543143 0.010345 0.005432 68 1 84
-0.643817 -0.275374 0.207809 68 1 84
-0.603094 0.024143 0.239474 68 1 84
-0.440388 -0.012495 -0.136702 68 1 84
-0.622085 0.026784 0.490297 69 50 127
-0.461861 -0.056100 -0.122244 68 1 84
0.153955 -0.267444 -0.187884 64 67 135
0.269263 -0.157760 -0.178640 72 32 113
-0.498038 0.335292 0.441185 57 84 139
0.135588 -0.313509 -0.183286 61 75 137
-0.174017 0.077809 -0.213884 68 1 84
0.516059 -0.200846 -0.059090 68 1 84
0.618947 -0.295534 0.143545 71 17 99
-0.387843 0.133764 -0.132654 68 1 84
0.442676 0.468479 0.185035 41 120 142
0.241979 0.605725 -0.035714 33 166 133
0.653067 -0.188657 0.307055 72 34 115
0.535449 -0.557094 -0.005612 68 1 84
0.360916 -0.161566 -0.155832 68 1 84
-0.595245 -0.033879 0.121882 68 1 84
0.155059 -0.392195 -0.199497 70 47 124
0.651210 -0.160348 0.483538 49 102 141
0.274190 0.493086 -0.094100 59 80 138
-0.492571 0.063933 -0.052081 68 1 84
0.640626 -0.080396 0.327294 48 104 141
-0.450501 -0.337986 -0.098032 68 2 85
0.628924 0.071866 0.367698 48 103 141
-0.630526 -0.545023 0.147831 68 1 84
0.658827 -0.347184 0.356554 68 55 129
0.338763 -0.476001 -0.251638 68 1 84
-0.210963 -0.438617 -0.256025 68 1 84
0.588757 -0.295879 0.067872 71 22 105
-0.054294 -0.314149 -0.305869 68 1 84
0.246793 -0.442594 -0.236371 68 1 84
0.280776 0.348456 -0.128039 68 1 84
-0.077252 -0.453232 -0.303641 68 1 84
-0.529748 0.172076 0.086471 68 1 84
-0.068861 0.000511 -0.451336 68 1 84
-0.541544 0.293253 0.352803 72 32 113
0.559883 -0.550113 0.048790 68 1 84
0.044873 0.650101 -0.128868 35 137 141
-0.247638 -0.476781 -0.277108 68 1 84
0.171416 0.233486 -0.249517 68 1 84
-0.086024 0.348646 -0.252410 68 1 84
0.082194 -0.370599 -0.249376 55 88 140
-0.619203 -0.007070 0.306687 68 1 84
0.527714 -0.019883 -0.050886 68 1 84
0.567587 0.084920 0.070064 71 39 119
-0.026217 0.511777 -0.215881 67 60 132
0.334579 0.004816 -0.187043 69 6 90
0.666427 -0.399909 0.498089 47 106 141
-0.075967 -0.143624 -0.378074 68 1 84
-0.622323 -0.538224 0.126196 68 1 84
0.507300 0.398504 0.268442 40 122 142
-0.520559 0.326153 0.362647 66 64 133
-0.537284 -0.361604 -0.017794 71 18 101
-0.583830 0.098187 0.212498 71 18 101
0.620195 0.079926 0.247612 57 85 139
-0.293266 -0.260312 -0.185204 71 37 117
-0.386726 0.325350 -0.033726 71 15 98
0.229546 -0.414602 -0.199700 68 57 130
0.548357 -0.542037 0.021498 68 1 84
0.184850 0.488675 -0.169626 51 97 141
-0.128554 -0.152521 -0.260218 70 45 124
0.459104 0.272339 -0.010603 71 38 118
0.086005 0.234897 -0.278406 68 1 84
-0.409199 0.465244 0.203967 44 113 142
0.624745 -0.116548 0.124589 69 6 90
-0.667985 -0.161345 0.553746 55 89 140
-0.697245 -0.546724 0.422123 69 6 90
-0.688877 -0.404026 0.504102 66 64 133
0.083810 0.382200 -0.241152 68 1 84
-0.566781 -0.319643 0.031565 68 1 84
-0.192222 -0.171306 -0.201917 70 49 126
0.012172 0.156223 -0.305039 68 1 84
-0.252723 -0.495368 -0.282672 68 1 84
-0.022159 0.042852 -0.357504 68 1 84
0.473252 0.413427 0.117402 42 117 142
-0.185714 0.481040 -0.128192 72 33 114
-0.249897 0.019696 -0.208044 68 1 84
0.503404 0.284354 0.053509 71 37 117
-0.247911 0.570836 0.009184 52 94 141
0.638778 -0.063795 0.363977 44 114 142
-0.461480 0.398076 0.323945 70 49 126
-0.400791 0.460792 0.129329 61 75 137
-0.640212 -0.037260 0.470855 70 45 124
-0.456515 0.147852 -0.056251 68 1 84
-0.433703 0.274606 -0.008417 68 1 84
