ply
format ascii 1.0
element vertex 1258
property float x
property float y
property float z
property uchar red
property uchar green
property uchar blue
end_header
0.395681 0.262865 -0.122329 58 82 139
-0.665440 -0.350924 0.344614 72 26 108
-0.510277 0.085324 -0.080652 68 1 84
-0.496890 -0.310899 -0.075881 60 78 138
-0.504698 0.312428 0.086176 54 91 140
-0.558223 0.250696 0.190724 68 57 130
0.606905 -0.477540 0.119129 68 1 84
-0.402967 -0.414074 -0.217629 58 82 139
-0.660218 -0.482894 0.351103 71 39 119
-0.544078 -0.017008 -0.060422 66 61 132
-0.528168 0.272470 0.107676 72 26 108
-0.601521 0.114464 0.367940 64 67 135
0.649314 -0.479667 0.343695 68 1 84
-0.591941 -0.315877 0.072772 30 156 137
-0.350566 -0.369166 -0.191777 31 148 139
-0.565668 0.154123 0.098940 59 81 138
-0.455811 0.282353 -0.028739 68 1 84
-0.368157 0.538245 0.171157 173 220 48
-0.683539 -0.384270 0.463734 68 1 84
0.495868 0.309647 0.036441 57 85 139
-0.344332 0.553847 0.141313 202 224 30
0.559901 0.256683 0.396991 50 181 122
-0.212542 0.613169 0.028381 31 162 134
-0.258852 -0.366884 -0.223317 35 137 141
-0.433291 0.475046 0.176884 35 136 141
0.488691 -0.376471 -0.126650 64 68 135
0.264540 -0.394907 -0.217800 68 1 84
-0.287162 -0.129909 -0.215180 68 1 84
-0.163297 0.428548 -0.155930 68 1 84
-0.262444 -0.072048 -0.241012 68 1 84
0.021121 -0.008413 -0.492784 68 1 84
0.661470 -0.354355 0.345680 65 65 134
-0.380627 -0.119946 -0.188895 68 1 84
-0.042533 0.239809 -0.309890 68 1 84
0.397346 0.302366 -0.094513 56 86 139
-0.448972 0.080595 -0.156604 68 1 84
-0.060330 -0.247506 -0.318447 68 1 84
0.598671 0.119686 0.249942 31 147 139
-0.441469 0.425150 0.082030 68 3 87
-0.542199 -0.061276 -0.067967 38 128 142
-0.582409 0.100152 0.102156 52 95 141
0.260694 0.337364 -0.139028 68 1 84
-0.617429 -0.175683 0.102654 60 77 138
-0.611602 0.065462 0.340648 71 38 118
-0.516768 -0.056595 -0.103390 43 115 142
-0.441450 -0.358932 -0.154479 39 124 142
0.354986 0.148146 -0.204688 68 1 84
0.004019 0.066247 -0.443187 68 1 84
0.630427 -0.157737 0.112680 62 73 137
0.589762 0.140105 0.166053 37 131 141
0.207620 0.313258 -0.171117 68 1 84
-0.468096 0.381137 0.079126 56 86 139
0.167289 -0.346208 -0.208842 69 5 88
0.080437 0.273939 -0.284380 68 1 84
-0.238683 0.454326 -0.099736 68 1 84
0.045647 0.458404 -0.184459 71 42 121
0.131083 -0.345475 -0.245473 68 1 84
-0.276119 -0.121778 -0.220790 68 1 84
0.255188 0.333107 -0.141278 68 1 84
-0.304858 -0.078856 -0.228309 68 1 84
0.355382 0.192707 -0.187236 68 1 84
0.043796 0.274956 -0.293328 68 1 84
-0.632887 -0.440180 0.224899 70 47 124
0.646182 -0.060971 0.211534 51 96 141
-0.307723 -0.380752 -0.241591 33 140 141
0.265757 -0.238940 -0.172751 68 1 84
0.591222 -0.324272 0.056636 71 24 106
-0.643641 -0.043988 0.438330 71 20 102
-0.365348 0.461558 0.006063 62 73 137
-0.378541 -0.415757 -0.230344 70 11 94
-0.664311 -0.458869 0.365552 71 38 118
-0.430324 0.168348 -0.136402 68 1 84
-0.409696 -0.530733 -0.253457 68 1 84
-0.036560 0.041792 -0.411758 68 1 84
-0.249565 0.535098 -0.050466 65 65 134
0.510782 0.384447 0.313773 54 184 119
0.448903 -0.087135 -0.162598 68 1 84
0.504475 -0.273165 -0.053304 66 64 133
-0.186579 -0.265084 -0.194757 70 47 124
0.584316 0.188953 0.338314 30 159 136
0.545689 0.315645 0.272125 36 170 130
-0.268609 0.142536 -0.232338 68 1 84
-0.541305 0.201639 0.069395 71 44 123
0.407420 0.222974 -0.139717 58 82 139
-0.014386 0.097549 -0.333777 68 1 84
0.667185 -0.340241 0.440514 72 25 107
0.042491 0.075916 -0.416793 68 1 84
-0.661691 -0.181638 0.288984 72 33 114
-0.290091 -0.411669 -0.258267 40 122 142
0.354490 0.554403 0.132403 220 226 24
0.629246 0.007594 0.232313 38 127 142
-0.279125 -0.505962 -0.314857 68 1 84
0.316577 0.285868 -0.161330 68 1 84
0.023104 -0.466387 -0.347719 68 1 84
0.132146 -0.081424 -0.345030 68 1 84
0.372839 0.489834 0.034496 144 214 67
-0.294248 0.578409 0.094621 98 202 95
-0.123463 0.645997 -0.060161 52 94 141
0.623743 -0.403669 0.161699 71 37 117
-0.565996 -0.492485 -0.029716 39 126 142
0.283711 0.424789 -0.092348 47 105 141
0.479837 0.319520 0.017146 30 151 138
-0.640167 -0.037960 0.419330 69 8 91
0.655265 -0.454658 0.379977 68 1 84
-0.150978 -0.041896 -0.267005 68 1 84
0.206214 -0.469613 -0.318251 68 1 84
-0.314137 0.450327 -0.053298 61 76 137
0.669758 -0.451066 0.445946 68 1 84
0.635979 -0.069235 0.123491 43 115 142
-0.095998 0.325197 -0.250882 68 1 84
0.432287 0.031763 -0.186757 72 28 110
0.613598 -0.368056 0.112485 66 64 133
0.081526 -0.152279 -0.395360 68 1 84
0.299465 -0.116398 -0.206831 68 1 84
0.429964 0.500838 0.245876 89 199 100
-0.655227 -0.163570 0.237882 66 64 133
0.654338 -0.080407 0.329611 56 87 140
-0.500389 0.394409 0.258684 34 138 141
0.182776 0.312343 -0.198500 68 1 84
0.658572 -0.203411 0.220998 72 32 113
-0.597228 0.137244 0.317645 71 40 120
-0.638894 -0.062018 0.245273 66 64 133
0.269081 0.284718 -0.172130 68 1 84
-0.455224 0.136932 -0.127341 68 1 84
0.580769 -0.168224 0.012870 72 28 110
-0.126784 0.381024 -0.200300 68 1 84
0.674824 -0.569083 0.469845 68 1 84
-0.425552 -0.002607 -0.187512 68 1 84
-0.261873 -0.457433 -0.295599 68 1 84
0.643091 -0.040009 0.265878 49 102 141
0.665043 -0.361771 0.381205 71 15 98
-0.115525 0.029515 -0.321904 68 1 84
-0.590059 -0.364758 0.065043 30 155 137
0.105807 0.448503 -0.180510 68 1 84
0.336371 0.442626 -0.046848 35 135 141
-0.071497 0.660537 -0.073534 45 111 142
0.488864 -0.244291 -0.077725 65 66 134
0.138076 -0.057535 -0.345894 68 1 84
0.269600 0.378059 -0.121686 52 94 141
0.649792 -0.374972 0.290506 71 18 101
0.539019 0.301969 0.421039 48 180 122
-0.533026 -0.185995 -0.042604 46 108 142
0.310524 0.203511 -0.200780 68 1 84
0.247593 -0.459656 -0.296928 68 1 84
0.418465 0.231281 -0.126313 38 128 142
-0.010327 -0.328148 -0.338793 68 1 84
-0.374352 -0.020045 -0.216918 68 1 84
0.236559 0.217050 -0.225579 68 1 84
-0.393165 -0.100697 -0.189418 68 1 84
0.137228 -0.070496 -0.337633 68 1 84
-0.344110 0.312400 -0.122364 68 1 84
0.608647 -0.319950 0.099369 69 52 127
0.592273 0.131924 0.445207 35 136 141
-0.177231 0.203114 -0.243379 68 1 84
-0.646604 -0.077209 0.338828 69 6 90
0.659250 -0.506873 0.373933 68 1 84
0.056900 0.219367 -0.314130 68 1 84
-0.350284 0.350807 -0.094265 68 1 84
0.555208 0.188184 0.051856 56 86 139
0.507281 -0.523639 -0.157032 68 1 84
-0.538283 0.268270 0.135319 69 54 129
-0.609361 0.042128 0.183501 69 53 128
-0.680356 -0.194229 0.447392 68 55 129
-0.567500 0.151130 0.102970 55 89 140
-0.404774 0.097370 -0.186651 68 1 84
-0.247915 0.477175 -0.083655 72 29 111
0.292810 0.057501 -0.238279 68 1 84
-0.085024 -0.286405 -0.256500 71 15 98
0.505235 0.159414 -0.076382 61 76 137
-0.016767 -0.034643 -0.479918 68 1 84
-0.352415 0.526368 0.072785 35 136 141
0.101025 -0.061045 -0.440635 68 1 84
0.596186 0.130933 0.266362 30 151 138
-0.271407 0.294841 -0.168099 68 1 84
-0.548193 -0.210153 -0.012322 40 122 142
-0.086441 0.069088 -0.290859 68 1 84
0.206862 -0.226652 -0.191225 68 1 84
-0.300325 0.214075 -0.197772 68 1 84
-0.133432 0.361338 -0.207895 68 1 84
-0.607960 0.066313 0.242336 64 68 135
-0.625455 -0.110375 0.120689 51 96 141
0.144448 -0.392229 -0.286962 68 1 84
0.637014 -0.023234 0.204017 31 146 140
-0.560467 0.217102 0.497374 44 114 142
-0.567538 -0.362645 -0.002002 44 113 142
-0.399892 -0.248019 -0.152720 71 42 121
-0.564500 -0.492679 -0.037474 48 103 141
0.595855 0.136272 0.295463 31 148 139
0.277118 -0.132986 -0.207784 68 1 84
0.440665 0.351012 -0.010913 46 109 142
0.677437 -0.525857 0.467548 68 1 84
0.239953 0.607864 0.021072 134 212 73
0.304804 0.255368 -0.182809 68 1 84
-0.312825 0.180029 -0.207199 68 1 84
-0.259809 0.117141 -0.239986 68 1 84
-0.691582 -0.194186 0.417266 70 48 125
0.672560 -0.215463 0.345466 71 38 118
-0.611617 -0.128502 0.082194 52 94 141
0.278839 -0.408609 -0.229512 68 55 129
0.664140 -0.370354 0.382067 68 1 84
0.566138 0.225385 0.162433 36 133 141
-0.017637 0.106778 -0.327421 68 1 84
-0.648673 -0.302050 0.221318 66 61 132
-0.328489 -0.514330 -0.296374 68 1 84
0.124670 0.417315 -0.194587 68 1 84
0.070813 0.049432 -0.422157 68 1 84
0.519710 0.370570 0.232133 31 162 134
-0.478107 -0.423901 -0.179018 70 49 126
-0.205251 0.616908 0.025174 46 178 124
-0.536500 0.224685 0.079597 68 55 129
0.263409 0.534457 -0.049935 31 149 139
0.065797 -0.091881 -0.450176 68 1 84
-0.598315 0.099198 0.211810 57 84 139
0.631199 0.001345 0.266348 36 134 141
-0.039461 0.197257 -0.312119 68 1 84
0.658775 -0.401471 0.371016 68 1 84
-0.478154 0.425399 0.272139 32 145 140
-0.470649 -0.363183 -0.131891 43 116 142
0.568631 0.209339 0.458783 51 182 121
-0.154737 0.075354 -0.245976 68 1 84
-0.478926 0.398147 0.134789 66 61 132
-0.138660 0.130413 -0.257071 68 1 84
-0.660316 -0.141038 0.340791 72 32 113
0.292149 0.001270 -0.239991 68 1 84
0.667707 -0.133521 0.457424 53 92 140
0.661705 -0.314044 0.306775 66 62 133
-0.121510 -0.287650 -0.216265 71 20 102
0.667439 -0.311134 0.433499 71 43 122
-0.296081 -0.127628 -0.213743 68 1 84
-0.582613 -0.428245 0.037016 54 90 140
-0.645447 -0.526279 0.289577 68 3 87
0.236777 -0.218744 -0.184357 68 1 84
0.533375 0.342969 0.249679 35 169 130
0.152653 0.234926 -0.273970 68 1 84
0.581238 -0.147801 0.002701 71 38 118
-0.334345 0.559495 0.128634 107 205 89
0.364671 0.072751 -0.218196 68 1 84
0.604306 -0.363220 0.079386 62 72 136
-0.057647 0.663123 -0.075126 30 151 138
-0.239120 0.132589 -0.237954 68 1 84
-0.428190 0.124329 -0.158862 68 1 84
0.562723 -0.017410 -0.061169 70 48 125
-0.218765 -0.105029 -0.241633 68 1 84
0.493152 -0.010827 -0.143619 72 33 114
-0.453413 0.220966 -0.077609 68 1 84
0.642060 -0.039703 0.368232 65 65 134
-0.612467 -0.430955 0.138581 58 83 139
-0.591913 0.122820 0.196231 59 80 138
-0.537532 -0.125822 -0.061269 33 142 140
-0.415549 0.112523 -0.173318 68 1 84
0.273308 0.587254 0.042376 134 212 73
-0.589374 0.168949 0.281121 69 52 127
0.530466 0.127165 -0.057676 50 99 141
-0.105226 0.189782 -0.278624 68 1 84
-0.358604 0.430973 -0.027811 69 50 127
0.584250 -0.445286 0.009349 68 1 84
-0.157402 0.632875 -0.041364 39 124 142
0.667137 -0.129761 0.529128 40 123 142
0.118411 -0.225163 -0.287469 68 1 84
0.145431 -0.068214 -0.320654 68 1 84
-0.343872 0.257661 -0.152959 68 1 84
-0.628839 -0.222659 0.138719 52 94 141
0.644068 -0.035927 0.446818 53 92 140
-0.440577 -0.516198 -0.231028 68 1 84
-0.646550 -0.035700 0.483460 71 24 106
-0.288853 -0.445127 -0.276536 68 1 84
0.447584 -0.391704 -0.176606 71 44 123
0.649807 -0.144644 0.174720 61 74 137
0.605452 0.085698 0.183400 39 126 142
0.261463 -0.218916 -0.178126 68 1 84
-0.112880 0.023218 -0.335939 68 1 84
0.227411 0.266533 -0.200081 68 1 84
-0.120591 -0.063809 -0.290647 68 1 84
0.030699 0.178877 -0.315103 68 1 84
-0.124415 -0.388270 -0.286430 69 53 128
0.612118 -0.420174 0.117542 71 20 102
-0.021921 -0.109614 -0.435453 68 1 84
-0.433191 0.109749 -0.160100 68 1 84
-0.104309 0.143595 -0.274299 68 1 84
-0.606495 0.075299 0.250566 61 75 137
-0.602354 0.107784 0.383935 69 50 127
0.146884 0.389804 -0.203197 68 1 84
-0.319003 0.218550 -0.187119 68 1 84
0.092517 0.032927 -0.399528 68 1 84
-0.645115 -0.070662 0.337871 70 14 97
0.617984 -0.474593 0.166497 68 1 84
-0.658292 -0.171688 0.256789 71 44 123
0.361382 -0.528487 -0.268084 68 1 84
0.656951 -0.073047 0.501576 49 101 141
-0.458079 -0.201807 -0.118005 59 81 138
0.508384 0.329882 0.086824 44 112 142
-0.233256 -0.389210 -0.239884 35 137 141
-0.502175 0.254710 0.026954 70 47 124
0.354272 0.060386 -0.223772 68 1 84
0.221970 -0.375208 -0.207546 70 11 94
-0.484948 0.223810 -0.030876 68 1 84
-0.497157 0.041955 -0.114556 68 1 84
0.584569 0.149938 0.137172 46 108 142
0.571378 -0.338932 0.003342 68 1 84
0.029113 0.079966 -0.427739 68 1 84
0.542953 -0.411824 -0.097873 70 47 124
0.358044 -0.518966 -0.267536 68 1 84
-0.305992 -0.357227 -0.176491 38 127 142
0.532768 0.308060 0.138209 32 144 140
-0.178362 0.610187 -0.054535 60 77 138
0.501247 -0.265838 -0.057824 62 73 137
-0.370453 -0.082670 -0.203772 68 1 84
0.385383 0.374554 -0.055145 46 109 142
0.616038 -0.436731 0.142226 72 28 110
0.346061 -0.165012 -0.174984 72 35 116
0.271163 0.215153 -0.211604 68 1 84
-0.441340 0.465213 0.176618 32 144 140
0.665466 -0.149546 0.276799 67 58 131
-0.680585 -0.403521 0.416536 68 1 84
0.010458 -0.365337 -0.338599 68 1 84
-0.251385 0.186022 -0.225633 68 1 84
-0.360451 0.117942 -0.209191 68 1 84
-0.556718 -0.178792 -0.011550 34 138 141
0.643801 -0.532861 0.299225 68 1 84
0.574800 0.229014 0.292893 32 144 140
0.660871 -0.268725 0.265169 70 45 124
0.014704 0.537219 -0.181737 70 12 95
-0.660928 -0.169494 0.297927 71 44 123
-0.105350 0.427030 -0.185693 68 1 84
0.657347 -0.345039 0.309855 71 44 123
0.272309 -0.461727 -0.286175 68 1 84
-0.392145 -0.242497 -0.157234 68 1 84
0.601837 -0.149437 0.042612 46 107 142
-0.599355 -0.096157 0.049708 41 120 142
-0.314422 0.342210 -0.124277 68 1 84
-0.058148 0.170825 -0.302294 68 1 84
-0.322065 -0.277451 -0.184029 68 2 85
0.477827 0.003283 -0.156307 72 28 110
0.334093 0.520289 0.019225 114 207 85
-0.468859 -0.154279 -0.122879 67 60 132
0.302343 -0.187396 -0.179377 68 1 84
0.661410 -0.153440 0.238337 67 59 131
0.612605 0.062680 0.232279 38 127 142
0.658707 -0.302344 0.280036 63 71 136
-0.043842 -0.059175 -0.449834 68 1 84
0.400488 0.226662 -0.142460 62 73 137
-0.288574 0.308249 -0.154356 68 1 84
0.128582 0.663995 -0.038238 119 208 82
-0.180004 0.549613 -0.104123 72 26 108
0.185835 0.070289 -0.244068 68 1 84
-0.472743 0.429303 0.201700 41 121 142
-0.595916 0.072392 0.134306 62 72 136
0.082502 -0.457630 -0.339256 68 1 84
0.653415 -0.055270 0.519565 49 100 141
-0.603599 -0.504044 0.120833 68 1 84
0.646742 -0.250658 0.192399 68 1 84
0.283108 -0.457935 -0.277321 71 17 99
-0.429829 -0.448929 -0.224874 65 66 134
0.394870 0.382607 -0.039498 35 136 141
-0.683147 -0.574625 0.450624 68 1 84
0.274387 0.134960 -0.225719 68 1 84
-0.122936 -0.266266 -0.220679 68 1 84
-0.631703 -0.042854 0.208874 69 52 127
0.508931 -0.033698 -0.129542 71 15 98
0.627206 -0.139987 0.098935 52 95 141
0.097502 -0.310674 -0.288297 68 1 84
0.459180 0.456838 0.326732 77 194 107
0.438210 -0.230948 -0.124276 68 1 84
0.184213 0.466977 -0.142825 62 73 137
0.224858 0.398298 -0.140071 68 1 84
-0.001779 0.609138 -0.154584 68 1 84
-0.645884 -0.380377 0.249054 49 102 141
-0.475151 -0.287303 -0.086111 44 113 142
0.275040 0.114522 -0.228811 68 1 84
-0.477786 -0.407229 -0.166431 59 80 138
-0.465163 -0.306154 -0.097333 43 177 125
0.350105 -0.131167 -0.187078 68 1 84
-0.347957 0.242146 -0.159160 68 1 84
-0.089167 0.004221 -0.394592 68 1 84
0.367828 -0.377157 -0.221031 46 107 142
0.158876 0.268692 -0.248821 68 1 84
-0.501497 0.391925 0.239473 34 139 141
-0.476537 0.427189 0.223902 34 138 141
-0.595759 -0.135551 0.046720 46 107 142
0.565235 0.196810 0.513875 48 180 122
0.241455 0.606838 0.021865 121 209 81
-0.077252 0.164569 -0.291905 68 1 84
0.313178 -0.182040 -0.177773 68 1 84
-0.643213 -0.222726 0.179845 60 77 138
-0.682844 -0.234401 0.501014 71 39 119
0.437800 0.489200 0.273767 107 205 89
-0.185108 0.043366 -0.250588 68 1 84
-0.637873 -0.490068 0.262112 70 48 125
-0.269436 0.536911 -0.029507 49 102 141
0.482628 0.124322 -0.124056 54 90 140
0.511505 0.387209 0.259405 64 189 114
0.670652 -0.447784 0.454316 68 1 84
-0.309591 -0.493349 -0.297175 68 1 84
-0.205654 0.131388 -0.240975 68 1 84
0.213047 0.199715 -0.240432 68 1 84
-0.687933 -0.465115 0.464049 68 1 84
0.572932 0.227729 0.358980 30 154 137
0.353316 0.387448 -0.073681 50 98 141
-0.685575 -0.285998 0.456962 70 49 126
0.398826 0.480603 0.062618 68 190 112
-0.681015 -0.276667 0.370573 69 54 129
-0.040777 0.330867 -0.272439 68 1 84
0.117502 0.353723 -0.252292 68 1 84
0.003920 0.449894 -0.190111 72 34 115
0.135338 0.403679 -0.200042 68 1 84
0.640856 -0.224422 0.164353 72 34 115
0.436005 0.492346 0.206054 85 198 102
0.179134 0.400605 -0.172211 68 1 84
0.593558 0.094306 0.085616 54 91 140
-0.597008 0.126516 0.416306 72 30 112
0.239249 0.363094 -0.140832 68 1 84
0.370205 -0.369281 -0.208661 37 131 141
-0.289683 -0.371868 -0.228750 31 147 139
-0.573749 0.077783 0.049390 72 34 115
-0.087494 -0.263088 -0.261557 68 1 84
-0.113103 0.470725 -0.166714 68 1 84
0.098724 0.091256 -0.308018 68 1 84
-0.651868 -0.148961 0.225077 53 93 140
0.455329 -0.365463 -0.148124 55 88 140
0.114156 -0.269346 -0.261896 68 1 84
0.236229 -0.306558 -0.143574 68 1 84
-0.531609 0.338471 0.257066 40 122 142
-0.590690 0.164086 0.284581 66 64 133
0.605206 -0.410849 0.084155 68 1 84
0.661264 -0.440424 0.402867 68 1 84
-0.658476 -0.114735 0.488838 71 39 119
0.225814 0.208623 -0.232707 68 1 84
-0.680842 -0.429977 0.417043 72 29 111
0.666548 -0.127864 0.388999 61 75 137
-0.568086 -0.401483 -0.016166 46 107 142
-0.634783 -0.375304 0.199387 60 77 138
0.587990 -0.425658 0.019747 68 1 84
-0.652160 -0.450863 0.305071 69 5 88
-0.479746 0.325650 0.044762 71 39 119
-0.141012 0.644949 -0.033061 30 154 137
-0.605987 0.091059 0.375156 67 58 131
0.486264 -0.363540 -0.116962 62 73 137
-0.441483 -0.102396 -0.163491 68 1 84
0.353613 0.274091 -0.146044 61 76 137
0.127037 -0.235219 -0.261458 68 1 84
-0.642290 -0.521826 0.279320 68 1 84
-0.634035 -0.319795 0.176298 52 95 141
0.104803 -0.037782 -0.448674 68 1 84
0.126429 -0.237776 -0.260374 68 1 84
0.494576 -0.256462 -0.067987 55 89 140
0.501952 0.382097 0.150599 33 166 133
-0.631082 -0.036142 0.221434 69 50 127
-0.643809 -0.389331 0.245157 48 103 141
0.607274 -0.444942 0.106661 68 1 84
-0.536052 -0.367662 -0.073848 52 94 141
0.070074 0.634897 -0.126325 69 53 128
0.478005 0.400968 0.436857 121 209 81
0.464411 -0.271142 -0.096779 68 55 129
-0.550634 0.297716 0.332677 40 122 142
-0.621080 0.024264 0.381042 72 30 112
-0.029970 0.029184 -0.456596 68 1 84
-0.550909 -0.221311 -0.004791 54 90 140
0.654146 -0.316509 0.265097 65 65 134
-0.434413 0.129829 -0.151118 68 1 84
-0.542478 0.107446 -0.007804 63 69 135
-0.557988 0.276955 0.349152 49 100 141
-0.435436 -0.005475 -0.180262 68 1 84
0.121974 -0.236593 -0.270560 68 1 84
-0.124045 0.537764 -0.149383 68 1 84
0.473325 0.435012 0.346430 146 215 65
-0.430008 0.079948 -0.173006 68 1 84
0.649481 -0.068261 0.393891 57 85 139
-0.685859 -0.387691 0.483952 68 1 84
-0.319008 0.216846 -0.188002 68 1 84
0.083235 -0.454060 -0.337960 68 1 84
0.272678 0.596414 0.080515 183 221 41
0.039283 -0.447872 -0.341338 68 1 84
-0.558836 0.243653 0.456934 43 116 142
-0.605448 -0.370718 0.105014 47 105 141
0.638835 -0.067450 0.138687 40 122 142
-0.487505 -0.409217 -0.160385 62 72 136
0.453787 0.372664 0.026976 31 146 140
0.476008 -0.017198 -0.157731 66 62 133
0.662777 -0.418736 0.403705 68 1 84
0.098495 0.240682 -0.303470 68 1 84
0.241122 0.010280 -0.246234 68 1 84
-0.677385 -0.455142 0.410181 71 18 101
-0.376373 0.532088 0.177292 157 217 58
0.588260 -0.501284 0.036491 68 1 84
-0.420059 0.487554 0.284048 215 226 25
-0.240305 -0.106092 -0.234776 68 1 84
-0.656847 -0.112734 0.468116 69 54 129
0.601591 0.100362 0.188855 38 127 142
0.207538 -0.304852 -0.155252 68 1 84
0.242775 0.597470 -0.007787 126 210 78
-0.585294 0.174675 0.243596 57 84 139
-0.684703 -0.449467 0.434651 68 2 85
0.363879 0.007358 -0.220027 68 1 84
-0.629107 -0.014083 0.276075 61 75 137
0.566021 -0.450562 -0.059042 68 1 84
0.533489 0.118487 -0.057797 52 95 141
-0.614986 -0.044088 0.105799 40 122 142
-0.199083 0.616505 0.002756 31 148 139
-0.184534 -0.134944 -0.243333 68 1 84
0.142461 0.339091 -0.240589 68 1 84
0.642548 -0.166048 0.149421 71 42 121
-0.280939 0.503250 -0.044627 53 93 140
0.262244 0.237443 -0.206898 68 1 84
-0.646701 -0.077911 0.315634 67 59 131
-0.526345 0.334350 0.390889 39 124 142
0.126357 0.465483 -0.169123 70 49 126
-0.639387 -0.101215 0.183400 59 80 138
-0.497877 -0.210798 -0.075492 39 126 142
0.591765 0.130622 0.485961 32 143 140
-0.615166 -0.421251 0.144792 59 81 138
0.114596 0.074540 -0.302511 68 1 84
-0.353421 0.415046 -0.046556 59 81 138
0.000737 0.285270 -0.279299 68 1 84
-0.584814 -0.301786 0.057018 42 119 142
-0.686772 -0.250207 0.479827 71 24 106
-0.661836 -0.251445 0.266999 60 77 138
-0.647551 -0.420074 0.276191 67 60 132
0.469351 0.452471 0.254391 98 202 95
-0.092900 -0.222303 -0.280840 68 1 84
-0.114004 -0.355274 -0.245618 60 77 138
-0.475324 0.144566 -0.099917 68 1 84
-0.084049 -0.353708 -0.288711 68 1 84
-0.414367 -0.311305 -0.134432 31 147 139
0.668354 -0.131917 0.503749 40 122 142
-0.071556 -0.055137 -0.411583 68 1 84
0.482102 0.362558 0.065659 40 123 142
0.507008 0.386349 0.343171 89 199 100
-0.205331 -0.473307 -0.328017 68 1 84
-0.583829 0.173193 0.448281 67 58 131
-0.341248 0.227633 -0.170374 68 1 84
0.028973 0.308413 -0.268846 68 1 84
-0.627800 -0.122620 0.126897 54 90 140
0.095121 -0.334191 -0.294931 68 1 84
0.665543 -0.301431 0.481541 69 52 127
0.502588 -0.494656 -0.166214 68 1 84
0.575851 -0.153755 -0.003382 71 42 121
0.198685 0.634804 -0.000204 105 204 91
-0.619507 0.025858 0.272347 67 58 131
-0.172589 0.490768 -0.130033 68 1 84
-0.652394 -0.121872 0.257691 66 61 132
0.543665 0.319711 0.287829 44 177 125
0.287833 0.547009 -0.010074 100 203 93
0.252764 -0.282827 -0.155819 68 1 84
-0.116539 0.361639 -0.222970 68 1 84
0.628085 0.011838 0.533064 48 103 141
-0.454278 0.448967 0.304076 57 185 118
-0.685675 -0.369577 0.498758 68 1 84
0.205767 0.627453 -0.014773 66 190 113
-0.424514 0.485861 0.181597 34 137 141
-0.587148 0.170617 0.255459 59 81 138
0.523980 -0.201574 -0.049905 67 60 132
-0.623148 -0.130405 0.112553 51 97 141
-0.581351 0.208243 0.323961 61 74 137
-0.066753 0.058744 -0.308745 68 1 84
-0.468464 0.021547 -0.150503 68 1 84
0.382101 0.419417 -0.023815 35 137 141
0.224153 0.592847 -0.052228 43 115 142
-0.233519 0.466472 -0.098326 70 12 95
-0.230642 0.443928 -0.109876 68 1 84
-0.238812 -0.513230 -0.329519 68 1 84
0.576680 0.221003 0.281325 32 145 140
0.571748 0.215575 0.411433 42 176 126
0.515256 -0.069937 -0.118002 68 1 84
-0.577813 0.201710 0.408264 65 66 134
-0.280804 0.409759 -0.098807 68 1 84
-0.544596 0.311649 0.268245 51 96 141
0.579688 -0.200614 0.028156 67 59 131
-0.118974 -0.397057 -0.303960 71 43 122
0.364133 0.273064 -0.139031 60 77 138
0.641437 -0.037351 0.366027 67 60 132
-0.173077 0.287788 -0.180396 68 1 84
-0.083545 -0.067253 -0.366935 68 1 84
-0.098875 0.331887 -0.249003 68 1 84
0.006654 0.399941 -0.233767 68 1 84
-0.031796 0.651317 -0.106821 60 77 138
0.179189 -0.019243 -0.273300 68 1 84
-0.074733 0.336009 -0.262297 68 1 84
-0.539402 -0.228035 -0.018978 44 114 142
0.593857 -0.146937 0.025793 54 90 140
0.503268 0.397251 0.312921 61 187 116
-0.520581 -0.345401 -0.075892 66 61 132
0.240315 -0.340885 -0.165594 68 1 84
0.633395 -0.080807 0.108886 52 95 141
0.666455 -0.318557 0.492951 70 14 97
0.503972 -0.001881 -0.133351 71 42 121
-0.581851 0.182645 0.226587 53 93 140
0.496990 -0.219616 -0.074309 70 49 126
-0.096790 0.630374 -0.111167 71 40 120
0.627615 -0.134529 0.098191 48 103 141
0.584726 0.148422 0.499574 32 165 133
-0.677694 -0.331670 0.414848 72 26 108
-0.397692 0.051082 -0.202414 68 1 84
0.499791 0.249537 -0.012597 37 130 142
0.594346 -0.135653 0.020574 55 88 140
-0.566670 0.096441 0.043862 52 95 141
0.606648 -0.429658 0.096898 71 17 99
0.123541 -0.323405 -0.239781 68 1 84
-0.568929 0.172990 0.523431 63 69 135
-0.460755 0.174341 -0.099569 68 1 84
-0.505999 0.181132 -0.029042 68 1 84
0.552783 -0.442756 -0.092272 71 22 105
-0.611289 -0.118924 0.080949 53 93 140
0.672286 -0.170935 0.340423 59 81 138
-0.050055 0.427854 -0.201516 68 1 84
0.642648 -0.333958 0.217247 68 1 84
-0.320513 -0.195820 -0.188710 68 1 84
-0.094565 0.263701 -0.272193 68 1 84
0.426057 -0.321334 -0.125256 71 20 102
-0.632257 0.005123 0.488234 68 1 84
0.278950 -0.047683 -0.234296 68 1 84
0.585711 0.169539 0.213238 36 134 141
0.027227 -0.305607 -0.348779 68 1 84
0.107658 -0.344451 -0.283756 68 1 84
-0.579328 0.180630 0.477148 54 90 140
0.566949 0.202767 0.495908 59 186 117
0.448813 0.245559 -0.087367 36 132 141
-0.001768 -0.436955 -0.342877 68 1 84
-0.599329 0.079279 0.173454 58 82 139
0.080473 0.666834 -0.066916 87 198 101
-0.322843 0.570364 0.164384 253 231 36
0.500084 0.350123 0.091885 40 122 142
0.139167 0.662701 -0.015758 157 217 58
0.602720 0.028329 0.048261 58 82 139
-0.258893 0.007433 -0.255810 68 1 84
-0.654785 -0.339341 0.264268 58 82 139
-0.352438 0.261890 -0.145321 68 1 84
-0.036935 0.279665 -0.278470 68 1 84
0.389119 -0.339785 -0.151371 69 54 129
0.075835 -0.297240 -0.320036 68 1 84
-0.225781 0.253005 -0.209084 68 1 84
-0.182489 -0.197471 -0.221059 68 1 84
0.164445 0.281370 -0.224480 68 1 84
-0.502430 0.273583 0.044428 59 81 138
0.522301 0.320659 0.115358 32 144 140
-0.574780 0.116720 0.091171 62 72 136
0.179497 0.419436 -0.163085 68 1 84
-0.076124 0.259523 -0.286499 68 1 84
0.455829 0.302367 -0.032529 43 116 142
-0.030353 -0.460569 -0.347857 68 1 84
0.090272 -0.272155 -0.310267 68 1 84
-0.615650 0.018724 0.189847 69 53 128
-0.087174 -0.368580 -0.298361 68 1 84
0.631861 -0.002464 0.384044 58 83 139
-0.601531 0.103806 0.469175 71 38 118
-0.258943 0.554053 -0.022952 59 80 138
-0.261471 0.492989 -0.066462 59 80 138
-0.168827 0.465623 -0.139953 68 1 84
-0.655963 -0.358828 0.281116 71 37 117
0.542707 0.147316 -0.019406 35 135 141
-0.349482 -0.162941 -0.187212 68 1 84
0.182376 0.632473 -0.055345 40 122 142
0.174804 0.021755 -0.277297 68 1 84
-0.554267 0.179731 0.088031 69 54 129
0.668374 -0.306851 0.400979 72 28 110
0.440234 0.421453 0.056057 40 174 127
0.649498 -0.203519 0.183272 69 52 127
-0.681738 -0.295216 0.406009 65 66 134
-0.156831 -0.460773 -0.337307 68 1 84
-0.516926 0.285701 0.089865 61 76 137
0.453469 0.025630 -0.173461 68 1 84
0.188716 0.278629 -0.206203 68 1 84
0.595521 0.082336 0.078101 61 76 137
-0.552809 0.038616 -0.026124 71 39 119
0.606288 0.088871 0.254383 39 125 142
-0.448642 -0.425979 -0.201076 60 78 138
0.131279 -0.142075 -0.324142 68 1 84
-0.686429 -0.278687 0.462717 72 26 108
0.172095 -0.045163 -0.282624 68 1 84
0.097908 -0.280115 -0.292316 68 1 84
-0.499572 0.049466 -0.109294 70 12 95
-0.648260 -0.087678 0.293549 67 60 132
0.379872 -0.438536 -0.230920 72 34 115
-0.570864 0.235229 0.250165 61 76 137
0.657141 -0.072149 0.531898 49 102 141
0.558910 0.244138 0.437220 37 171 129
0.493469 0.416560 0.236499 114 207 85
-0.195239 0.502594 -0.109772 72 25 107
-0.148077 -0.311545 -0.198716 62 72 136
-0.457055 0.275337 -0.032360 68 1 84
0.334367 0.385628 -0.087529 67 58 131
-0.037073 -0.018942 -0.469828 68 1 84
-0.563896 -0.175561 -0.001322 46 107 142
-0.093006 -0.170818 -0.312616 68 1 84
0.481058 0.345525 0.044659 44 113 142
-0.280043 -0.230124 -0.193893 68 1 84
0.047847 -0.411725 -0.334867 68 1 84
0.486801 -0.115349 -0.127798 68 1 84
0.322991 -0.392141 -0.227007 58 82 139
0.416508 0.511861 0.252614 109 206 88
0.560144 0.061282 -0.041060 48 103 141
0.622981 -0.284771 0.135023 71 37 117
0.011735 0.185119 -0.314937 68 1 84
0.277720 0.204742 -0.212037 68 1 84
0.382578 0.106301 -0.204035 68 1 84
0.635212 -0.439291 0.239138 68 1 84
0.660903 -0.125008 0.260392 69 50 127
0.656164 -0.069832 0.497341 47 105 141
0.069774 0.049728 -0.432066 68 1 84
-0.656717 -0.101534 0.481690 70 47 124
-0.646397 -0.381606 0.252002 50 98 141
-0.575269 0.229614 0.312304 57 84 139
-0.092546 0.471472 -0.173561 68 1 84
-0.580013 0.198338 0.395388 65 65 134
-0.622219 -0.490417 0.194134 72 35 116
-0.521869 0.183887 0.005350 68 1 84
0.322788 -0.240477 -0.169489 68 1 84
-0.492481 0.405884 0.272605 35 136 141
0.401762 0.448022 0.027130 66 190 113
0.054834 0.257449 -0.308192 68 1 84
-0.651321 -0.160359 0.216251 60 77 138
-0.125484 0.124532 -0.261583 68 1 84
-0.026444 0.050539 -0.429530 68 1 84
0.678666 -0.522815 0.493854 68 1 84
-0.117081 -0.004385 -0.309694 68 1 84
0.389158 0.430295 -0.004991 46 178 124
0.614561 -0.467419 0.148568 68 1 84
0.525066 -0.345142 -0.067668 69 54 129
-0.076525 0.037584 -0.359857 68 1 84
-0.670865 -0.414917 0.379617 71 20 102
-0.639634 -0.397625 0.231731 51 96 141
-0.672775 -0.335146 0.383805 71 21 103
-0.533694 0.320334 0.198802 66 64 133
0.197577 0.159356 -0.248645 68 1 84
0.346082 0.424901 -0.051886 47 106 141
0.293525 -0.018885 -0.237254 68 1 84
0.466381 0.438908 0.148563 103 204 92
-0.617936 -0.526428 0.171953 68 1 84
0.323158 -0.332138 -0.150580 68 1 84
0.625461 -0.087917 0.079382 62 73 137
0.118105 -0.378194 -0.295069 68 1 84
0.500089 0.314885 0.050146 46 109 142
-0.190180 -0.381619 -0.232316 65 66 134
-0.375925 0.517743 0.104411 30 155 137
-0.227321 -0.132669 -0.230394 68 1 84
-0.684378 -0.272238 0.390006 64 67 135
0.406120 0.170882 -0.168996 70 47 124
-0.679928 -0.214322 0.518896 71 39 119
0.529725 0.346134 0.216279 36 170 130
0.662558 -0.125221 0.279647 62 72 136
-0.627427 -0.499431 0.220236 70 47 124
-0.168116 0.285676 -0.184929 68 1 84
0.644150 -0.362364 0.242795 71 22 105
0.666786 -0.299916 0.328323 68 57 130
-0.671760 -0.519034 0.392195 68 1 84
-0.417862 -0.165360 -0.155420 68 1 84
0.339605 -0.009837 -0.226299 68 1 84
-0.528790 -0.107981 -0.079004 45 111 142
0.632004 -0.347931 0.177304 71 38 118
-0.445300 0.452415 0.341861 31 163 134
0.015712 0.078057 -0.428147 68 1 84
-0.070047 0.668586 -0.048784 53 183 120
0.601106 -0.314026 0.081595 69 8 91
0.563816 0.244302 0.400340 31 163 134
-0.655279 -0.434436 0.312165 71 17 99
0.337197 0.569591 0.154167 162 218 55
-0.084582 -0.367751 -0.299905 68 1 84
-0.144916 0.648096 0.007417 149 215 63
-0.116544 0.320416 -0.235050 68 1 84
-0.439822 0.468661 0.187324 35 136 141
0.579843 -0.183494 0.019525 70 47 124
-0.521599 -0.259210 -0.036607 36 133 141
0.504682 0.367069 0.131428 34 139 141
-0.639264 -0.044838 0.364053 70 9 92
0.495659 0.373575 0.442791 96 201 96
-0.231070 0.251500 -0.208820 68 1 84
0.540181 0.305296 0.170370 33 142 140
-0.535466 0.089457 -0.034008 72 32 113
-0.502732 -0.135708 -0.098401 46 109 142
0.288427 0.480872 -0.058127 32 165 133
0.611929 -0.125309 0.053066 49 101 141
0.356330 -0.251090 -0.163658 68 1 84
-0.218300 -0.238426 -0.196635 68 1 84
0.333224 0.115297 -0.221338 68 1 84
0.053404 -0.361919 -0.329141 68 1 84
0.650050 -0.074492 0.230793 51 96 141
-0.241663 -0.417383 -0.262729 70 47 124
0.657873 -0.083025 0.465641 52 95 141
0.137072 0.103344 -0.270962 68 1 84
0.550080 0.280867 0.402258 71 192 110
-0.037040 -0.427723 -0.339390 68 1 84
-0.094983 -0.259809 -0.251432 68 1 84
0.233007 0.535672 -0.081874 33 140 141
0.497677 -0.487353 -0.171957 68 1 84
0.075385 -0.008643 -0.474814 68 1 84
-0.531353 -0.111794 -0.074354 37 130 142
-0.438618 -0.143019 -0.150605 68 3 87
0.412218 -0.188694 -0.142027 68 1 84
-0.446565 0.089980 -0.155672 68 1 84
-0.186469 0.023406 -0.253694 68 1 84
0.271653 0.139173 -0.225396 68 1 84
0.208928 -0.061511 -0.257279 68 1 84
0.139150 -0.040908 -0.364963 68 1 84
-0.511856 0.355645 0.175647 72 33 114
-0.568528 -0.365061 -0.000082 45 111 142
0.654550 -0.355721 0.303398 68 55 129
-0.571061 -0.094668 -0.014335 39 125 142
-0.107892 -0.453528 -0.342867 68 1 84
-0.029898 -0.316479 -0.333047 68 1 84
0.668495 -0.139057 0.421457 60 78 138
0.174026 -0.472127 -0.327692 68 1 84
0.410342 0.517781 0.194850 141 214 68
0.452520 -0.077451 -0.163238 68 1 84
-0.591905 -0.189437 0.054472 47 106 141
-0.050797 -0.357386 -0.319456 68 1 84
-0.685593 -0.393541 0.480206 68 1 84
-0.060112 0.538320 -0.174922 68 1 84
-0.179583 -0.158270 -0.236524 68 1 84
-0.230099 -0.312243 -0.171194 64 67 135
-0.275260 0.562808 0.013325 46 107 142
0.469014 -0.245727 -0.098271 72 32 113
0.049786 0.342746 -0.275979 68 1 84
-0.600785 0.111874 0.409465 64 68 135
-0.004373 0.376360 -0.260070 68 1 84
0.349240 -0.264974 -0.165066 68 1 84
0.451352 0.470415 0.299261 94 201 97
0.220320 -0.251840 -0.173902 68 1 84
-0.485640 0.240857 -0.015682 68 1 84
0.042461 -0.185069 -0.414104 68 1 84
-0.586583 0.174222 0.394296 64 68 135
-0.578455 -0.414733 0.021622 36 134 141
-0.680539 -0.277352 0.368211 66 62 133
-0.401905 -0.016638 -0.202167 68 1 84
-0.086210 0.319032 -0.255309 68 1 84
-0.375201 -0.175992 -0.173767 68 1 84
0.441941 0.428810 0.068402 56 185 118
-0.258317 -0.345267 -0.181181 44 114 142
-0.112823 -0.077411 -0.303500 68 1 84
-0.347046 -0.414527 -0.244184 55 88 140
-0.619592 -0.348234 0.140397 54 90 140
-0.252898 -0.295657 -0.181709 44 112 142
-0.275794 -0.454081 -0.287481 68 1 84
-0.377345 0.239720 -0.141062 68 1 84
0.477693 -0.331755 -0.094082 54 91 140
0.170248 -0.269668 -0.191955 68 1 84
-0.421789 0.490953 0.221005 69 191 111
0.665310 -0.124507 0.410492 67 60 132
0.041949 -0.418869 -0.336543 68 1 84
0.593560 0.117264 0.503581 32 143 140
0.667997 -0.350515 0.467253 69 5 88
0.118856 -0.023218 -0.432199 68 1 84
0.656909 -0.348992 0.311055 69 53 128
0.116334 -0.157193 -0.339187 68 1 84
-0.424931 -0.276967 -0.131437 37 171 129
-0.487428 0.109466 -0.102517 68 1 84
-0.509584 0.284780 0.071318 57 84 139
-0.139704 0.548739 -0.137025 70 12 95
-0.451082 -0.547626 -0.220836 68 1 84
-0.371603 0.419416 -0.023220 55 88 140
0.093450 0.545707 -0.170406 68 1 84
0.111493 0.353090 -0.256637 68 1 84
0.458899 0.410297 0.077390 66 190 113
-0.502613 -0.034648 -0.119607 41 120 142
-0.058070 0.002250 -0.443054 68 1 84
0.666987 -0.131277 0.444114 54 90 140
0.501191 0.393959 0.352802 79 195 105
0.669628 -0.147034 0.499887 43 116 142
0.015831 -0.446109 -0.343579 68 1 84
0.056210 0.665827 -0.075077 30 159 136
-0.673518 -0.457363 0.398461 70 49 126
-0.109958 -0.011142 -0.335542 68 1 84
-0.033916 -0.096178 -0.433356 68 1 84
0.658605 -0.546452 0.357433 68 1 84
0.632772 -0.113278 0.108739 52 94 141
-0.583465 0.163281 0.483902 57 85 139
0.472159 -0.079921 -0.150850 68 1 84
-0.398124 -0.375379 -0.201672 53 92 140
-0.661073 -0.134352 0.356443 71 24 106
-0.611939 -0.380695 0.124212 45 111 142
-0.586599 -0.145016 0.029896 46 108 142
0.612612 -0.002401 0.061510 69 53 128
-0.468845 -0.077240 -0.149930 68 1 84
0.327925 0.561921 0.089169 167 219 51
0.042444 0.379111 -0.257183 68 1 84
-0.400034 -0.024084 -0.202421 68 1 84
-0.551693 -0.157961 -0.027969 32 145 140
0.242437 -0.267586 -0.162021 68 1 84
-0.615156 -0.057631 0.100084 40 122 142
0.670274 -0.269080 0.377956 64 68 135
-0.058768 -0.130641 -0.377646 68 1 84
0.458543 -0.000286 -0.170744 68 1 84
0.504431 0.392424 0.195756 35 168 131
-0.424461 -0.195723 -0.143400 68 1 84
-0.509519 -0.400904 -0.133349 60 77 138
0.559573 -0.341578 -0.020341 72 29 111
-0.469013 -0.336481 -0.111818 34 139 141
-0.236269 -0.229823 -0.198343 68 1 84
-0.583782 -0.518508 0.043985 70 14 97
-0.063076 0.280367 -0.269367 68 1 84
0.365310 -0.269393 -0.161344 68 1 84
0.176895 -0.145517 -0.258983 68 1 84
-0.680186 -0.217095 0.522211 71 42 121
0.331873 -0.433828 -0.244093 62 73 137
-0.308302 0.451568 -0.056832 62 72 136
-0.053849 0.316508 -0.266302 68 1 84
0.574243 -0.501406 -0.028988 68 1 84
0.026662 0.674040 -0.055202 91 200 98
-0.636611 -0.244671 0.163259 56 86 139
-0.429379 -0.054606 -0.181740 68 1 84
0.325485 -0.403078 -0.232213 72 32 113
0.499390 -0.461765 -0.168235 68 1 84
-0.488274 0.411563 0.232941 39 124 142
-0.322134 0.433254 -0.059958 69 50 127
0.233221 -0.059765 -0.246344 68 1 84
-0.190124 0.179435 -0.242946 68 1 84
-0.539508 0.320757 0.244862 51 96 141
-0.618343 -0.408011 0.151390 59 81 138
-0.153373 0.394770 -0.173914 68 1 84
-0.148214 0.645030 -0.010757 44 177 125
0.140659 -0.371317 -0.263337 68 1 84
0.142763 0.253039 -0.275572 68 1 84
0.356049 0.448189 -0.025370 30 156 137
0.497857 0.365495 0.455518 48 180 122
-0.663044 -0.198838 0.288069 71 37 117
-0.405718 0.356361 -0.035482 68 1 84
0.661777 -0.315227 0.308136 67 59 131
-0.520181 -0.320096 -0.058281 63 69 135
0.200032 -0.030867 -0.259740 68 1 84
0.591089 0.159534 0.340445 30 152 138
-0.269481 0.565557 0.009397 51 97 141
-0.339395 0.502207 0.015969 51 97 141
-0.599237 -0.302638 0.088483 38 127 142
-0.218540 0.050510 -0.253534 68 1 84
-0.406516 0.428254 0.028380 32 144 140
-0.452131 -0.387546 -0.171046 33 140 141
0.408204 0.176203 -0.165090 66 64 133
0.447609 0.346235 -0.005902 48 104 141
0.612548 0.062241 0.438814 36 132 141
-0.347282 0.513062 0.041178 43 116 142
0.001043 -0.091693 -0.458334 68 1 84
-0.169590 -0.086305 -0.263329 68 1 84
-0.594324 -0.103472 0.037980 40 122 142
0.501936 0.401847 0.289416 36 170 130
-0.401684 0.313494 -0.070113 71 17 99
-0.090222 -0.015565 -0.390266 68 1 84
0.640266 -0.031228 0.412353 52 95 141
-0.305718 0.255441 -0.176299 68 1 84
-0.243886 -0.013494 -0.256635 68 1 84
-0.546745 -0.098771 -0.056186 32 144 140
0.558729 0.236202 0.463571 39 173 128
0.609806 0.074251 0.455953 33 142 140
-0.381755 -0.041713 -0.209321 68 1 84
0.389206 0.492497 0.063729 87 198 101
0.586761 0.176298 0.362324 31 148 139
0.167950 0.457298 -0.155159 68 1 84
-0.609564 -0.497434 0.143586 68 1 84
-0.125772 0.645688 -0.058010 49 102 141
0.540128 0.300324 0.157970 37 130 142
-0.552035 -0.501031 -0.080842 68 1 84
0.628056 0.002986 0.169496 56 86 139
0.051265 -0.073215 -0.469434 68 1 84
-0.638811 -0.200455 0.162063 49 101 141
0.470883 -0.367384 -0.134032 61 76 137
0.279667 -0.493173 -0.299396 68 1 84
0.434366 0.482668 0.151528 103 204 92
-0.602581 -0.252933 0.088618 46 108 142
0.212620 -0.481535 -0.319197 68 1 84
0.639295 -0.027905 0.234454 41 120 142
0.455837 -0.233775 -0.111114 69 52 127
0.048873 -0.199289 -0.402874 68 1 84
0.658939 -0.082142 0.496909 52 95 141
-0.561470 -0.486385 -0.049190 49 102 141
-0.687364 -0.207299 0.385550 69 8 91
-0.529659 0.343082 0.265484 40 123 142
0.661528 -0.111375 0.557882 49 102 141
0.604506 -0.415469 0.082289 68 1 84
0.408616 0.129402 -0.183459 70 14 97
-0.684216 -0.287103 0.421565 68 55 129
0.301295 -0.221350 -0.173669 68 1 84
0.222811 0.451769 -0.121486 57 85 139
-0.401263 -0.234906 -0.152124 68 1 84
0.109478 -0.036655 -0.442692 68 1 84
0.371724 0.065904 -0.216084 68 1 84
0.643380 -0.058819 0.182137 42 118 142
-0.613319 -0.350479 0.123705 42 118 142
0.327520 -0.314256 -0.151379 68 1 84
0.606500 0.063302 0.523831 33 140 141
0.339917 0.000051 -0.227752 68 1 84
0.119108 0.008493 -0.422638 68 1 84
0.665837 -0.115941 0.491837 41 121 142
-0.151151 -0.368738 -0.231910 72 26 108
0.252012 0.128105 -0.228657 68 1 84
-0.562455 -0.499016 -0.047406 63 71 136
0.089530 0.674321 -0.026915 197 223 33
-0.639231 -0.040964 0.395834 71 18 101
-0.294082 0.576893 0.087783 51 182 121
0.304624 0.199245 -0.204372 68 1 84
-0.317097 -0.279815 -0.184771 71 39 119
0.442339 -0.379813 -0.174661 39 126 142
0.015928 0.098119 -0.355176 68 1 84
0.465976 0.438349 0.362366 85 198 102
0.300716 0.427819 -0.080785 42 118 142
-0.471184 -0.430795 -0.188820 70 49 126
0.128613 0.033986 -0.374209 68 1 84
-0.160622 -0.323611 -0.193744 72 35 116
0.658325 -0.486598 0.381964 68 1 84
0.290798 0.330184 -0.138410 67 59 131
0.615309 0.060767 0.325726 38 128 142
-0.568252 -0.056522 -0.020792 46 107 142
-0.007193 0.351830 -0.275171 68 1 84
0.544793 0.301574 0.194791 32 145 140
0.582262 0.196765 0.270122 36 134 141
-0.108061 0.047040 -0.321573 68 1 84
-0.504087 -0.172916 -0.081833 30 155 137
-0.208559 -0.410593 -0.261919 60 78 138
0.067038 -0.133996 -0.422797 68 1 84
-0.593990 -0.375460 0.075295 30 153 138
-0.448995 0.226412 -0.079192 68 1 84
0.649644 -0.508661 0.329729 68 1 84
-0.509208 0.379660 0.247360 37 130 142
0.541783 -0.324547 -0.032108 69 6 90
-0.403890 0.435085 0.031763 46 107 142
0.640728 -0.084843 0.141199 52 95 141
0.653604 -0.063694 0.473536 61 76 137
0.351459 0.487502 0.004585 81 196 104
-0.371634 0.153952 -0.188629 68 1 84
0.533723 0.297733 0.465102 59 186 117
0.564202 -0.410748 -0.057158 71 24 106
-0.346630 -0.167447 -0.186868 68 1 84
-0.222662 -0.039153 -0.256281 68 1 84
-0.627040 0.003417 0.387306 71 21 103
0.519821 -0.323701 -0.056705 69 6 90
0.422814 -0.050085 -0.185766 68 1 84
0.598452 -0.052862 0.004908 71 24 106
0.533493 0.218208 0.025877 45 110 142
0.594739 0.133071 0.396947 37 131 141
-0.502512 0.365805 0.421083 46 178 124
-0.037028 0.063817 -0.320363 68 1 84
0.653093 -0.264079 0.221765 68 1 84
-0.615077 -0.480038 0.161795 72 34 115
0.670365 -0.274297 0.372267 65 66 134
0.276982 -0.328435 -0.150962 69 8 91
-0.243145 0.461980 -0.093412 68 1 84
0.589967 -0.406077 0.024325 68 1 84
-0.650046 -0.484402 0.304217 71 17 99
0.594699 0.143283 0.339193 32 145 140
0.132901 -0.038615 -0.391516 68 1 84
0.513621 0.309507 0.075564 52 95 141
-0.304689 -0.430015 -0.264506 66 61 132
-0.486905 -0.070401 -0.135210 56 87 140
-0.139745 0.017884 -0.254024 68 1 84
-0.510570 0.358813 0.398013 31 163 134
-0.151755 0.161565 -0.255534 68 1 84
0.012350 0.461095 -0.185837 69 5 88
0.025055 0.588452 -0.166176 68 1 84
-0.619564 -0.483174 0.180618 71 44 123
-0.010413 0.182599 -0.317147 68 1 84
0.526476 0.319484 0.130592 41 121 142
0.597371 -0.024541 0.006536 72 30 112
0.320718 -0.164444 -0.181803 68 1 84
0.563398 0.076242 -0.025227 48 103 141
0.667907 -0.319308 0.396999 70 9 92
0.147889 0.164150 -0.276194 68 1 84
0.074660 0.052804 -0.355165 68 1 84
0.615845 -0.334962 0.119414 65 66 134
-0.455124 0.310613 -0.008098 72 32 113
-0.157651 0.577219 -0.109642 68 1 84
-0.476926 -0.235890 -0.092143 41 120 142
-0.217281 0.483764 -0.101440 68 1 84
0.667824 -0.315812 0.420042 71 20 102
-0.179123 -0.098880 -0.256813 68 1 84
-0.635563 -0.367067 0.198552 49 102 141
-0.449163 -0.273128 -0.111145 41 120 142
0.203634 0.473301 -0.127957 62 73 137
-0.010632 -0.277824 -0.358574 68 1 84
0.075703 0.073752 -0.341298 68 1 84
0.117099 0.440950 -0.181890 68 1 84
-0.587247 0.154969 0.219121 62 72 136
0.346027 0.364185 -0.095817 56 87 140
-0.283999 -0.362644 -0.192535 42 117 142
-0.460061 0.444201 0.191791 42 117 142
0.577068 -0.171988 0.008424 70 14 97
0.531285 0.348226 0.257336 47 179 123
-0.394520 0.382414 -0.027726 69 5 88
0.668251 -0.202383 0.456573 72 35 116
-0.401545 -0.360783 -0.187182 45 110 142
0.586151 0.177998 0.267695 34 139 141
0.639747 -0.054402 0.156195 50 99 141
0.558975 0.040891 -0.052802 52 95 141
0.177002 0.345657 -0.203717 68 1 84
-0.611251 -0.141969 0.082535 49 100 141
0.672304 -0.220973 0.348338 71 21 103
0.591159 -0.154925 0.024801 59 81 138
0.578530 -0.168578 0.009080 72 25 107
-0.495715 0.258360 0.017315 71 20 102
-0.616428 -0.087497 0.096896 41 120 142
-0.478442 0.359186 0.075339 54 91 140
-0.664774 -0.131744 0.393420 72 25 107
-0.407424 -0.147144 -0.167254 68 1 84
-0.608783 -0.101024 0.073819 52 95 141
0.591056 -0.334941 0.051466 72 33 114
-0.288355 -0.074706 -0.233768 68 1 84
0.352373 -0.426719 -0.237093 57 85 139
0.432524 0.440905 0.067265 56 185 118
0.663712 -0.106265 0.479821 47 106 141
-0.459445 -0.063244 -0.159790 68 1 84
-0.393943 0.517995 0.226232 181 221 43
0.465113 0.112021 -0.145439 55 89 140
0.621690 -0.237650 0.119024 71 42 121
-0.574454 0.072967 0.047725 71 42 121
0.154321 -0.140479 -0.290308 68 1 84
0.610041 0.073348 0.244389 32 144 140
0.606749 -0.378041 0.086598 61 76 137
-0.307055 0.173516 -0.212046 68 1 84
0.618142 -0.391503 0.134191 61 75 137
-0.019186 -0.463047 -0.348656 68 1 84
0.306796 0.583669 0.122987 175 220 46
-0.636236 -0.007841 0.543267 72 30 112
-0.605780 -0.349542 0.104556 38 129 142
0.503987 -0.316621 -0.066521 70 11 94
-0.415598 0.213436 -0.124940 68 1 84
-0.207194 0.314923 -0.158534 68 1 84
-0.329205 0.380337 -0.091684 68 1 84
-0.462719 0.432318 0.155827 55 89 140
-0.139721 0.647228 -0.025107 30 157 136
-0.081085 -0.226210 -0.296420 68 1 84
0.488194 -0.354906 -0.107037 67 59 131
0.432940 0.126615 -0.167414 71 42 121
-0.562686 -0.476400 -0.044587 39 124 142
0.547104 0.278972 0.432337 59 186 117
-0.573885 -0.120883 -0.002996 31 148 139
0.620138 0.034623 0.187435 48 103 141
-0.628354 -0.312327 0.157857 51 96 141
0.308666 0.140043 -0.220064 68 1 84
-0.553633 0.259550 0.448410 39 124 142
0.145683 0.278706 -0.241205 68 1 84
-0.158839 0.619496 -0.067566 69 54 129
0.177160 0.021421 -0.265058 68 1 84
-0.649366 -0.036839 0.504973 72 30 112
0.217359 0.244141 -0.223919 68 1 84
-0.002421 -0.172155 -0.420948 68 1 84
0.500692 -0.333450 -0.079966 70 12 95
0.333156 -0.484030 -0.271039 72 35 116
0.596731 0.112371 0.499491 38 128 142
-0.378985 -0.086457 -0.199683 68 1 84
-0.150282 0.252402 -0.238356 68 1 84
-0.574064 -0.395368 0.008514 50 98 141
-0.561072 -0.384613 -0.033660 40 122 142
0.525491 0.109720 -0.076469 46 109 142
0.185289 0.278696 -0.209437 68 1 84
0.636878 -0.008143 0.552657 45 110 142
0.668952 -0.572289 0.403830 68 1 84
0.026869 0.175759 -0.315599 68 1 84
0.512651 0.366443 0.384640 56 185 118
0.319215 -0.145172 -0.189998 68 1 84
-0.556833 0.283985 0.321903 46 107 142
0.488008 0.419258 0.325633 68 190 112
0.436019 0.147729 -0.156610 72 33 114
-0.238802 0.194308 -0.227255 68 1 84
-0.579164 0.177020 0.485671 50 99 141
0.248360 -0.257865 -0.166006 68 1 84
0.033165 0.242920 -0.315813 68 1 84
0.618346 0.034129 0.150132 53 93 140
0.561780 -0.459875 -0.070528 68 1 84
-0.559587 -0.393295 -0.043767 41 120 142
-0.247258 0.558552 -0.031846 49 101 141
0.114153 0.651191 -0.087563 33 142 140
0.616054 -0.235980 0.107039 69 53 128
0.146210 0.177175 -0.278179 68 1 84
0.563110 0.220222 0.130466 51 97 141
0.008074 -0.316787 -0.345845 68 1 84
0.601179 -0.482939 0.096866 68 1 84
-0.604473 0.096985 0.296012 71 38 118
-0.610554 -0.119801 0.079177 53 93 140
-0.614170 0.056186 0.475500 71 15 98
-0.149994 0.625090 -0.069916 67 59 131
0.222875 -0.396235 -0.230039 68 1 84
0.024126 0.333196 -0.276202 68 1 84
-0.557814 -0.290925 0.008066 57 85 139
0.165180 -0.098823 -0.290456 68 1 84
0.580653 -0.080838 -0.027808 71 15 98
-0.584462 -0.490440 0.051351 63 69 135
-0.616170 -0.370141 0.134418 49 101 141
-0.043357 0.643212 -0.118204 72 30 112
0.362545 -0.213333 -0.160099 68 1 84
-0.572531 -0.450726 -0.003549 41 121 142
-0.586875 0.082015 0.100073 67 60 132
-0.645532 -0.254355 0.193600 61 74 137
0.413666 0.324715 -0.063405 44 113 142
-0.668429 -0.323277 0.341314 69 53 128
0.664174 -0.199473 0.513938 66 62 133
-0.263847 0.472789 -0.075146 61 75 137
0.575692 0.003098 -0.033334 66 62 133
-0.394776 0.495370 0.098318 36 134 141
-0.648332 -0.067190 0.439308 68 2 85
-0.556886 0.281362 0.340168 43 115 142
0.610869 0.067009 0.430521 33 140 141
0.668621 -0.245142 0.306853 57 85 139
-0.360977 0.142177 -0.200184 68 1 84
-0.337663 0.074317 -0.230391 68 1 84
0.494114 0.350406 0.077393 42 119 142
0.430077 0.258741 -0.096585 45 111 142
-0.275213 0.360030 -0.128227 68 1 84
-0.467751 -0.142568 -0.128362 66 62 133
0.353888 -0.517214 -0.269687 68 1 84
0.261397 0.490046 -0.075437 42 176 126
0.605685 -0.281800 0.093162 68 1 84
0.644374 -0.478074 0.311663 68 1 84
-0.369033 0.527914 0.114998 32 164 133
-0.175856 0.612558 -0.054588 61 74 137
-0.207055 0.588416 -0.046945 58 82 139
-0.181167 -0.418066 -0.288831 53 93 140
-0.203972 -0.005365 -0.258708 68 1 84
-0.552782 0.099367 0.009231 72 29 111
-0.154593 -0.372342 -0.234314 71 21 103
0.113858 0.019681 -0.418360 68 1 84
-0.625120 0.008742 0.324895 70 11 94
-0.534340 0.242119 0.092050 70 47 124
0.622334 0.032607 0.282606 35 135 141
0.573933 0.154550 0.077416 61 76 137
0.652882 -0.096654 0.218431 48 104 141
0.417144 -0.398021 -0.203504 42 118 142
0.546360 -0.403240 -0.087783 69 54 129
-0.618687 -0.444740 0.165662 68 57 130
-0.229381 -0.087305 -0.243112 68 1 84
0.360287 0.188623 -0.186801 68 1 84
-0.682225 -0.278946 0.381785 71 44 123
-0.474930 0.387819 0.104977 71 38 118
-0.355249 -0.065868 -0.215146 68 1 84
-0.569746 -0.467670 -0.012654 36 132 141
-0.114485 0.198465 -0.274053 68 1 84
-0.555848 0.286572 0.291037 49 101 141
0.670955 -0.168461 0.323033 56 87 140
0.618400 -0.353741 0.128128 66 62 133
-0.614135 -0.386269 0.131738 46 107 142
0.608536 0.083058 0.371174 40 122 142
-0.644745 -0.194107 0.181636 48 104 141
0.087103 0.648297 -0.105951 48 103 141
0.507078 0.207545 -0.037556 36 133 141
-0.576354 -0.456316 0.013840 46 107 142
0.447684 -0.296776 -0.103569 66 61 132
0.487258 -0.194745 -0.090563 68 1 84
0.666691 -0.404552 0.424520 68 1 84
0.348559 -0.500761 -0.269348 71 20 102
0.512821 0.083493 -0.105899 56 87 140
-0.679643 -0.321770 0.424799 72 32 113
0.320182 -0.480391 -0.275664 54 91 140
0.667428 -0.181105 0.489985 63 69 135
0.644918 -0.331273 0.226610 71 40 120
-0.659239 -0.160315 0.281385 72 25 107
0.567013 0.050377 -0.032254 51 96 141
-0.639666 -0.394843 0.230297 50 99 141
0.392176 0.254966 -0.130338 55 89 140
-0.646946 -0.089972 0.265745 66 62 133
0.216276 -0.024816 -0.253473 68 1 84
0.158353 -0.316879 -0.199679 68 1 84
-0.354137 -0.209388 -0.175572 68 1 84
0.301423 0.100286 -0.230082 68 1 84
-0.146516 0.422774 -0.167278 68 1 84
0.068753 -0.253040 -0.352047 68 1 84
0.533048 -0.280268 -0.020776 68 1 84
-0.526663 0.298169 0.133945 56 86 139
-0.270273 0.387535 -0.115334 68 1 84
-0.691839 -0.208329 0.408201 71 42 121
-0.688360 -0.457808 0.469572 68 1 84
0.671736 -0.220614 0.332048 65 66 134
0.380197 0.456730 0.007713 36 170 130
-0.663143 -0.315982 0.291832 59 81 138
0.673135 -0.183008 0.344189 65 66 134
