ply
format ascii 1.0
element vertex 1280
property float x
property float y
property float z
property uchar red
property uchar green
property uchar blue
end_header
-0.015556 0.267957 -0.322935 33 167 132
0.361312 -0.219910 -0.125839 68 1 84
-0.126811 0.470356 -0.241648 45 111 142
0.644922 -0.341761 0.263807 68 1 84
-0.040192 -0.387664 -0.264258 69 50 127
-0.483520 0.166257 -0.005353 68 1 84
0.218259 -0.398245 -0.144781 68 1 84
-0.398242 0.330292 -0.076511 68 1 84
-0.246648 0.394718 -0.185242 41 120 142
0.468890 -0.389899 -0.057542 68 1 84
0.144937 -0.465944 -0.212243 68 1 84
0.211195 0.334164 -0.198827 68 1 84
0.117009 0.219869 -0.309932 35 135 141
0.572365 0.130572 0.342604 68 1 84
-0.531664 0.310780 0.187080 68 1 84
0.499351 -0.092870 -0.065164 68 1 84
0.474915 0.406802 0.234963 68 1 84
-0.140526 -0.058417 -0.342614 136 213 71
-0.649065 -0.479645 0.392037 68 1 84
-0.535082 0.307050 0.193580 68 1 84
-0.239289 0.156233 -0.246238 33 166 133
0.093377 -0.446448 -0.236939 70 9 92
0.052579 -0.557127 -0.286094 68 3 87
-0.158732 -0.581872 -0.256556 71 17 99
-0.271778 -0.050141 -0.196462 60 77 138
-0.507989 -0.481210 -0.018741 68 1 84
0.242876 0.257099 -0.222121 70 12 95
-0.593564 0.076977 0.257795 68 1 84
-0.478258 -0.028103 -0.076295 68 1 84
0.604131 -0.115438 0.144067 68 1 84
-0.541232 -0.077787 0.005612 68 1 84
-0.358875 -0.026911 -0.168529 68 1 84
0.235956 -0.061260 -0.209133 68 1 84
0.070245 -0.309945 -0.283366 55 89 140
-0.378407 -0.554850 -0.167919 68 1 84
0.493520 -0.475382 -0.093787 68 1 84
0.459389 0.458349 0.354218 68 1 84
0.698685 -0.309031 0.532637 68 1 84
0.311139 -0.331344 -0.181690 68 1 84
-0.174705 0.300032 -0.265601 57 185 118
-0.096988 -0.214268 -0.293505 30 156 137
0.097430 -0.001212 -0.340538 45 111 142
-0.386253 0.543075 0.172438 68 1 84
-0.632864 -0.222310 0.279468 68 1 84
0.409848 -0.376919 -0.112758 68 1 84
-0.392605 0.519396 0.102823 68 1 84
0.441229 0.476215 0.301086 68 1 84
-0.265765 0.606328 -0.002999 72 25 107
-0.381963 -0.008136 -0.157333 68 1 84
-0.352216 0.347074 -0.123209 68 55 129
0.573000 0.052869 0.193697 68 1 84
-0.220366 0.601763 -0.123954 66 64 133
0.519446 -0.449356 -0.046750 68 1 84
0.448991 -0.268484 -0.070327 68 1 84
0.084324 0.369761 -0.278193 71 44 123
-0.509581 -0.501981 -0.019196 68 1 84
0.447925 -0.098648 -0.109137 68 1 84
-0.382228 0.350008 -0.088192 71 42 121
-0.388817 0.319371 -0.093971 72 30 112
0.106012 -0.294056 -0.227686 46 107 142
0.457873 0.215789 -0.009991 68 1 84
0.482056 0.270314 0.074293 68 1 84
-0.021198 0.093348 -0.337015 73 193 109
-0.145071 -0.102712 -0.255733 44 177 125
0.125772 0.092626 -0.284383 50 99 141
-0.286953 -0.567320 -0.207183 71 15 98
0.207071 0.090215 -0.239888 71 17 99
-0.328411 0.218282 -0.182849 47 105 141
-0.324735 -0.248690 -0.135599 70 9 92
-0.313212 -0.260152 -0.140663 72 30 112
-0.219288 0.186328 -0.255055 30 153 138
-0.020908 -0.384399 -0.281508 60 78 138
0.528158 0.034408 0.016760 68 1 84
0.285486 0.287121 -0.186688 68 1 84
0.044511 0.143635 -0.343568 48 180 122
-0.383064 -0.224940 -0.115203 68 1 84
-0.307732 -0.175838 -0.141936 71 20 102
-0.643073 -0.428708 0.347066 68 1 84
-0.627017 -0.160418 0.286080 68 1 84
0.028622 0.069481 -0.344032 91 200 98
-0.243352 0.240918 -0.223368 43 116 142
0.522247 0.130137 0.074853 68 1 84
0.457219 -0.397247 -0.073203 68 1 84
-0.580661 0.050835 0.185976 68 1 84
-0.454240 0.490621 0.291231 68 1 84
-0.653176 -0.118372 0.501868 68 1 84
0.625605 -0.267144 0.193766 68 1 84
-0.421829 0.101467 -0.116270 68 3 87
0.343401 0.357897 -0.099369 68 1 84
-0.526292 0.330712 0.189498 68 1 84
-0.065631 0.203005 -0.339403 126 210 78
0.579078 0.140042 0.497866 68 1 84
0.594195 -0.004802 0.260784 68 1 84
0.262589 0.423281 -0.133556 68 1 84
-0.483779 0.459578 0.342575 68 1 84
0.458395 0.459621 0.352411 68 1 84
-0.460989 -0.490343 -0.084393 68 1 84
-0.578476 -0.147387 0.075697 68 1 84
-0.501712 0.237421 0.060608 68 1 84
0.663787 -0.421349 0.331892 68 1 84
-0.334093 0.545783 0.010647 72 33 114
0.391454 -0.380593 -0.124029 68 1 84
-0.549574 0.187547 0.152389 68 1 84
-0.069385 -0.032654 -0.404325 212 225 26
-0.557194 -0.151963 0.027654 68 1 84
-0.134904 0.640672 -0.161960 72 32 113
0.017924 -0.043643 -0.459419 146 215 65
-0.333809 0.497248 -0.050091 66 61 132
0.583641 -0.067893 0.094942 68 1 84
0.287849 0.583404 0.115916 68 1 84
0.662327 -0.145729 0.501719 68 1 84
0.520231 0.335667 0.409582 68 1 84
0.325416 -0.261015 -0.147153 68 1 84
0.040306 -0.285570 -0.339357 41 121 142
0.460121 0.019432 -0.092056 68 1 84
-0.620849 -0.239194 0.221650 68 1 84
-0.043179 -0.309313 -0.311013 51 96 141
0.460353 0.219572 -0.003022 68 1 84
0.275070 0.223170 -0.216038 68 1 84
0.668929 -0.187906 0.469614 68 1 84
-0.548560 0.323740 0.266116 68 1 84
0.482922 -0.538923 -0.115275 68 1 84
0.177784 0.412845 -0.194736 70 14 97
0.700502 -0.293021 0.514195 68 1 84
0.285232 0.583701 0.107808 68 1 84
0.218929 -0.047660 -0.216660 68 1 84
-0.614553 -0.002154 0.345579 68 1 84
-0.562344 0.304103 0.306455 68 1 84
-0.405776 -0.123528 -0.127387 68 1 84
-0.416593 0.227137 -0.088628 68 1 84
-0.149793 0.076780 -0.266826 33 167 132
0.545139 0.251583 0.358156 68 1 84
-0.533075 0.397615 0.394282 68 1 84
-0.227025 0.549496 -0.162612 55 89 140
0.135839 0.151639 -0.298005 33 142 140
-0.566437 0.009207 0.106769 68 1 84
0.126507 -0.444564 -0.208631 69 6 90
-0.464515 0.198285 -0.027050 68 1 84
-0.126642 -0.121651 -0.295713 46 178 124
-0.309486 -0.166368 -0.143314 71 20 102
-0.084320 0.293304 -0.326316 126 210 78
-0.619729 -0.409471 0.262051 68 1 84
-0.402960 -0.037621 -0.142814 68 1 84
-0.539422 0.372913 0.344274 68 1 84
0.209989 0.340967 -0.198202 68 1 84
-0.094240 -0.355448 -0.188760 68 1 84
0.101594 0.641265 -0.121176 68 1 84
0.510201 0.003137 -0.031489 68 1 84
0.501918 -0.495697 -0.092874 68 1 84
-0.543895 0.361047 0.339500 68 1 84
0.535319 0.249421 0.231193 68 1 84
0.082792 -0.220211 -0.323172 32 145 140
0.397929 0.413195 0.028000 68 1 84
0.412721 -0.135145 -0.122460 68 1 84
0.188382 -0.313699 -0.162550 68 1 84
-0.102103 -0.572417 -0.270902 72 25 107
0.581726 -0.502222 0.096369 68 1 84
-0.628829 -0.065630 0.391574 68 1 84
-0.105174 -0.427087 -0.177036 70 14 97
0.005348 0.512687 -0.261098 59 81 138
0.347417 0.491695 0.031784 68 1 84
-0.402083 -0.183002 -0.117626 68 1 84
0.645132 -0.210554 0.283958 68 1 84
0.566977 0.067398 0.177855 68 1 84
-0.149152 -0.081106 -0.264165 44 177 125
-0.364399 0.556971 0.135596 68 1 84
-0.306817 -0.261719 -0.142746 72 29 111
0.007054 -0.073900 -0.472655 165 218 53
-0.372396 0.327890 -0.109905 72 35 116
-0.226078 -0.035438 -0.209225 39 125 142
0.127648 -0.246981 -0.227296 62 72 136
-0.295287 0.493373 -0.104006 55 89 140
0.177306 0.111938 -0.260486 69 50 127
0.057990 -0.114342 -0.447357 91 200 98
-0.033904 -0.007097 -0.406821 154 216 60
0.071004 0.212002 -0.328666 42 176 126
0.488538 -0.083526 -0.076294 68 1 84
-0.179797 -0.456171 -0.161274 68 1 84
-0.655558 -0.112909 0.565536 68 1 84
-0.428146 -0.303093 -0.073005 68 1 84
-0.109496 -0.372126 -0.167798 71 20 102
-0.465699 0.478973 0.316490 68 1 84
0.697032 -0.362736 0.474462 68 1 84
0.392880 0.193286 -0.117925 68 1 84
0.122040 0.477412 -0.213141 70 47 124
0.648485 -0.458615 0.291304 68 1 84
-0.157577 -0.024374 -0.243602 32 165 133
0.362184 0.326888 -0.093766 68 1 84
0.488134 0.410029 0.375434 68 1 84
0.677994 -0.497913 0.374830 68 1 84
0.335512 0.037511 -0.187100 68 1 84
-0.589032 -0.088794 0.132702 68 1 84
0.188839 0.317201 -0.215249 70 49 126
0.482994 0.399021 0.259909 68 1 84
0.145663 0.356919 -0.239013 66 62 133
0.705893 -0.427052 0.513803 68 1 84
-0.085602 0.641403 -0.183136 71 44 123
0.289663 0.569525 0.064631 68 1 84
0.292755 0.298116 -0.176045 68 1 84
0.678660 -0.268021 0.387092 68 1 84
-0.228085 0.449730 -0.181008 44 113 142
-0.575492 0.031832 0.152745 68 1 84
-0.568925 -0.182614 0.055206 68 1 84
-0.504592 -0.162552 -0.048216 68 1 84
-0.264468 0.522599 -0.129718 64 68 135
0.360660 0.306046 -0.106303 68 1 84
0.152562 -0.489962 -0.229669 70 12 95
-0.339092 0.072181 -0.180258 62 73 137
0.036395 0.147178 -0.345351 37 171 129
-0.207253 0.621401 -0.107583 72 33 114
0.177657 0.614188 -0.059352 68 1 84
-0.034304 -0.176571 -0.413812 69 191 111
-0.050724 -0.407218 -0.248626 70 45 124
-0.495594 0.279380 0.068903 68 1 84
-0.602152 0.181150 0.426152 68 1 84
-0.589873 0.036704 0.220300 68 1 84
-0.018897 -0.226322 -0.380122 34 139 141
0.064528 -0.405329 -0.257690 71 43 122
-0.586364 0.253210 0.413062 68 2 85
-0.580135 0.279123 0.428857 71 17 99
0.598387 -0.016623 0.269854 68 1 84
0.175168 0.278414 -0.221925 68 55 129
-0.064140 0.660480 -0.145774 72 33 114
-0.490978 -0.035630 -0.061740 68 1 84
0.492647 0.044339 -0.039763 68 1 84
0.006368 0.372561 -0.301560 44 112 142
0.588444 -0.222064 0.098097 68 1 84
0.535745 -0.104226 -0.019437 68 1 84
-0.578561 -0.081601 0.095855 68 1 84
0.312473 -0.055506 -0.183531 68 1 84
0.366350 -0.389630 -0.135018 68 1 84
-0.610384 -0.471547 0.252755 68 1 84
0.273981 0.084646 -0.214934 68 1 84
0.324114 -0.275918 -0.155285 68 1 84
-0.225525 0.307951 -0.220613 51 97 141
-0.069299 0.113116 -0.333692 146 215 65
-0.567632 -0.003670 0.103299 68 1 84
-0.436682 0.207370 -0.068168 68 1 84
0.558468 0.033303 0.098105 68 1 84
-0.188054 -0.161485 -0.198578 55 88 140
-0.627164 -0.100563 0.352044 68 1 84
-0.592052 0.224324 0.509162 68 1 84
-0.604440 0.141482 0.382274 68 1 84
-0.642956 -0.120791 0.433590 68 1 84
-0.106194 -0.493317 -0.225052 72 35 116
0.278226 0.309687 -0.179214 68 1 84
-0.552480 -0.411072 0.096232 68 1 84
0.407296 -0.332853 -0.126254 68 1 84
-0.488725 -0.533888 -0.064795 68 1 84
-0.615841 -0.079326 0.302360 68 1 84
-0.657384 -0.144464 0.509490 68 1 84
-0.034545 0.171398 -0.355155 30 158 136
0.185288 0.261426 -0.231293 69 52 127
-0.443231 -0.302507 -0.057576 68 1 84
-0.583827 -0.372241 0.150362 68 1 84
0.179550 0.301593 -0.221160 65 66 134
0.409692 0.108811 -0.124212 68 1 84
0.235888 0.554977 -0.070773 68 1 84
-0.394873 -0.439051 -0.109685 68 1 84
0.698962 -0.275213 0.506365 68 1 84
-0.223349 0.621387 -0.067331 72 26 108
0.592163 -0.489161 0.126174 68 1 84
-0.413946 0.517171 0.170590 68 1 84
0.612115 0.040286 0.502679 68 1 84
-0.663646 -0.316897 0.414947 68 1 84
0.451560 0.233735 -0.010967 68 1 84
-0.582318 -0.048735 0.130494 68 1 84
-0.515752 -0.566521 0.014416 68 1 84
-0.582634 0.134382 0.232943 68 1 84
-0.141502 -0.292083 -0.167038 70 12 95
0.038833 0.279820 -0.322092 32 165 133
0.411240 0.252996 -0.066957 68 1 84
0.074109 -0.298083 -0.285203 38 129 142
0.634860 -0.033460 0.521764 68 1 84
-0.154600 0.351664 -0.272671 35 168 131
-0.204746 0.458163 -0.196092 39 124 142
-0.240775 -0.176496 -0.159632 65 65 134
-0.622034 0.036915 0.423056 68 1 84
-0.513574 -0.390191 0.036111 68 1 84
-0.333423 0.228607 -0.175815 53 93 140
0.485325 0.316050 0.123049 68 1 84
0.512480 -0.332311 0.015587 68 1 84
-0.144723 0.122535 -0.289373 43 177 125
-0.366568 0.116098 -0.160746 71 43 122
0.199893 0.588654 -0.081617 68 1 84
-0.347815 0.460935 -0.056787 70 48 125
-0.625678 -0.529085 0.313245 68 1 84
0.660443 -0.124096 0.526775 68 1 84
0.594555 0.035097 0.346406 68 1 84
-0.526542 0.300548 0.160939 68 1 84
-0.161358 0.333331 -0.276250 40 174 127
0.128566 -0.107103 -0.302438 54 91 140
-0.581068 0.170073 0.246143 68 1 84
0.686206 -0.436596 0.404646 68 1 84
-0.177408 0.215916 -0.275650 77 194 107
0.330440 0.452298 -0.041819 68 1 84
-0.045928 0.375936 -0.292980 33 142 140
0.456488 -0.346724 -0.062132 68 1 84
0.118133 0.561281 -0.207142 71 17 99
-0.232684 0.268629 -0.211497 49 100 141
0.350125 0.018828 -0.178706 68 1 84
0.453412 0.237768 -0.005219 68 1 84
0.360032 -0.477002 -0.190434 68 1 84
-0.382110 -0.120327 -0.138881 68 1 84
-0.046796 -0.113020 -0.457051 167 219 51
-0.612384 0.097411 0.535527 68 1 84
0.368837 -0.343104 -0.153671 68 1 84
0.646776 -0.128621 0.409820 68 1 84
0.585756 0.115469 0.455162 68 1 84
-0.561248 0.317055 0.513029 68 1 84
-0.373884 0.538501 0.092749 68 2 85
-0.574988 -0.357447 0.127809 68 1 84
-0.189982 -0.578176 -0.244571 68 1 84
0.099877 0.167634 -0.325822 31 147 139
-0.130152 0.618071 -0.196920 61 75 137
-0.278250 0.600267 0.013560 70 14 97
0.689995 -0.261837 0.484585 68 1 84
0.128716 -0.486583 -0.236816 68 2 85
0.295916 0.108653 -0.206486 68 1 84
0.688309 -0.293145 0.443150 68 1 84
0.445023 0.087317 -0.089514 68 1 84
0.261978 0.408631 -0.141331 68 1 84
-0.405669 0.436088 0.016120 71 39 119
0.180952 -0.416175 -0.157792 68 1 84
0.292730 -0.432333 -0.154839 68 1 84
-0.486940 -0.192610 -0.059938 68 1 84
-0.428235 -0.381051 -0.064170 68 1 84
-0.245498 0.306688 -0.204732 56 86 139
0.317881 -0.294598 -0.168173 68 1 84
-0.292820 0.583534 -0.005332 71 39 119
0.414799 -0.193067 -0.106764 68 1 84
0.082726 -0.324326 -0.249659 49 102 141
-0.502291 0.407862 0.226215 68 1 84
-0.609885 -0.123862 0.221439 68 1 84
-0.684181 -0.425076 0.531315 68 1 84
-0.502674 0.084638 -0.002767 68 1 84
-0.092702 0.172932 -0.339461 75 194 108
0.214269 0.231411 -0.246960 71 42 121
0.381365 -0.203713 -0.119452 68 1 84
0.464333 -0.535196 -0.137097 68 1 84
0.110535 -0.251520 -0.254385 53 92 140
-0.275687 0.146385 -0.226262 39 126 142
0.462319 -0.427643 -0.086003 68 1 84
-0.629344 -0.217493 0.263501 68 1 84
-0.485170 -0.600657 -0.051819 68 1 84
-0.240470 -0.250996 -0.150217 69 52 127
0.341675 0.508781 0.048457 68 1 84
0.546127 0.128133 0.146867 68 1 84
-0.683785 -0.379953 0.529116 68 1 84
-0.103860 0.039921 -0.297560 105 204 91
-0.412024 -0.556506 -0.148724 68 1 84
-0.542248 0.368436 0.472551 68 1 84
-0.546835 0.291705 0.217318 68 1 84
0.655620 -0.516495 0.309477 68 1 84
-0.657213 -0.532195 0.428063 68 1 84
0.500216 0.386457 0.404788 68 1 84
-0.062042 0.057766 -0.337271 75 194 108
-0.113448 0.624198 -0.198216 61 75 137
-0.467196 0.191987 -0.024790 68 1 84
0.638557 -0.475750 0.258957 68 1 84
0.346464 0.386028 -0.076725 68 1 84
-0.368589 0.230566 -0.140575 67 60 132
0.531236 -0.224984 0.004812 68 1 84
0.478306 0.406847 0.256035 68 1 84
0.489167 -0.344701 -0.018719 68 1 84
0.590290 -0.405344 0.128498 68 1 84
0.565400 -0.379635 0.081148 68 1 84
-0.436319 -0.384679 -0.053819 68 1 84
0.382516 -0.407291 -0.134380 68 1 84
0.473514 -0.195421 -0.068962 68 1 84
0.699903 -0.465257 0.461825 68 1 84
0.412948 0.378135 0.023220 68 1 84
0.578021 0.007956 0.157360 68 1 84
-0.211545 0.182264 -0.259624 30 152 138
0.148008 -0.031058 -0.317282 49 102 141
0.316890 -0.335607 -0.179464 68 1 84
0.631395 -0.044550 0.471677 68 1 84
0.527058 0.165721 0.114762 68 1 84
0.696190 -0.280783 0.539024 68 1 84
0.681629 -0.241094 0.463660 68 1 84
-0.130033 0.587474 -0.221187 53 92 140
0.292091 0.573567 0.083420 68 1 84
-0.555538 0.332967 0.341747 68 1 84
0.297218 0.556668 0.049730 68 1 84
0.253075 -0.382157 -0.148181 68 1 84
0.488021 -0.563936 -0.103730 68 1 84
-0.236563 -0.189624 -0.156799 63 69 135
-0.139993 -0.437664 -0.159632 71 21 103
0.292482 0.526855 -0.015129 68 1 84
0.462391 -0.532746 -0.138201 68 1 84
0.504340 0.312942 0.180584 68 1 84
0.366245 -0.358655 -0.147804 68 1 84
-0.610400 -0.448538 0.245767 68 1 84
0.612917 -0.457543 0.181505 68 1 84
0.376436 0.324438 -0.076611 68 1 84
-0.469738 -0.204118 -0.071543 68 1 84
0.454159 0.232453 -0.006968 68 1 84
0.033872 0.648439 -0.165317 70 12 95
-0.359378 -0.096941 -0.153719 68 1 84
0.047729 -0.404492 -0.271113 55 88 140
0.417020 0.077129 -0.123800 68 1 84
0.091345 0.421425 -0.233597 71 43 122
-0.645290 -0.264648 0.327326 68 1 84
0.396556 0.133729 -0.132035 68 1 84
0.208063 0.014573 -0.223906 71 15 98
0.623403 -0.240164 0.184739 68 1 84
0.451390 -0.513662 -0.140889 68 1 84
-0.076377 0.206015 -0.332744 131 211 75
0.028720 0.364264 -0.312527 49 101 141
-0.436448 -0.124362 -0.109880 68 1 84
-0.662220 -0.442335 0.414201 68 1 84
-0.278164 -0.589578 -0.219700 70 9 92
0.686969 -0.279332 0.438184 68 1 84
-0.228539 -0.561501 -0.223676 70 9 92
-0.595744 -0.146175 0.131023 68 1 84
0.401949 0.390625 0.014443 68 1 84
-0.297769 0.258724 -0.194727 52 95 141
-0.039211 -0.460321 -0.260371 72 34 115
0.702195 -0.464036 0.476629 68 1 84
-0.645956 -0.272631 0.327058 68 1 84
0.441811 -0.289080 -0.079578 68 1 84
-0.509406 0.424227 0.309691 68 1 84
-0.678016 -0.490030 0.496171 68 1 84
0.469117 0.321231 0.087529 68 1 84
-0.023562 -0.312707 -0.327544 52 94 141
0.234482 -0.336830 -0.172717 68 1 84
-0.218968 -0.323091 -0.174730 72 26 108
-0.474939 0.155607 -0.025465 68 1 84
0.632691 -0.515923 0.237452 68 1 84
0.127018 0.472806 -0.210707 71 43 122
0.392863 -0.445787 -0.160374 68 1 84
0.543361 -0.027337 0.011893 68 1 84
0.544191 -0.137798 -0.005805 68 1 84
0.174598 0.299617 -0.224232 60 77 138
0.649436 -0.125448 0.429905 68 1 84
0.521683 -0.103914 -0.039326 68 1 84
-0.127677 -0.116729 -0.300406 46 178 124
-0.297822 -0.490056 -0.179046 68 1 84
-0.573720 -0.492178 0.156591 68 1 84
0.475076 -0.523967 -0.126585 68 1 84
-0.048258 0.394612 -0.270287 49 100 141
-0.355872 0.534138 0.037278 71 22 105
0.007964 -0.161138 -0.436930 114 207 85
0.647176 -0.165737 0.343853 68 1 84
-0.149953 -0.016511 -0.277442 69 191 111
0.137885 -0.258723 -0.199893 68 55 129
-0.289434 -0.594270 -0.215461 69 8 91
-0.024629 -0.002872 -0.415812 215 226 25
0.640393 -0.143224 0.334117 68 1 84
0.412959 0.191994 -0.093724 68 1 84
-0.496520 0.445703 0.345727 68 1 84
-0.558948 0.133215 0.154543 68 1 84
0.704313 -0.455722 0.492990 68 1 84
-0.537861 0.385332 0.380647 68 1 84
-0.102167 -0.548544 -0.268178 68 1 84
-0.548789 0.232491 0.175271 68 1 84
-0.209393 0.092996 -0.244247 31 147 139
0.271533 -0.161574 -0.156296 68 1 84
0.656755 -0.196567 0.352577 68 1 84
-0.640497 -0.197121 0.335828 68 1 84
-0.039442 0.664726 -0.139127 72 25 107
-0.483649 -0.112991 -0.072983 68 1 84
-0.154189 -0.427588 -0.151645 69 5 88
0.631791 -0.200023 0.222512 68 1 84
-0.540265 -0.082311 0.002836 68 1 84
0.462253 0.417386 0.200599 68 1 84
-0.037044 -0.528377 -0.283253 71 44 123
0.372688 0.458912 0.035355 68 1 84
-0.223648 0.608500 -0.104183 72 32 113
-0.236116 -0.582938 -0.233044 68 1 84
0.484085 0.095149 -0.029789 68 1 84
-0.565987 -0.249916 0.070845 68 1 84
-0.029956 -0.100634 -0.467440 202 224 30
-0.121997 -0.117365 -0.321376 71 192 110
-0.308763 -0.201351 -0.138069 71 37 117
-0.026977 0.175609 -0.356305 44 177 125
0.019794 -0.200249 -0.400267 136 213 71
-0.357062 0.452201 -0.050813 70 47 124
0.498812 0.378232 0.326199 68 1 84
-0.451836 0.428923 0.104188 68 1 84
-0.163420 0.629794 -0.156343 65 65 134
0.647626 -0.133877 0.405502 68 1 84
0.421656 0.455611 0.143212 68 1 84
-0.018581 -0.281057 -0.348393 36 134 141
0.139198 -0.078692 -0.299417 46 108 142
-0.611510 0.083617 0.380083 68 1 84
0.646119 -0.108519 0.442294 68 1 84
-0.674144 -0.528994 0.511670 68 1 84
-0.018779 0.543273 -0.257935 53 93 140
0.332759 -0.001231 -0.185788 68 1 84
-0.599757 -0.037449 0.228694 68 1 84
-0.050145 0.298336 -0.332100 85 198 102
0.655062 -0.256346 0.312807 68 1 84
0.556548 -0.493733 0.023313 68 1 84
-0.478892 -0.373494 -0.001258 68 1 84
-0.635267 -0.152462 0.344737 68 1 84
0.481982 0.310073 0.108515 68 1 84
-0.372184 0.070886 -0.160736 72 30 112
-0.546586 0.271237 0.197251 68 1 84
-0.159431 -0.113693 -0.233038 30 157 136
-0.068033 0.404722 -0.264233 46 108 142
-0.383472 0.479481 0.018510 70 12 95
0.373332 0.453498 0.029448 68 1 84
-0.308267 0.577188 0.017237 70 11 94
-0.650523 -0.193542 0.401174 68 1 84
-0.306652 -0.413076 -0.138851 68 1 84
0.561660 0.121354 0.214699 68 1 84
0.421293 -0.100981 -0.124039 68 1 84
-0.122014 -0.471156 -0.192465 69 6 90
0.543507 0.181396 0.189101 68 1 84
-0.323834 0.578530 0.074140 68 1 84
0.602861 0.027530 0.402478 68 1 84
-0.243212 -0.108626 -0.189314 64 68 135
-0.352367 0.243333 -0.153949 66 62 133
0.111512 -0.162148 -0.308704 40 122 142
-0.006281 0.567768 -0.248711 65 65 134
-0.128056 -0.137888 -0.276203 34 138 141
-0.327254 -0.364319 -0.157097 68 1 84
0.154927 0.447591 -0.196419 69 8 91
-0.628345 -0.250937 0.253968 68 1 84
-0.666491 -0.257192 0.445573 68 1 84
0.628583 -0.148853 0.243884 68 1 84
0.068718 0.618149 -0.198329 71 43 122
0.279746 0.401117 -0.133152 68 1 84
0.631749 -0.047856 0.468150 68 1 84
0.057148 0.643707 -0.163847 69 5 88
0.677259 -0.220260 0.491503 68 1 84
-0.366871 0.508866 0.021859 72 30 112
0.494055 0.049927 -0.034874 68 1 84
-0.625109 -0.509396 0.306676 68 1 84
0.143310 -0.115535 -0.267818 65 65 134
0.145035 0.301376 -0.250393 46 109 142
-0.218328 0.480778 -0.183735 48 104 141
-0.138622 0.456716 -0.235917 49 102 141
0.324424 -0.266146 -0.149987 68 1 84
0.581617 -0.274847 0.102161 68 1 84
0.507772 -0.147604 -0.051782 68 1 84
-0.122181 -0.209693 -0.253369 35 135 141
0.053155 -0.215829 -0.366764 33 167 132
0.424111 -0.310204 -0.104201 68 1 84
0.369757 0.349136 -0.070752 68 1 84
0.650577 -0.088646 0.515402 68 1 84
-0.090259 -0.486418 -0.232190 71 44 123
-0.101935 0.079378 -0.303705 96 201 96
0.537563 0.241254 0.532497 68 1 84
0.667513 -0.181442 0.493431 68 1 84
0.459950 -0.314468 -0.053274 68 1 84
-0.028202 0.663293 -0.140260 71 20 102
-0.474034 -0.465200 -0.054866 68 1 84
-0.039528 -0.550032 -0.284489 72 25 107
-0.600750 0.095982 0.308695 68 1 84
-0.043241 0.170184 -0.354120 35 168 131
-0.416125 0.151058 -0.110255 68 1 84
-0.593454 0.063846 0.251425 68 1 84
0.108221 -0.137655 -0.331707 31 150 139
0.089814 -0.177022 -0.341804 30 158 136
0.120871 -0.023976 -0.372183 44 113 142
-0.383536 0.254496 -0.119379 69 52 127
0.554750 0.022214 0.073790 68 1 84
-0.166268 -0.468416 -0.168556 68 1 84
-0.293847 0.180753 -0.216370 42 117 142
-0.104665 0.638288 -0.182316 71 38 118
0.493285 0.401370 0.398374 68 1 84
0.645064 -0.175801 0.313079 68 1 84
0.094822 0.209596 -0.324041 34 138 141
-0.069301 -0.422416 -0.224517 72 35 116
-0.149208 0.641640 -0.145943 72 33 114
-0.563800 -0.027062 0.079708 68 1 84
0.444742 -0.445048 -0.114969 68 1 84
0.085793 -0.526218 -0.279317 71 40 120
0.656722 -0.243425 0.321442 68 1 84
-0.575793 0.292754 0.418694 71 22 105
-0.325066 -0.297031 -0.153029 68 1 84
0.166232 -0.003103 -0.242877 64 68 135
-0.111725 -0.066470 -0.392551 202 224 30
0.308713 0.540291 0.039296 68 1 84
-0.663283 -0.241924 0.433395 68 1 84
0.502856 0.030612 -0.029977 68 1 84
0.391519 0.351515 -0.037194 68 1 84
-0.169632 0.457496 -0.220066 39 124 142
0.557503 -0.180148 0.025516 68 1 84
0.039557 -0.239880 -0.363128 41 175 127
0.505498 -0.308730 0.005160 68 1 84
0.605363 -0.495614 0.163869 68 1 84
-0.638223 -0.022931 0.486163 68 1 84
-0.198822 0.600622 -0.159186 55 89 140
-0.686506 -0.340930 0.500435 68 1 84
0.470088 0.432508 0.306198 68 1 84
-0.627278 -0.186750 0.267956 68 1 84
0.007097 0.608368 -0.222774 71 42 121
0.580593 -0.402319 0.107005 68 1 84
0.646760 -0.113882 0.435829 68 1 84
-0.599330 0.154253 0.353747 68 1 84
-0.560959 0.229420 0.211149 68 1 84
-0.393029 -0.434202 -0.108839 68 1 84
-0.524980 -0.164251 -0.023283 68 1 84
0.056012 0.647996 -0.154547 71 15 98
-0.113040 -0.149167 -0.306678 37 171 129
-0.652330 -0.276217 0.353270 68 1 84
0.300166 -0.187807 -0.146376 68 1 84
0.620819 -0.170134 0.186427 68 1 84
0.643184 -0.185698 0.291143 68 1 84
-0.424328 0.164404 -0.098221 68 1 84
0.209780 0.600515 -0.030762 68 1 84
-0.637633 -0.452542 0.338484 68 1 84
0.614572 -0.223317 0.157337 68 1 84
-0.129130 -0.050809 -0.363299 119 208 82
0.064013 -0.030797 -0.427977 98 202 95
0.229617 -0.437597 -0.165629 68 1 84
0.558470 -0.351157 0.076995 68 1 84
0.028210 0.135983 -0.342645 37 171 129
-0.290047 0.238057 -0.206768 46 108 142
0.145714 -0.295529 -0.176760 70 11 94
-0.678234 -0.315343 0.493573 68 1 84
0.085976 -0.171427 -0.355409 30 153 138
0.064837 0.237397 -0.304357 37 171 129
-0.480442 -0.264099 -0.036830 68 1 84
0.322056 0.281984 -0.157242 68 1 84
-0.655955 -0.092856 0.547338 68 1 84
-0.280316 0.565840 -0.068224 67 58 131
-0.587430 0.205326 0.320512 68 1 84
0.551046 -0.521735 0.008458 68 1 84
0.122550 0.631235 -0.122291 69 5 88
-0.128546 0.155488 -0.314446 103 204 92
0.146203 -0.379034 -0.164842 68 1 84
0.495518 0.243788 0.087010 68 1 84
0.335500 -0.494246 -0.199304 68 1 84
-0.191489 -0.231828 -0.160699 71 39 119
-0.319261 0.185608 -0.195076 44 113 142
-0.557122 0.113145 0.139379 68 1 84
-0.183195 0.352938 -0.247727 33 167 132
0.204097 0.231244 -0.252387 69 54 129
-0.244553 -0.510745 -0.184532 68 2 85
0.401836 0.448823 0.081038 68 1 84
-0.040097 0.518371 -0.263223 49 102 141
0.133616 -0.457609 -0.212085 68 1 84
-0.622283 -0.364837 0.257286 68 1 84
0.298465 0.522776 -0.010855 68 1 84
0.251227 0.447505 -0.129519 68 1 84
0.048877 0.192562 -0.346051 42 176 126
0.511473 0.352332 0.466854 68 1 84
0.017837 0.342211 -0.331622 30 159 136
-0.253169 0.331230 -0.197916 38 128 142
0.096577 0.527043 -0.228359 70 49 126
-0.510636 -0.434665 0.012980 68 1 84
0.622005 -0.086696 0.302609 68 1 84
-0.512211 0.117918 0.030834 68 1 84
0.485977 -0.257625 -0.034552 68 1 84
-0.076480 0.038842 -0.331689 126 210 78
-0.587467 -0.232611 0.112511 68 1 84
0.425277 0.491916 0.352015 68 1 84
-0.561917 0.339547 0.448792 68 1 84
0.293910 -0.454633 -0.178586 68 1 84
0.204960 0.306024 -0.205162 70 12 95
-0.442753 -0.096397 -0.108971 68 1 84
-0.180485 -0.477235 -0.171334 68 1 84
0.550874 -0.042864 0.020059 68 1 84
0.392049 0.313023 -0.061003 68 1 84
-0.349253 0.394846 -0.099709 62 73 137
-0.066030 0.200031 -0.340957 119 208 82
-0.683796 -0.446730 0.527236 68 1 84
-0.581322 0.273312 0.421288 71 22 105
-0.072123 0.043986 -0.334203 107 205 89
0.254029 -0.312565 -0.178523 68 1 84
-0.209292 -0.549900 -0.222566 68 1 84
0.173087 0.259318 -0.238514 64 67 135
-0.557906 0.022426 0.088960 68 1 84
0.701011 -0.381120 0.496871 68 1 84
-0.491946 0.421908 0.215283 68 1 84
-0.259763 0.481315 -0.146872 49 100 141
-0.043922 -0.329514 -0.294956 49 102 141
-0.590988 -0.090343 0.140678 68 1 84
0.646782 -0.481649 0.286616 68 1 84
-0.546396 0.222308 0.161879 68 1 84
0.311222 -0.466752 -0.191144 68 1 84
0.046427 0.450029 -0.245079 61 74 137
0.404987 -0.332036 -0.128991 68 1 84
0.578178 -0.044071 0.095331 68 1 84
0.594056 -0.005221 0.258809 68 1 84
-0.158768 0.183110 -0.298486 75 194 108
-0.620186 -0.285881 0.223281 68 1 84
-0.570446 -0.213787 0.066399 68 1 84
0.551388 0.236481 0.479932 68 1 84
0.420547 -0.495909 -0.154941 68 1 84
0.506368 -0.175044 -0.046001 68 1 84
-0.341102 -0.335219 -0.159626 68 1 84
-0.507088 0.216250 0.062365 68 1 84
0.429982 -0.266959 -0.091051 68 1 84
-0.564573 0.318293 0.380147 68 2 85
0.345859 0.090717 -0.178796 68 1 84
0.594191 -0.057843 0.156871 68 1 84
0.673506 -0.425060 0.361254 68 1 84
0.440464 -0.406825 -0.094083 68 1 84
-0.089246 0.015764 -0.320838 98 202 95
-0.158791 0.638537 -0.142283 72 29 111
0.078029 -0.166407 -0.376740 40 174 127
-0.346772 0.542134 0.031268 71 21 103
-0.319913 0.564747 0.015198 71 20 102
-0.518475 0.279415 0.123396 68 1 84
-0.055500 -0.045894 -0.443037 253 231 36
0.174493 -0.128580 -0.226200 72 25 107
-0.552702 0.211221 0.173369 68 1 84
0.109768 -0.280169 -0.231376 58 83 139
-0.681700 -0.473504 0.518116 68 1 84
0.538759 0.249475 0.255674 68 1 84
-0.338068 0.445744 -0.079246 71 40 120
0.625236 -0.492267 0.219382 68 1 84
0.106770 0.319433 -0.289911 48 104 141
-0.324841 0.121629 -0.190094 57 84 139
-0.569925 0.277800 0.535562 68 1 84
0.608837 -0.395565 0.170467 68 1 84
-0.648253 -0.276764 0.335055 68 1 84
-0.225899 0.492237 -0.175738 49 100 141
0.484972 -0.547610 -0.109942 68 1 84
-0.266645 0.332647 -0.188740 41 120 142
0.578930 0.019166 0.181436 68 1 84
-0.601816 0.008860 0.272555 68 1 84
0.648837 -0.090353 0.496244 68 1 84
0.429942 0.460519 0.180190 68 1 84
-0.660291 -0.253414 0.405142 68 1 84
-0.304573 0.426742 -0.124736 54 90 140
-0.048392 -0.396541 -0.253295 71 43 122
-0.422475 0.517536 0.239496 68 1 84
-0.498919 -0.409239 0.010541 68 1 84
-0.279133 -0.199638 -0.143211 70 45 124
-0.569496 0.310946 0.408390 71 24 106
0.666812 -0.175116 0.543408 68 1 84
0.187424 -0.154890 -0.204835 72 32 113
0.352054 -0.152664 -0.139368 68 1 84
-0.645010 -0.433036 0.357112 68 1 84
0.247842 -0.229090 -0.152345 68 1 84
0.592689 -0.495619 0.128073 68 1 84
-0.612930 0.110016 0.421431 68 1 84
0.003965 0.008616 -0.402467 126 210 78
0.365126 -0.081854 -0.152993 68 1 84
-0.218369 -0.401228 -0.153492 68 1 84
-0.624411 0.031679 0.435804 68 1 84
0.645696 -0.180645 0.311012 68 1 84
0.051510 -0.189586 -0.389125 54 184 119
0.583233 0.118563 0.438147 68 1 84
-0.423150 -0.511242 -0.124516 68 1 84
-0.098165 -0.374183 -0.178405 70 11 94
0.527335 -0.427856 -0.020600 68 1 84
-0.151217 -0.212013 -0.208664 57 84 139
0.527642 -0.022577 -0.014798 68 1 84
0.418113 0.290737 -0.034323 68 1 84
-0.440348 0.500124 0.233982 68 1 84
0.663351 -0.163008 0.455649 68 1 84
0.144149 -0.208965 -0.229160 54 91 140
0.536464 0.284584 0.397038 68 1 84
-0.154636 0.232884 -0.272199 32 144 140
-0.088394 -0.436582 -0.201814 72 29 111
-0.372459 0.553265 0.162296 68 1 84
0.519427 0.339231 0.468720 68 1 84
0.640449 -0.239580 0.250415 68 1 84
-0.442979 0.397236 0.051015 69 8 91
0.476467 -0.406364 -0.058261 68 1 84
-0.160374 0.172226 -0.296736 75 194 108
-0.524944 -0.177196 -0.020381 68 1 84
0.429785 0.332521 0.015848 68 1 84
-0.023018 -0.369603 -0.288312 59 81 138
-0.029082 0.536077 -0.260053 55 89 140
0.578355 0.133670 0.429550 68 1 84
-0.661410 -0.526083 0.438452 68 1 84
-0.612942 -0.163485 0.204790 68 1 84
-0.365490 -0.044002 -0.163244 68 1 84
-0.067131 0.082002 -0.331822 75 194 108
-0.478279 0.464420 0.275983 68 1 84
-0.175148 0.370700 -0.244718 34 139 141
-0.565786 0.112115 0.163977 68 1 84
0.584800 0.078216 0.348419 68 1 84
-0.506543 -0.354395 0.028150 68 1 84
-0.380118 0.540780 0.122046 68 1 84
0.270140 -0.376651 -0.151080 68 1 84
0.262598 0.177773 -0.227596 68 1 84
0.225605 0.525019 -0.110443 68 1 84
0.463470 0.431215 0.248598 68 1 84
-0.320184 0.446108 -0.099544 58 83 139
0.585620 0.107175 0.432599 68 1 84
-0.573379 0.273412 0.318600 68 1 84
-0.100777 -0.335449 -0.189564 71 24 106
-0.166486 -0.363306 -0.150177 68 1 84
0.192800 0.582052 -0.107800 68 1 84
0.151562 -0.289513 -0.174485 68 1 84
-0.072164 -0.148894 -0.408383 112 206 86
-0.460159 0.455804 0.172066 68 1 84
0.316208 -0.531457 -0.205827 68 1 84
-0.086607 -0.091769 -0.424343 191 223 36
0.590664 0.055414 0.355070 68 1 84
0.000751 -0.562284 -0.288032 71 44 123
0.603551 0.004555 0.358609 68 1 84
0.588499 -0.042220 0.145931 68 1 84
-0.486782 -0.553780 -0.064817 68 1 84
0.567877 0.156001 0.367610 68 1 84
0.169975 0.557465 -0.162120 68 1 84
0.115607 0.631399 -0.134069 71 15 98
0.378344 0.233775 -0.118217 68 1 84
-0.647537 -0.341301 0.328181 68 1 84
0.629149 -0.132973 0.268329 68 1 84
-0.181625 0.062173 -0.243718 38 127 142
-0.574841 0.116421 0.196881 68 1 84
0.333411 0.071236 -0.187449 68 1 84
0.324905 0.290778 -0.150926 68 1 84
-0.134001 0.542256 -0.235204 51 96 141
-0.574008 0.118590 0.195081 68 1 84
-0.287627 0.058665 -0.204210 55 88 140
-0.578210 0.236424 0.292201 68 1 84
0.170682 -0.509838 -0.240850 71 17 99
0.637665 -0.077324 0.451940 68 1 84
-0.606597 -0.058134 0.260604 68 1 84
0.623149 -0.134042 0.229442 68 1 84
-0.373972 -0.299065 -0.122561 68 1 84
-0.519623 -0.434312 0.028687 68 1 84
-0.079319 0.369049 -0.298155 38 172 129
0.270289 0.373174 -0.153588 68 1 84
0.041237 0.392379 -0.268375 60 78 138
0.225561 -0.028208 -0.216800 68 1 84
0.437346 0.245032 -0.029174 68 1 84
-0.338565 0.562850 0.056138 68 3 87
0.053353 0.144077 -0.340752 35 168 131
0.053288 -0.354244 -0.283623 57 85 139
0.110693 0.043150 -0.295886 53 92 140
0.253441 0.045687 -0.215748 68 1 84
-0.575902 0.123594 0.203342 68 1 84
0.570838 0.120427 0.293723 68 1 84
-0.488256 0.455591 0.313848 68 1 84
0.694434 -0.296944 0.494057 68 1 84
-0.073344 0.566105 -0.247995 49 101 141
0.511952 0.310190 0.209108 68 1 84
0.098270 0.526991 -0.227464 69 54 129
-0.109470 0.531130 -0.247411 49 101 141
-0.178879 -0.202435 -0.183092 60 77 138
-0.300632 0.556690 -0.040799 72 35 116
0.706937 -0.425189 0.531172 68 1 84
0.239751 -0.134973 -0.180559 68 1 84
-0.010061 -0.322725 -0.326969 44 112 142
0.502327 0.356113 0.253092 68 1 84
-0.524845 0.404060 0.342944 68 1 84
-0.417124 0.388053 -0.006084 70 9 92
-0.488034 -0.591517 -0.049250 68 1 84
-0.079969 0.199711 -0.335806 136 213 71
-0.466198 0.445640 0.171883 68 1 84
0.286978 -0.182762 -0.149016 68 1 84
0.544292 0.241915 0.301511 68 1 84
-0.126589 -0.558329 -0.264268 71 24 106
0.704856 -0.474618 0.511841 68 1 84
0.521974 0.329581 0.399107 68 1 84
0.423784 0.442842 0.125480 68 1 84
-0.525713 -0.449280 0.034131 68 1 84
-0.151578 -0.369973 -0.146176 68 1 84
-0.055486 -0.218606 -0.355793 30 152 138
0.521374 0.255981 0.177009 68 1 84
0.451411 -0.388668 -0.076979 68 1 84
-0.618586 -0.336968 0.233766 68 1 84
0.667589 -0.319217 0.346862 68 1 84
-0.212458 -0.189163 -0.167902 63 71 136
-0.583170 -0.248339 0.107425 68 1 84
0.030957 0.504914 -0.256647 66 64 133
0.171210 0.610495 -0.086885 68 1 84
0.055970 0.504757 -0.247948 65 65 134
-0.235868 0.472478 -0.170166 47 105 141
-0.102162 0.092816 -0.307716 100 203 93
0.566474 -0.174203 0.040011 68 1 84
-0.291053 -0.084888 -0.182138 63 71 136
0.093416 -0.394413 -0.222936 68 1 84
0.413846 0.503618 0.320026 68 1 84
-0.150088 -0.109493 -0.244290 32 164 133
0.456284 -0.267168 -0.063092 68 1 84
0.542824 0.139532 0.144712 68 1 84
-0.441853 0.386576 0.039037 71 24 106
0.061607 -0.314602 -0.295381 42 117 142
-0.335012 0.002711 -0.182230 72 30 112
0.049958 -0.051406 -0.452121 107 205 89
0.439890 0.467470 0.246834 68 1 84
0.145169 -0.025469 -0.329422 51 97 141
0.319404 -0.457012 -0.184567 68 1 84
0.154318 0.053919 -0.253575 43 116 142
0.010217 0.430552 -0.254981 62 72 136
-0.469613 0.375214 0.087825 68 1 84
0.107955 -0.293853 -0.224547 46 108 142
0.561723 -0.469248 0.039396 68 1 84
0.489787 0.217181 0.057465 68 1 84
0.177419 -0.461683 -0.195999 68 1 84
0.539993 -0.421012 0.006680 68 1 84
-0.454393 0.474568 0.195069 68 1 84
0.538240 0.273905 0.338810 68 1 84
-0.624685 -0.051481 0.376298 68 1 84
-0.243893 0.566793 -0.131253 60 77 138
0.595436 0.064040 0.420419 68 1 84
0.455384 0.456874 0.305535 68 1 84
0.600231 -0.101526 0.137198 68 1 84
-0.615987 -0.176979 0.214362 68 1 84
0.595578 -0.095823 0.121219 68 1 84
-0.614574 0.106465 0.514477 68 1 84
-0.270698 -0.167525 -0.153019 65 66 134
-0.384893 -0.526550 -0.156601 68 1 84
-0.447007 0.453674 0.128817 70 11 94
-0.513282 0.421888 0.425094 68 1 84
0.362105 0.469055 0.028848 68 1 84
0.176638 0.598076 -0.107927 68 1 84
0.244916 -0.353885 -0.165311 68 1 84
-0.377462 -0.130633 -0.138379 68 1 84
-0.382146 0.258944 -0.119844 71 42 121
-0.130010 -0.263722 -0.195995 70 49 126
0.441102 0.424321 0.140926 68 1 84
-0.060705 0.343435 -0.327277 56 185 118
-0.443635 -0.592798 -0.124216 68 1 84
0.216231 0.605913 0.008438 68 1 84
-0.342566 0.537343 0.014428 71 21 103
0.510549 0.363189 0.418182 68 1 84
0.368094 0.372361 -0.057399 68 1 84
-0.501269 0.414082 0.235593 70 12 95
0.562436 0.057968 0.143401 68 1 84
0.337280 0.483019 0.001704 68 1 84
0.465946 0.306495 0.067910 68 1 84
0.434637 0.105394 -0.096304 68 1 84
-0.029348 -0.504982 -0.278354 72 35 116
-0.586541 0.163858 0.268775 68 1 84
0.561180 -0.479476 0.036445 68 1 84
0.455687 -0.043221 -0.105161 68 1 84
0.486309 0.168808 0.018533 68 1 84
-0.248387 0.074866 -0.221981 38 128 142
-0.233494 0.592185 -0.116195 64 68 135
-0.075737 -0.326263 -0.240731 71 43 122
0.581079 -0.015512 0.139780 68 1 84
0.214111 0.541364 -0.115556 68 1 84
0.497671 -0.123063 -0.065298 68 1 84
-0.494756 -0.585439 -0.035909 68 1 84
0.293855 0.199903 -0.205147 68 1 84
-0.280817 0.403311 -0.157253 46 109 142
-0.127791 -0.051879 -0.366361 126 210 78
0.024357 -0.234149 -0.375045 57 185 118
0.380970 0.413432 -0.001464 68 1 84
0.093950 -0.149048 -0.360907 30 157 136
0.191046 0.392087 -0.194866 68 1 84
0.630927 -0.042918 0.471571 68 1 84
-0.494607 0.376106 0.152995 68 1 84
0.159519 0.266146 -0.237001 54 90 140
0.657004 -0.143973 0.441068 68 1 84
-0.530011 0.377187 0.287444 68 1 84
-0.115821 -0.149200 -0.299253 33 167 132
0.622318 -0.130613 0.228799 68 1 84
-0.184822 -0.405242 -0.147897 68 1 84
-0.225434 -0.251659 -0.151812 69 52 127
-0.617066 -0.525056 0.281294 68 1 84
-0.508276 0.390573 0.215964 68 1 84
0.022373 0.033110 -0.362472 103 204 92
-0.595097 0.107063 0.281632 68 1 84
0.115356 -0.114825 -0.332293 34 139 141
-0.307228 0.423036 -0.124136 50 99 141
-0.565905 -0.121796 0.048315 68 1 84
0.595671 0.054414 0.399972 68 1 84
0.556622 0.163547 0.240958 68 1 84
-0.172370 0.017836 -0.230855 36 134 141
-0.534602 0.364694 0.280062 68 1 84
0.292045 -0.182198 -0.148330 68 1 84
-0.598555 0.112246 0.305681 68 1 84
-0.314546 0.549900 -0.022657 70 45 124
-0.679444 -0.445386 0.483344 68 1 84
0.540392 0.120485 0.120652 68 1 84
0.466797 0.186518 -0.010921 68 1 84
-0.092152 -0.252458 -0.272872 60 78 138
0.375545 0.323559 -0.078338 68 1 84
-0.574393 -0.099888 0.075413 68 1 84
0.165550 0.288354 -0.228808 52 94 141
-0.494131 0.408242 0.196966 68 1 84
0.286003 -0.154657 -0.154788 68 1 84
0.615514 -0.000030 0.444506 68 1 84
-0.030240 -0.190137 -0.402995 43 177 125
-0.619709 0.082968 0.512913 68 1 84
-0.592844 -0.255643 0.132424 68 1 84
-0.296354 -0.566999 -0.204259 70 9 92
-0.592519 -0.568735 0.217745 68 1 84
-0.003763 -0.432286 -0.275481 59 81 138
0.355027 0.016539 -0.175643 68 1 84
-0.645896 -0.034882 0.527900 68 1 84
-0.085396 0.529052 -0.255029 47 105 141
0.272658 0.431773 -0.120472 68 1 84
0.498926 0.382976 0.358229 68 1 84
-0.200479 -0.367748 -0.160482 68 1 84
0.703311 -0.397851 0.507799 68 1 84
-0.513957 0.291329 0.120402 68 1 84
-0.683236 -0.388764 0.508825 68 1 84
-0.461549 0.154672 -0.048749 68 1 84
0.172076 -0.533359 -0.249983 70 11 94
-0.005036 0.626982 -0.205214 67 58 131
0.040321 0.310861 -0.333290 32 164 133
0.085352 0.259736 -0.287758 34 138 141
-0.116633 -0.236376 -0.243842 56 86 139
-0.600014 0.192217 0.417193 68 1 84
0.304615 -0.258144 -0.150953 68 1 84
0.197226 0.175408 -0.264988 72 35 116
-0.271323 0.154155 -0.229645 41 120 142
0.324003 0.504555 0.006827 68 1 84
-0.159121 0.139611 -0.286980 38 172 129
0.413563 0.403090 0.047333 68 1 84
-0.573772 -0.269803 0.095957 68 1 84
0.600440 -0.178408 0.115589 68 1 84
-0.404511 0.466116 0.044768 72 29 111
0.385207 -0.136868 -0.132814 68 1 84
-0.374156 0.399494 -0.066832 71 44 123
0.505714 0.280491 0.146629 68 1 84
0.610934 -0.333224 0.168815 68 1 84
-0.679736 -0.425158 0.465254 68 1 84
0.624130 -0.111503 0.269579 68 1 84
0.470147 0.017135 -0.080996 68 1 84
0.178245 0.020143 -0.233972 66 62 133
0.170283 0.311165 -0.229845 54 90 140
0.641135 -0.399006 0.258984 68 1 84
-0.634797 -0.372317 0.299600 68 1 84
0.453112 0.136978 -0.059855 68 1 84
-0.186554 0.404015 -0.221802 42 117 142
-0.471214 -0.188682 -0.074521 68 1 84
0.538592 0.273960 0.345621 68 1 84
-0.136335 -0.231590 -0.215756 54 91 140
-0.053815 -0.522746 -0.275490 69 53 128
-0.584798 0.266087 0.452234 70 11 94
-0.016872 0.379818 -0.287507 38 127 142
0.509962 -0.546565 -0.080794 68 1 84
0.496075 -0.222881 -0.037107 68 1 84
-0.570283 -0.329022 0.110736 68 1 84
-0.630029 -0.331808 0.274190 68 1 84
-0.636373 -0.194846 0.312138 68 1 84
0.071221 -0.012487 -0.366902 54 184 119
-0.149463 -0.055322 -0.318360 100 203 93
0.335449 -0.342227 -0.171538 68 1 84
-0.543420 -0.010508 0.036723 68 1 84
0.010655 0.016914 -0.384742 112 206 86
-0.606569 -0.071008 0.248182 68 1 84
-0.076193 -0.363284 -0.216322 72 25 107
0.340934 0.143032 -0.177543 68 1 84
0.179373 0.417619 -0.192193 71 17 99
-0.131745 -0.388212 -0.150720 69 8 91
0.426777 0.161223 -0.087246 68 1 84
-0.660476 -0.180238 0.507865 68 1 84
-0.581829 0.280063 0.475343 68 1 84
-0.574148 0.288519 0.375993 68 1 84
0.228250 0.351255 -0.185264 68 1 84
0.547477 0.137592 0.161162 68 1 84
0.473558 0.278016 0.061241 68 1 84
-0.119298 0.639621 -0.174008 70 45 124
0.099462 -0.262064 -0.266585 52 95 141
0.439122 0.464102 0.230430 68 1 84
0.582309 0.095094 0.363509 68 1 84
-0.603614 -0.373730 0.198096 68 1 84
0.437086 -0.570919 -0.148559 68 1 84
-0.153466 -0.553978 -0.255338 71 22 105
-0.063040 -0.120518 -0.441076 159 217 56
-0.271666 -0.488177 -0.177096 68 1 84
-0.685892 -0.357359 0.523528 68 1 84
-0.061264 0.619574 -0.214246 60 78 138
-0.498842 0.336893 0.122352 68 1 84
0.704555 -0.455507 0.494985 68 1 84
-0.602265 -0.038398 0.244558 68 1 84
-0.545744 -0.121346 0.007303 68 1 84
-0.402873 0.227347 -0.104872 71 17 99
-0.176842 -0.254127 -0.159615 69 52 127
-0.243287 -0.218336 -0.149271 72 33 114
-0.347037 -0.071121 -0.165366 71 18 101
0.704424 -0.495072 0.508614 68 1 84
0.199505 -0.160558 -0.192251 68 1 84
0.227893 0.228463 -0.241315 70 12 95
0.092690 0.271443 -0.284994 33 141 140
0.583258 -0.017575 0.151140 68 1 84
0.008622 0.641651 -0.182705 71 44 123
0.558028 -0.209489 0.037749 68 1 84
-0.641342 -0.373856 0.319170 68 1 84
0.263186 0.358686 -0.164370 68 1 84
-0.552540 0.134894 0.136203 68 1 84
-0.484264 0.308118 0.063491 68 1 84
0.453138 0.365188 0.093479 68 1 84
0.127906 0.590595 -0.183678 68 2 85
0.325120 -0.009596 -0.187941 68 1 84
-0.293201 0.597462 0.055080 68 1 84
0.353164 -0.068086 -0.161791 68 1 84
-0.152986 -0.007549 -0.246486 30 156 137
-0.379599 -0.018636 -0.158117 68 1 84
-0.409335 0.521539 0.168110 68 1 84
0.274101 -0.065311 -0.195023 68 1 84
0.288112 0.452653 -0.091127 68 1 84
0.344056 0.502229 0.041730 68 1 84
0.526877 -0.003694 -0.007000 68 1 84
0.603624 -0.093534 0.161370 68 1 84
-0.465178 -0.547492 -0.098976 68 1 84
-0.503580 0.242752 0.066810 68 1 84
-0.528485 0.371889 0.265130 68 1 84
-0.609004 -0.088196 0.249151 68 1 84
0.045426 -0.352374 -0.292871 52 95 141
-0.292171 0.269688 -0.192682 46 109 142
-0.375209 0.517256 0.052497 72 35 116
-0.502321 0.282764 0.086133 68 1 84
-0.521304 -0.492967 0.010403 68 1 84
0.566274 0.114878 0.237089 68 1 84
0.567904 -0.174979 0.042903 68 1 84
0.163603 -0.069855 -0.243627 69 54 129
0.433385 0.452456 0.172284 68 1 84
-0.458638 0.140375 -0.058179 68 1 84
0.501072 0.351464 0.234590 68 1 84
-0.474510 -0.478151 -0.063400 68 1 84
-0.430646 -0.109737 -0.115538 68 1 84
0.038255 0.013273 -0.365532 64 189 114
0.185035 0.575402 -0.129572 68 1 84
-0.107712 -0.411964 -0.169789 71 22 105
-0.400716 -0.040945 -0.143964 68 1 84
0.370416 -0.004367 -0.165269 68 1 84
0.624366 -0.522548 0.210854 68 1 84
-0.505739 -0.329231 0.019964 68 1 84
0.136030 0.064613 -0.268467 44 113 142
-0.610806 -0.524834 0.263472 68 1 84
0.409434 -0.043694 -0.137926 68 1 84
0.495796 0.130880 0.014992 68 1 84
-0.575010 0.159477 0.216011 68 1 84
-0.684330 -0.366223 0.542473 68 1 84
-0.556569 0.330577 0.342336 68 1 84
0.604022 0.064122 0.500373 68 1 84
-0.657025 -0.114393 0.532758 68 1 84
0.650537 -0.298687 0.287334 68 1 84
0.343542 0.555876 0.196864 68 1 84
0.612921 -0.364246 0.177376 68 1 84
0.672847 -0.399358 0.358903 68 1 84
-0.621869 -0.031273 0.372467 68 1 84
0.577135 -0.351808 0.107851 68 1 84
-0.574142 0.028038 0.145747 68 1 84
0.309793 0.186556 -0.195445 68 1 84
-0.489791 -0.595341 -0.043895 68 1 84
0.479058 -0.404012 -0.054230 68 1 84
-0.199107 0.476634 -0.198612 42 118 142
0.178825 -0.196256 -0.192924 71 18 101
0.537599 0.281964 0.405649 68 1 84
-0.279268 0.466886 -0.131156 60 78 138
-0.498398 0.043219 -0.027495 68 1 84
-0.660416 -0.197876 0.490203 68 1 84
0.058182 -0.274294 -0.327734 44 113 142
-0.099496 -0.255987 -0.257367 65 65 134
-0.239139 0.569354 -0.135762 64 67 135
-0.605253 0.047821 0.309709 68 1 84
0.022211 -0.222625 -0.383329 43 177 125
-0.628352 -0.503166 0.319515 68 1 84
-0.474256 0.077626 -0.054843 68 1 84
-0.569864 0.304546 0.389457 68 1 84
0.012008 0.468784 -0.258376 64 68 135
0.544672 0.251516 0.344012 68 1 84
-0.600959 0.187291 0.491613 68 1 84
-0.073151 -0.090885 -0.439718 157 217 58
-0.075962 -0.010534 -0.342458 124 210 79
0.539473 -0.429659 -0.000146 68 1 84
0.590601 -0.333779 0.129900 68 1 84
-0.298137 -0.177300 -0.143225 55 88 140
0.409148 0.453609 0.105906 68 1 84
0.674787 -0.227829 0.400231 68 1 84
-0.329942 0.083777 -0.185710 61 76 137
-0.314135 0.146134 -0.200291 54 91 140
-0.411514 0.360056 -0.037639 70 45 124
0.104331 0.259010 -0.277495 31 149 139
0.667044 -0.178631 0.495188 68 1 84
-0.230507 0.539790 -0.162321 55 88 140
0.236530 0.088105 -0.227853 68 1 84
0.543724 -0.209055 0.014978 68 1 84
0.281707 -0.263071 -0.155196 68 1 84
-0.598948 0.134662 0.328878 68 1 84
-0.290689 0.249551 -0.201692 44 114 142
-0.102229 0.531326 -0.249968 48 103 141
-0.599074 -0.488872 0.223873 68 1 84
0.282199 0.050120 -0.209173 68 1 84
0.168616 0.340089 -0.227973 61 76 137
0.411831 0.054692 -0.132808 68 1 84
0.254036 0.349284 -0.172936 68 1 84
0.220080 -0.162842 -0.178046 68 1 84
0.274825 -0.347775 -0.173241 68 1 84
0.664229 -0.163617 0.474166 68 1 84
-0.493301 -0.200161 -0.051667 68 1 84
-0.277654 -0.023724 -0.199318 66 61 132
0.369359 0.411551 -0.022557 68 1 84
0.384891 0.529423 0.237157 68 1 84
-0.406634 0.211746 -0.105043 68 1 84
-0.629170 -0.188815 0.276026 68 1 84
-0.164646 -0.319225 -0.164359 69 6 90
0.392828 0.199912 -0.115693 68 1 84
-0.292588 -0.458772 -0.159330 68 1 84
0.486421 -0.331322 -0.019711 68 1 84
0.001332 0.144574 -0.346106 68 190 112
-0.030121 0.532712 -0.260850 52 95 141
0.047731 -0.208726 -0.377089 61 187 116
0.580985 0.058211 0.262469 68 1 84
0.466295 -0.298112 -0.047439 68 1 84
-0.420942 -0.365825 -0.075868 68 1 84
0.187923 -0.300408 -0.165730 68 1 84
0.188054 0.468405 -0.170826 69 5 88
0.539451 0.274952 0.396916 68 1 84
0.028173 0.374616 -0.296538 66 64 133
0.218165 -0.304965 -0.169357 68 1 84
0.584881 0.122426 0.474446 68 1 84
0.186234 0.303887 -0.216415 69 52 127
-0.019875 -0.346421 -0.305641 54 91 140
-0.606997 0.061516 0.327954 68 1 84
-0.483501 -0.485096 -0.057646 68 1 84
-0.584372 -0.179311 0.092215 68 1 84
-0.156867 -0.545869 -0.247688 70 11 94
-0.604036 0.159306 0.509192 68 1 84
-0.544860 0.118867 0.107266 68 1 84
-0.147283 0.603228 -0.200685 54 91 140
-0.355901 0.506535 -0.002547 71 37 117
-0.409312 -0.482482 -0.120063 68 1 84
0.411724 -0.035552 -0.137346 68 1 84
0.615302 0.026149 0.490966 68 1 84
0.296331 0.133682 -0.207059 68 1 84
0.456407 0.454060 0.405102 68 1 84
0.576470 0.135180 0.513987 68 1 84
0.335982 0.384555 -0.090474 68 1 84
-0.483430 0.438246 0.218304 68 1 84
-0.659191 -0.532159 0.433693 68 1 84
-0.616699 0.063709 0.404329 68 1 84
0.566483 0.094359 0.208698 68 1 84
0.334281 -0.072763 -0.167934 68 1 84
-0.243562 -0.329111 -0.178233 68 1 84
-0.117643 0.283348 -0.307216 114 207 85
-0.655521 -0.114877 0.520247 68 1 84
-0.479099 0.127501 -0.029454 68 1 84
-0.109826 -0.128158 -0.346293 114 207 85
0.468565 0.073453 -0.063397 68 1 84
0.491988 0.309974 0.135675 68 1 84
0.151411 -0.166243 -0.241614 68 55 129
-0.597629 0.210293 0.469194 69 8 91
-0.257926 -0.555736 -0.208836 68 1 84
0.116430 -0.363591 -0.190373 70 47 124
-0.587833 -0.042602 0.161533 68 1 84
0.356581 -0.352004 -0.157029 68 1 84
0.410771 0.503006 0.230473 68 1 84
0.658115 -0.162057 0.415130 68 1 84
0.120468 -0.028467 -0.375344 46 109 142
-0.054478 -0.174079 -0.400920 54 184 119
0.559667 0.133615 0.217698 68 1 84
-0.423979 -0.595138 -0.145300 68 1 84
-0.102170 -0.136874 -0.359419 77 194 107
0.479826 0.417850 0.422892 68 1 84
0.233196 0.047988 -0.221160 68 1 84
-0.632171 0.021620 0.518605 68 1 84
0.298970 -0.179339 -0.147432 68 1 84
-0.010097 0.010060 -0.401068 170 219 50
0.294264 0.403131 -0.120164 68 1 84
-0.544214 -0.236984 0.027932 68 1 84
-0.446508 -0.570849 -0.121969 68 1 84
0.419469 -0.203819 -0.101414 68 1 84
0.536161 -0.459588 -0.022403 68 1 84
-0.337100 0.416255 -0.098904 67 60 132
0.520286 0.252708 0.169681 68 1 84
0.542593 -0.125913 -0.008883 68 1 84
0.376633 0.009791 -0.162208 68 1 84
0.447517 -0.295231 -0.071789 68 1 84
-0.512440 -0.495930 -0.011705 68 1 84
-0.308249 -0.274404 -0.146339 72 26 108
0.503180 0.347155 0.236104 68 1 84
-0.287733 -0.532022 -0.192443 68 1 84
0.172317 -0.021415 -0.237476 71 38 118
0.483172 0.406880 0.445366 68 1 84
-0.414389 -0.021296 -0.135719 72 29 111
-0.684342 -0.334148 0.499022 68 1 84
0.448904 0.130312 -0.068726 68 1 84
0.488802 0.341221 0.164711 68 1 84
-0.575337 0.137394 0.207096 68 1 84
-0.305047 -0.434984 -0.143322 68 1 84
0.388001 0.421909 0.019655 68 1 84
0.479070 0.219098 0.034448 68 1 84
-0.653188 -0.150811 0.477023 68 1 84
0.083458 -0.144570 -0.391308 35 169 130
0.189685 -0.252313 -0.162024 68 1 84
0.068583 -0.314746 -0.283059 51 97 141
0.463352 0.384899 0.145319 68 1 84
0.089479 -0.442274 -0.238660 68 1 84
-0.119468 0.593246 -0.222864 56 87 140
-0.111962 -0.105725 -0.369483 121 209 81
-0.559260 -0.261368 0.063602 68 1 84
-0.667912 -0.251747 0.565381 68 1 84
0.370246 0.507114 0.111174 68 1 84
0.553923 0.060179 0.111218 68 1 84
-0.610354 0.044112 0.342452 68 1 84
0.537608 -0.377788 0.031437 68 1 84
-0.431258 0.360118 -0.002335 70 12 95
-0.188617 -0.152346 -0.201111 57 85 139
0.539959 0.172888 0.167011 68 1 84
