ply
format ascii 1.0
element vertex 1294
property float x
property float y
property float z
property uchar red
property uchar green
property uchar blue
end_header
0.607263 -0.298810 0.107908 68 1 84
0.445201 0.208498 -0.077910 68 1 84
0.329733 0.436583 -0.075083 68 1 84
-0.273556 0.561596 -0.023726 68 1 84
-0.616496 -0.355949 0.133994 68 1 84
-0.500535 -0.343798 -0.043979 68 1 84
-0.316369 -0.204507 -0.176841 72 28 110
0.566694 0.294814 0.302197 68 1 84
-0.060734 0.516841 -0.229465 68 1 84
-0.049106 -0.275632 -0.295745 46 109 142
-0.095829 0.579487 -0.183023 68 1 84
0.512528 0.337527 0.119380 68 1 84
-0.641653 -0.504376 0.202085 68 1 84
0.419809 -0.493708 -0.203715 35 168 131
-0.530157 0.380985 0.230405 68 1 84
0.465194 -0.022034 -0.116523 68 1 84
-0.585220 0.122362 0.126672 68 1 84
0.336385 -0.495944 -0.243567 129 211 76
0.122602 -0.047844 -0.398950 68 1 84
0.429605 0.499421 0.265866 68 1 84
0.407643 0.420865 -0.002648 68 1 84
0.497802 -0.411627 -0.080386 43 116 142
0.149251 0.268122 -0.256130 68 1 84
0.313979 -0.282027 -0.145687 71 40 120
-0.393451 0.159265 -0.157612 68 1 84
0.620790 -0.089692 0.127946 68 1 84
0.478936 0.151419 -0.058076 68 1 84
0.543372 -0.551840 -0.011216 65 65 134
-0.518812 0.358175 0.131057 68 1 84
-0.575869 0.216555 0.154363 68 1 84
0.508075 0.243891 0.033631 68 1 84
-0.660164 -0.017693 0.364897 68 1 84
-0.462757 0.137408 -0.102252 68 1 84
-0.297005 0.575222 0.031971 68 1 84
-0.121349 0.252324 -0.244530 68 1 84
-0.656519 0.011649 0.357277 68 1 84
-0.385284 0.373585 -0.079466 68 1 84
-0.047776 0.333328 -0.258798 68 1 84
-0.044838 0.176315 -0.307247 68 1 84
-0.570201 0.309715 0.458427 68 1 84
0.453158 0.306944 -0.021574 68 1 84
-0.019362 0.151300 -0.328581 68 1 84
0.607093 0.048637 0.190786 68 1 84
0.439574 -0.540057 -0.183349 54 184 119
-0.351801 -0.403582 -0.241619 36 133 141
-0.315141 -0.460108 -0.274069 109 206 88
0.553085 0.179564 0.101074 68 1 84
0.329846 0.480978 -0.041898 69 8 91
0.640605 -0.394796 0.277237 68 1 84
0.415979 -0.412632 -0.185023 31 147 139
0.291116 -0.073872 -0.206072 68 1 84
0.644163 -0.209326 0.200893 68 1 84
-0.067694 -0.234165 -0.295542 52 94 141
0.635062 -0.106132 0.190096 68 1 84
-0.317989 -0.046493 -0.225965 68 1 84
0.602957 -0.275481 0.092037 68 1 84
0.664551 -0.267602 0.383394 68 1 84
-0.668075 -0.077715 0.451898 68 1 84
0.186558 0.184839 -0.250501 68 1 84
-0.512382 0.096574 -0.050143 68 1 84
0.614797 -0.440772 0.168872 68 1 84
-0.601906 -0.060368 0.077406 68 1 84
0.065874 0.370287 -0.241681 68 1 84
-0.162265 0.209605 -0.242650 68 1 84
0.623053 0.032805 0.493451 68 1 84
0.658499 -0.443230 0.446887 68 1 84
0.541069 0.094417 0.017890 68 1 84
0.207858 0.563394 -0.130762 68 1 84
0.568965 0.125008 0.110057 68 1 84
0.196568 0.060101 -0.225145 68 1 84
-0.212263 0.328365 -0.190119 68 1 84
0.618519 0.021231 0.223385 68 1 84
-0.508512 0.097518 -0.055589 68 1 84
0.594106 -0.064395 0.053707 68 1 84
-0.280787 0.469517 -0.104739 68 1 84
0.111284 0.472816 -0.229542 68 1 84
0.523177 0.237152 0.061582 68 1 84
-0.600872 0.246495 0.391283 68 1 84
0.635322 -0.027644 0.272718 68 1 84
0.612089 0.129295 0.318484 68 1 84
0.416044 -0.409449 -0.182713 32 145 140
-0.076830 0.631320 -0.115850 68 1 84
0.614744 0.078338 0.274692 68 1 84
0.341997 -0.547396 -0.253142 98 202 95
-0.172288 0.111576 -0.250878 68 1 84
-0.558958 -0.063248 -0.020512 68 1 84
-0.512106 -0.425273 -0.061471 72 28 110
0.299926 0.285185 -0.159363 68 1 84
-0.038896 -0.032855 -0.360133 68 1 84
0.383141 -0.361693 -0.121200 58 83 139
0.173839 0.046033 -0.232864 68 1 84
-0.253150 -0.447414 -0.284407 30 159 136
0.660993 -0.160881 0.399738 68 1 84
0.419908 -0.327119 -0.093639 72 26 108
-0.489199 0.447102 0.259624 68 1 84
-0.660558 -0.361155 0.232673 68 1 84
-0.164466 -0.312053 -0.190517 49 100 141
-0.032510 0.045300 -0.302742 68 1 84
-0.589256 -0.557724 0.092716 68 1 84
0.575211 0.197110 0.519264 68 1 84
-0.585737 -0.394376 0.072383 68 1 84
-0.075487 0.251713 -0.281334 68 1 84
0.211875 -0.093462 -0.230581 68 1 84
0.643130 -0.309857 0.217144 68 1 84
0.572247 0.200767 0.525161 68 1 84
0.441557 -0.395199 -0.142621 38 129 142
-0.186097 0.614958 -0.036263 68 1 84
-0.285070 0.234512 -0.200084 68 1 84
0.498875 0.395867 0.443781 68 1 84
0.113578 -0.054371 -0.413212 68 1 84
0.480004 0.250011 -0.013407 68 1 84
-0.011076 -0.301589 -0.318591 40 122 142
0.584786 0.263487 0.321087 68 1 84
0.301939 0.057300 -0.191853 68 1 84
-0.619240 -0.177130 0.107561 68 1 84
0.504740 0.362538 0.131089 68 1 84
0.607976 -0.065256 0.093557 68 1 84
-0.572388 -0.040919 0.008727 68 1 84
-0.178313 0.063805 -0.236015 68 1 84
0.068399 -0.009211 -0.390416 68 1 84
0.029169 -0.506092 -0.332951 105 204 91
-0.466528 0.449194 0.131668 68 1 84
-0.438233 0.097331 -0.137461 68 1 84
-0.430056 0.428738 0.022625 68 1 84
0.602244 0.091157 0.208494 68 1 84
0.349652 -0.328942 -0.139642 48 104 141
-0.617613 0.191237 0.430236 68 1 84
0.392694 0.532247 0.216520 68 1 84
0.143762 0.412546 -0.217320 68 1 84
-0.115303 0.521392 -0.209584 68 1 84
0.296322 0.544578 -0.012774 72 30 112
-0.699967 -0.348569 0.391272 68 1 84
0.264863 0.588949 0.030224 71 21 103
0.634629 -0.257719 0.160142 68 1 84
0.227010 0.051044 -0.210001 68 1 84
-0.669126 -0.091509 0.370103 68 1 84
0.560581 0.217628 0.148544 68 1 84
-0.585935 0.171652 0.154583 68 1 84
-0.666560 -0.098623 0.343036 68 1 84
0.019795 -0.199841 -0.387263 60 77 138
0.216553 -0.199334 -0.206558 68 1 84
-0.161077 0.157285 -0.260642 68 1 84
0.320775 0.180635 -0.176498 68 1 84
0.334001 0.026998 -0.188985 68 1 84
-0.422515 -0.082686 -0.166998 68 1 84
-0.261127 0.123518 -0.220780 68 1 84
-0.469270 0.014856 -0.122103 68 1 84
0.513221 0.083182 -0.034598 68 1 84
0.195821 -0.244610 -0.196603 72 25 107
-0.572818 -0.018178 0.017920 68 1 84
0.584877 0.093176 0.139058 68 1 84
-0.429997 0.198744 -0.116263 68 1 84
0.616007 -0.037506 0.144202 68 1 84
0.485388 0.434309 0.316829 68 1 84
0.143153 -0.071688 -0.371491 68 1 84
0.158834 -0.009904 -0.305857 68 1 84
0.256050 0.577622 -0.032259 70 11 94
-0.619349 0.005816 0.174257 68 1 84
-0.547357 0.140685 0.036540 68 1 84
-0.341721 0.443162 -0.068915 68 1 84
0.604677 -0.294509 0.101464 68 1 84
0.523302 0.210340 0.046112 68 1 84
0.172539 -0.069401 -0.291269 68 1 84
0.330494 0.435100 -0.075244 68 1 84
-0.580987 0.277894 0.488305 68 1 84
0.147487 -0.021441 -0.329182 68 1 84
-0.591326 -0.288913 0.056014 68 1 84
-0.067786 0.235766 -0.275746 68 1 84
0.313166 -0.049782 -0.200630 68 1 84
0.305937 0.569307 0.051713 71 37 117
0.659678 -0.353039 0.508754 68 1 84
-0.472735 -0.193963 -0.111604 68 1 84
0.598218 -0.084713 0.056714 68 1 84
-0.638352 -0.296992 0.175441 68 1 84
0.492700 0.418115 0.207098 68 1 84
0.402040 -0.091629 -0.159561 68 1 84
-0.645038 0.086856 0.379905 68 1 84
-0.339012 0.385966 -0.111626 68 1 84
-0.608448 0.010668 0.137692 68 1 84
0.128839 0.488110 -0.219616 68 1 84
-0.467055 0.449308 0.133685 68 1 84
0.558687 0.274697 0.484821 68 1 84
0.422536 0.044099 -0.141283 68 1 84
0.526494 0.237040 0.069116 68 1 84
-0.011472 0.078822 -0.309222 68 1 84
0.189622 0.076283 -0.234435 68 1 84
-0.015835 -0.262445 -0.336852 51 96 141
0.540702 0.132939 0.040105 68 1 84
0.631214 -0.033441 0.535251 68 1 84
0.305621 0.326230 -0.140799 68 1 84
0.552752 0.122982 0.064489 68 1 84
-0.531759 -0.094791 -0.062535 68 1 84
0.218528 0.497025 -0.158116 68 1 84
-0.688861 -0.273893 0.360874 68 1 84
-0.068074 0.629482 -0.125202 68 1 84
-0.297294 0.093682 -0.215472 68 1 84
-0.696027 -0.335736 0.377391 68 1 84
-0.263672 -0.286014 -0.193771 69 52 127
-0.263478 -0.404933 -0.203079 56 86 139
-0.606279 0.001829 0.124248 68 1 84
0.660951 -0.391485 0.517458 68 1 84
0.527364 -0.016167 -0.048480 68 1 84
-0.655589 0.013494 0.350997 68 1 84
-0.396038 0.378580 -0.064665 68 1 84
-0.103245 0.484700 -0.224366 68 1 84
0.504658 0.359754 0.126636 68 1 84
-0.010976 0.348421 -0.251209 68 1 84
-0.623315 -0.387414 0.163681 68 1 84
-0.292094 0.580206 0.041311 68 1 84
-0.356903 0.558899 0.130900 68 1 84
-0.360050 -0.157243 -0.185049 71 21 103
0.635204 -0.502749 0.292816 68 1 84
0.648377 -0.462107 0.367682 68 1 84
0.663949 -0.284231 0.412340 68 1 84
0.644440 -0.436924 0.331072 68 1 84
0.548151 0.117998 0.048908 68 1 84
-0.454764 0.168640 -0.101020 68 1 84
0.383134 -0.405528 -0.163155 37 131 141
0.270522 -0.158675 -0.195784 68 1 84
-0.462300 -0.044811 -0.135482 68 1 84
0.294558 -0.524579 -0.274748 136 213 71
-0.190676 0.566873 -0.130792 68 1 84
0.566158 -0.483184 0.044857 72 34 115
0.157919 -0.086216 -0.317132 68 1 84
0.248614 0.188912 -0.214215 68 1 84
0.284853 0.530267 -0.051201 71 15 98
0.413246 0.475135 0.074036 68 1 84
0.633991 0.012721 0.402869 68 1 84
0.344617 -0.407690 -0.158174 50 99 141
-0.168535 -0.309193 -0.191144 55 88 140
0.640673 -0.041594 0.470413 68 1 84
-0.040821 0.633638 -0.120519 68 1 84
-0.660662 -0.317633 0.221134 68 1 84
-0.348062 0.238730 -0.165696 68 1 84
0.074128 -0.013097 -0.402752 68 1 84
-0.509324 -0.294718 -0.043088 68 1 84
-0.288213 -0.326252 -0.192282 52 95 141
-0.136015 -0.386396 -0.205072 40 122 142
-0.669253 -0.075795 0.392223 68 1 84
-0.507197 0.384675 0.135718 68 1 84
0.596826 -0.475616 0.123492 68 1 84
-0.429430 -0.289833 -0.100970 64 68 135
0.153950 -0.303599 -0.195864 68 1 84
0.597687 -0.045916 0.071093 68 1 84
-0.449537 0.217337 -0.089499 68 1 84
-0.664451 -0.513088 0.272104 68 1 84
0.587616 -0.153701 0.028772 68 1 84
-0.180658 0.101246 -0.244480 68 1 84
-0.042736 -0.452671 -0.319056 42 118 142
0.589222 0.239855 0.392838 68 1 84
0.662752 -0.437754 0.518855 68 1 84
0.142933 -0.076720 -0.369083 68 1 84
-0.242168 -0.404571 -0.203544 48 103 141
0.550341 0.320293 0.278558 68 1 84
0.603026 0.152096 0.444774 68 1 84
-0.294777 0.235507 -0.195094 68 1 84
0.634726 -0.135105 0.171439 68 1 84
-0.157319 0.074479 -0.246326 68 1 84
-0.356651 -0.094140 -0.203434 71 44 123
0.445108 0.322418 -0.023944 70 11 94
-0.197734 -0.141152 -0.242274 68 1 84
-0.602361 -0.220382 0.063469 68 1 84
0.116970 -0.333451 -0.233670 67 59 131
0.655812 -0.311557 0.570027 68 1 84
0.658910 -0.134679 0.377300 68 1 84
0.660974 -0.409310 0.487922 68 1 84
0.446588 0.483778 0.244593 68 1 84
-0.361070 0.138066 -0.182748 68 1 84
-0.614398 0.012499 0.160008 68 1 84
-0.603240 -0.026140 0.099097 68 1 84
-0.522588 -0.040046 -0.069854 68 1 84
0.491191 -0.379706 -0.044395 66 64 133
-0.162237 0.121424 -0.257079 68 1 84
-0.051236 -0.297195 -0.278450 40 122 142
-0.156868 0.051712 -0.240751 68 1 84
-0.685005 -0.208787 0.424737 68 1 84
0.362051 0.502396 0.027487 70 12 95
-0.408693 0.447083 0.010090 68 1 84
-0.349186 0.428655 -0.073081 68 1 84
-0.221568 -0.283028 -0.196277 71 38 118
-0.343031 0.554442 0.062674 68 1 84
0.281608 0.047770 -0.196793 68 1 84
-0.672355 -0.096085 0.506218 68 1 84
-0.228888 0.361552 -0.174578 68 1 84
-0.377204 0.280179 -0.135195 68 1 84
0.334352 -0.501307 -0.245487 144 214 67
0.130385 0.095602 -0.282570 68 1 84
0.099933 0.182227 -0.291137 68 1 84
0.431631 -0.015674 -0.143774 68 1 84
0.359553 -0.234070 -0.122079 68 1 84
-0.560718 -0.127400 -0.023487 68 1 84
0.012645 -0.023915 -0.423206 68 1 84
0.042300 0.237812 -0.291423 68 1 84
-0.210984 -0.435750 -0.273393 52 94 141
0.634791 -0.018556 0.278580 68 1 84
-0.184559 -0.307278 -0.191646 57 85 139
0.400586 -0.344067 -0.111605 66 61 132
0.231000 0.473694 -0.151438 68 1 84
0.506020 0.224037 0.018573 68 1 84
0.508400 0.081634 -0.042125 68 1 84
0.028261 0.626579 -0.139836 68 1 84
0.318374 0.485043 -0.051595 68 2 85
-0.079707 -0.352340 -0.226355 31 148 139
0.486809 0.409025 0.452215 68 1 84
0.128530 0.163160 -0.297302 68 1 84
-0.477582 0.160969 -0.076358 68 1 84
-0.171851 0.502048 -0.182319 68 1 84
0.052100 0.431786 -0.244921 68 1 84
0.301829 0.078951 -0.190441 68 1 84
-0.406871 -0.043215 -0.179845 68 1 84
-0.130501 -0.394387 -0.215941 31 147 139
0.025262 -0.076255 -0.456204 68 1 84
-0.128330 0.117285 -0.272749 68 1 84
0.526233 -0.470069 -0.054527 46 108 142
-0.589602 -0.418192 0.084919 68 1 84
-0.680548 -0.281420 0.296723 68 1 84
0.228552 -0.519404 -0.301777 103 204 92
-0.675100 -0.423652 0.321483 68 1 84
-0.418352 0.257685 -0.107546 68 1 84
0.378980 -0.064295 -0.175378 68 1 84
0.330032 0.516179 -0.000852 71 37 117
0.453733 0.024566 -0.119256 68 1 84
0.189726 0.421890 -0.188786 68 1 84
-0.369440 0.552117 0.147745 68 1 84
0.523416 -0.408310 -0.021102 61 76 137
0.121024 0.137799 -0.304715 68 1 84
0.490956 -0.261792 -0.039983 68 1 84
0.648349 -0.199589 0.230966 68 1 84
0.644657 -0.042095 0.324441 68 1 84
0.208941 0.224724 -0.201126 68 1 84
-0.699901 -0.533205 0.375246 68 1 84
0.032605 0.232511 -0.287194 68 1 84
-0.588940 0.278629 0.420393 68 1 84
0.525543 -0.524599 -0.056602 50 99 141
0.505243 -0.047396 -0.079942 68 1 84
0.555460 0.270264 0.504745 68 1 84
0.491521 0.411863 0.411312 68 1 84
-0.626416 0.156412 0.335282 68 1 84
0.392208 -0.209401 -0.116781 68 1 84
0.405304 -0.268824 -0.091765 68 1 84
-0.290553 -0.515777 -0.285615 250 230 34
-0.565173 -0.085120 -0.013287 68 1 84
0.030640 -0.259307 -0.355147 61 75 137
0.115500 -0.188953 -0.322645 68 1 84
-0.322720 0.556296 0.033165 68 1 84
0.059829 0.158413 -0.328497 68 1 84
-0.597387 0.227213 0.253962 68 1 84
0.047898 -0.492430 -0.331092 105 204 91
0.041266 -0.146840 -0.430157 70 11 94
0.429033 -0.401403 -0.165597 39 124 142
-0.281883 -0.175854 -0.202173 68 1 84
0.635662 -0.117968 0.185703 68 1 84
0.407534 0.415474 -0.007946 71 15 98
0.114279 -0.321170 -0.242861 72 26 108
0.143917 -0.275078 -0.228216 71 38 118
-0.454487 -0.560062 -0.167680 35 169 130
0.007986 0.413569 -0.247834 68 1 84
-0.437415 0.042083 -0.148257 68 1 84
-0.508081 0.006178 -0.080919 68 1 84
0.554305 0.224560 0.132270 68 1 84
0.581686 -0.311401 0.069813 68 1 84
0.468566 -0.388428 -0.102101 47 105 141
0.403738 0.382388 -0.038436 69 6 90
0.385693 0.210081 -0.129519 68 1 84
0.659176 -0.449794 0.453930 68 1 84
-0.624341 -0.325168 0.147046 68 1 84
-0.200919 -0.101653 -0.247024 68 1 84
0.509078 0.388900 0.206738 68 1 84
0.212526 0.306903 -0.192540 68 1 84
-0.619009 0.157378 0.495718 68 1 84
0.598823 -0.371486 0.111791 68 1 84
0.426234 -0.029475 -0.148515 68 1 84
-0.583002 -0.252074 0.033085 68 1 84
-0.617196 -0.052797 0.134394 68 1 84
0.154852 0.509355 -0.200813 68 1 84
0.122395 0.033925 -0.269087 68 1 84
-0.388144 -0.236134 -0.139726 71 44 123
0.139250 -0.368936 -0.206515 57 85 139
-0.679236 -0.486715 0.322014 68 1 84
0.089823 -0.395801 -0.275367 33 167 132
-0.364495 -0.406629 -0.246002 35 137 141
0.057797 0.229299 -0.283132 68 1 84
-0.570669 -0.386337 0.041445 68 1 84
-0.391070 0.439106 -0.019983 68 1 84
0.647199 -0.056129 0.394030 68 1 84
-0.667512 -0.225528 0.259714 68 1 84
-0.285905 -0.179272 -0.198926 68 2 85
-0.339857 -0.510692 -0.268212 199 224 31
0.533703 -0.062490 -0.047587 68 1 84
0.151093 -0.026673 -0.339103 68 1 84
0.588088 0.136915 0.532588 68 1 84
-0.610919 0.208857 0.468109 68 1 84
-0.061376 0.228514 -0.274565 68 1 84
-0.201127 0.323829 -0.195633 68 1 84
0.107098 0.139305 -0.313315 68 1 84
0.381557 0.535257 0.123046 69 8 91
0.172760 0.465844 -0.199087 68 1 84
0.619173 0.084107 0.414613 68 1 84
0.010735 0.566958 -0.205026 68 1 84
0.658592 -0.179593 0.314457 68 1 84
-0.679108 -0.144673 0.509598 68 1 84
-0.318917 0.536397 0.001330 68 1 84
-0.227484 0.555814 -0.098772 68 1 84
-0.402686 -0.512541 -0.231552 43 177 125
-0.702266 -0.291889 0.477943 68 1 84
-0.547314 -0.523872 -0.001434 68 1 84
0.003594 0.545820 -0.217267 68 1 84
0.584618 -0.099789 0.025431 68 1 84
-0.128182 -0.409293 -0.232663 39 126 142
-0.301164 0.206850 -0.197402 68 1 84
0.217451 -0.184593 -0.212973 68 1 84
0.311278 -0.159242 -0.177287 68 1 84
0.561853 -0.120389 -0.013011 68 1 84
-0.545473 -0.536176 -0.004649 69 5 88
0.069089 0.486232 -0.235903 68 1 84
-0.045170 -0.098211 -0.407505 68 1 84
-0.213756 -0.406802 -0.221142 41 121 142
0.657651 -0.370597 0.387042 68 1 84
0.531843 0.091956 -0.001196 68 1 84
0.568489 -0.384982 0.062674 68 1 84
0.643475 -0.152516 0.597313 68 1 84
0.606215 -0.175710 0.068086 68 1 84
-0.297178 -0.403328 -0.206357 43 115 142
-0.559943 -0.411372 0.023883 68 1 84
-0.642403 0.080285 0.469839 68 1 84
-0.590329 0.234095 0.226618 68 1 84
0.216258 0.505859 -0.157835 68 1 84
-0.682553 -0.187192 0.415417 68 1 84
0.660783 -0.348901 0.450342 68 1 84
0.546473 -0.482005 -0.006965 66 64 133
0.105917 -0.184062 -0.344410 68 1 84
-0.609514 -0.209759 0.080041 68 1 84
-0.400323 0.510131 0.085223 68 1 84
0.033904 0.312800 -0.280755 68 1 84
0.545311 -0.174142 -0.025401 68 1 84
0.126473 -0.422326 -0.267579 43 177 125
0.367110 0.301139 -0.117951 68 1 84
0.355978 -0.379595 -0.132913 58 83 139
-0.066678 -0.013623 -0.295147 68 1 84
0.579671 0.054931 0.088250 68 1 84
-0.305310 0.336560 -0.155829 68 1 84
0.645815 -0.058298 0.437435 68 1 84
0.546073 0.301623 0.191869 68 1 84
0.564894 -0.478583 0.041912 72 26 108
-0.178641 0.589349 -0.118452 68 1 84
-0.604133 0.236558 0.383785 68 1 84
0.115373 -0.250538 -0.287397 71 39 119
-0.682767 -0.353794 0.310507 68 1 84
-0.534987 0.381851 0.357351 68 1 84
-0.065828 -0.077373 -0.386583 68 1 84
-0.359282 -0.239754 -0.149403 62 73 137
-0.045085 -0.298403 -0.286138 41 120 142
0.478268 0.173561 -0.050698 68 1 84
-0.032419 -0.290182 -0.306986 48 104 141
-0.528106 0.382259 0.220217 68 1 84
-0.084784 0.541244 -0.213510 68 1 84
-0.328342 0.239044 -0.176642 68 1 84
-0.197041 0.386272 -0.183852 68 1 84
0.080942 -0.015900 -0.374377 68 1 84
-0.434235 -0.199506 -0.135347 70 9 92
-0.240144 0.179238 -0.229530 68 1 84
-0.276028 0.573676 -0.001552 68 1 84
-0.671180 -0.179434 0.307123 68 1 84
-0.386915 0.534765 0.118561 68 1 84
-0.396846 -0.496412 -0.234116 77 194 107
0.582666 0.201641 0.487707 68 1 84
-0.361127 0.547711 0.085284 68 1 84
0.170653 0.551752 -0.171112 68 1 84
-0.488004 0.323197 0.025380 68 1 84
-0.309169 -0.465130 -0.275373 129 211 76
-0.688972 -0.219451 0.497139 68 1 84
0.365884 -0.348510 -0.130951 61 76 137
0.144633 -0.336595 -0.195175 70 9 92
-0.581674 -0.567304 0.072288 68 1 84
-0.681909 -0.206637 0.354050 68 1 84
-0.317884 -0.188901 -0.184351 68 1 84
-0.534487 0.378027 0.404636 68 1 84
0.626141 0.034420 0.464122 68 1 84
-0.200352 -0.085709 -0.247520 68 1 84
-0.081020 -0.318834 -0.231452 39 125 142
0.362696 0.279206 -0.128941 68 1 84
-0.581113 -0.028452 0.033045 68 1 84
-0.556855 0.146557 0.062214 68 1 84
0.636083 -0.274070 0.172324 68 1 84
-0.409522 0.010269 -0.174172 68 1 84
-0.705039 -0.347012 0.426160 68 1 84
-0.679913 -0.295132 0.289633 68 1 84
0.253902 0.566831 -0.056474 69 6 90
-0.627408 -0.482449 0.184376 68 1 84
0.018202 -0.419684 -0.304631 42 176 126
-0.467442 0.438414 0.112536 68 1 84
-0.667482 -0.082183 0.471385 68 1 84
0.598054 -0.043200 0.073791 68 1 84
-0.576683 -0.445497 0.059636 68 1 84
0.464894 0.424980 0.111684 71 20 102
0.588972 -0.217756 0.047289 68 1 84
0.189477 0.577787 -0.135144 68 1 84
-0.694414 -0.314708 0.380034 68 1 84
0.090771 -0.409883 -0.281395 47 179 123
0.205372 0.103770 -0.234761 68 1 84
-0.641789 0.073512 0.497088 68 1 84
0.528077 -0.441310 -0.037452 40 122 142
0.237521 0.179711 -0.221059 68 1 84
-0.432476 -0.351018 -0.095302 71 37 117
0.250099 0.566428 -0.064556 68 1 84
-0.583930 0.199954 0.167397 68 1 84
0.554420 -0.256740 0.016165 68 1 84
0.648877 -0.204916 0.565388 68 1 84
-0.167857 -0.505182 -0.330519 91 200 98
0.492622 0.223567 -0.005436 68 1 84
-0.695490 -0.295026 0.408935 68 1 84
0.458236 -0.428296 -0.158104 38 127 142
0.087895 -0.316912 -0.292033 45 111 142
-0.121023 -0.060355 -0.288144 68 1 84
-0.243493 0.241197 -0.213107 68 1 84
-0.574872 0.243817 0.175381 68 1 84
-0.660221 0.001273 0.390839 68 1 84
-0.682583 -0.181204 0.464897 68 1 84
-0.304640 -0.519747 -0.280667 243 229 30
-0.598669 -0.051668 0.070506 68 1 84
-0.046817 0.600426 -0.175325 68 1 84
0.026709 0.588491 -0.188160 68 1 84
0.528925 0.350063 0.465098 68 1 84
0.417835 -0.236209 -0.091869 68 1 84
-0.156798 -0.291988 -0.197321 60 78 138
0.515996 0.261900 0.060887 68 1 84
0.605965 0.120226 0.473082 68 1 84
-0.225081 0.101182 -0.229709 68 1 84
-0.705418 -0.419876 0.385829 68 1 84
0.664304 -0.231212 0.393605 68 1 84
-0.603457 0.237078 0.447754 68 1 84
0.626136 -0.244057 0.132342 68 1 84
0.475770 0.447312 0.309940 68 1 84
-0.213174 -0.280754 -0.195567 71 40 120
-0.461936 0.221427 -0.072667 68 1 84
0.611193 -0.463371 0.159387 68 1 84
0.561885 0.086832 0.061838 68 1 84
-0.590048 0.126164 0.143259 68 1 84
0.172683 -0.060158 -0.301961 68 1 84
0.593983 0.151593 0.496581 68 1 84
0.655790 -0.127887 0.315598 68 1 84
0.121235 -0.161624 -0.336409 68 1 84
-0.329627 -0.310838 -0.183490 69 54 129
-0.052883 0.273523 -0.298871 68 1 84
0.660639 -0.443816 0.471037 68 1 84
-0.015810 -0.103968 -0.433269 68 1 84
0.224352 0.034573 -0.208688 68 1 84
0.125638 -0.327358 -0.221201 69 50 127
-0.521136 0.291931 0.065650 68 1 84
0.481239 0.245096 -0.013849 68 1 84
0.021320 0.233984 -0.289068 68 1 84
0.045715 0.408436 -0.245681 68 1 84
-0.019326 0.465677 -0.245026 68 1 84
0.431156 -0.060813 -0.144799 68 1 84
0.549957 -0.299726 0.029608 68 1 84
-0.635602 -0.196989 0.164352 68 1 84
0.373543 0.010181 -0.176163 68 1 84
0.470497 0.440744 0.381589 68 1 84
0.536391 0.293335 0.141898 68 1 84
0.284882 0.569748 0.010598 72 32 113
0.644185 -0.102356 0.531440 68 1 84
-0.555591 0.285374 0.153475 68 1 84
0.599043 -0.354488 0.108426 68 1 84
-0.216231 -0.099034 -0.244664 68 1 84
0.232751 0.128550 -0.224901 68 1 84
0.569976 0.284953 0.425605 68 1 84
-0.059841 0.221486 -0.270548 68 1 84
-0.029625 -0.112320 -0.416781 68 1 84
0.292624 0.474708 -0.088978 68 1 84
-0.663985 -0.452099 0.299766 68 1 84
0.480663 -0.100030 -0.102528 68 1 84
-0.639670 0.113997 0.407114 68 1 84
0.052605 0.179828 -0.313545 68 1 84
-0.161403 0.015664 -0.234209 68 1 84
-0.606844 -0.419910 0.128289 68 1 84
0.208314 0.518888 -0.159707 68 1 84
0.491501 0.260470 0.012046 68 1 84
-0.598882 -0.480471 0.124517 68 1 84
-0.457031 -0.396959 -0.121802 68 1 84
0.435464 -0.250435 -0.076632 71 20 102
0.579437 0.290154 0.376345 68 1 84
-0.637134 -0.134729 0.183411 68 1 84
0.357421 -0.065580 -0.184607 68 1 84
0.624346 0.040638 0.299961 68 1 84
0.545465 0.110393 0.037176 68 1 84
0.284911 -0.208901 -0.162682 68 1 84
0.193830 -0.524015 -0.311726 109 206 88
-0.516646 -0.247091 -0.053147 68 1 84
0.338086 -0.258473 -0.133251 72 35 116
0.105776 0.527402 -0.216395 68 1 84
0.086755 0.510779 -0.226615 68 1 84
-0.165716 -0.512515 -0.332574 116 208 84
-0.651703 -0.056531 0.282151 68 1 84
0.362581 -0.205516 -0.131112 68 1 84
-0.693035 -0.497148 0.354894 68 1 84
0.436062 0.486544 0.320031 68 1 84
-0.039945 0.297937 -0.291994 68 1 84
0.600884 -0.364205 0.114160 68 1 84
0.528291 0.324884 0.156781 68 1 84
-0.568038 0.248849 0.156169 68 1 84
-0.431934 -0.521137 -0.203934 44 177 125
0.662130 -0.438657 0.495531 68 1 84
0.661832 -0.197285 0.432456 68 1 84
-0.539964 0.373767 0.340378 68 1 84
0.659940 -0.363767 0.429820 68 1 84
0.627786 -0.516962 0.249114 68 1 84
-0.590717 0.272713 0.441983 68 1 84
-0.226271 -0.028203 -0.242660 68 1 84
-0.587415 0.279803 0.315687 68 1 84
-0.272351 0.573659 -0.006762 68 1 84
-0.331865 0.071207 -0.209119 68 1 84
-0.116344 0.548558 -0.196294 68 1 84
0.226547 0.004468 -0.209070 68 1 84
-0.107008 0.182740 -0.284870 68 1 84
0.602613 -0.160298 0.058180 68 1 84
-0.165411 0.342993 -0.210434 68 1 84
-0.357195 0.510873 0.016104 68 1 84
0.657101 -0.308107 0.524337 68 1 84
0.655168 -0.221745 0.276164 68 1 84
-0.264591 -0.277881 -0.191162 68 55 129
-0.581502 0.293262 0.304621 68 1 84
-0.619074 -0.019259 0.159057 68 1 84
0.635587 -0.559944 0.294664 68 1 84
-0.641692 -0.186682 0.187519 68 1 84
-0.636531 -0.171689 0.172174 68 1 84
-0.190345 0.295109 -0.203939 68 1 84
-0.710841 -0.503433 0.412063 68 1 84
0.568785 0.296450 0.411972 68 1 84
0.648660 -0.564328 0.382001 68 1 84
-0.604372 0.230136 0.470130 68 1 84
-0.068727 0.632353 -0.115186 68 1 84
-0.696277 -0.290928 0.424385 68 1 84
-0.011476 -0.111826 -0.432800 68 1 84
0.198103 -0.178572 -0.229486 68 1 84
0.194062 0.178903 -0.247125 68 1 84
0.168045 0.348387 -0.211986 68 1 84
0.495759 0.408407 0.406685 68 1 84
0.343578 0.564521 0.112752 68 1 84
0.645012 -0.127840 0.241053 68 1 84
-0.585085 0.286650 0.327492 68 1 84
-0.207539 0.072787 -0.230720 68 1 84
-0.287741 -0.410829 -0.235650 31 149 139
0.574890 -0.017145 0.030388 68 1 84
-0.610133 -0.180157 0.079362 68 1 84
0.113624 -0.360457 -0.238772 55 89 140
0.500887 0.033860 -0.068433 68 1 84
0.294396 -0.193594 -0.166260 68 1 84
-0.713017 -0.478191 0.417213 68 1 84
-0.549567 -0.449787 0.004274 68 1 84
-0.637943 -0.436981 0.211506 68 1 84
0.580793 0.226234 0.249430 68 1 84
0.517654 0.203932 0.030836 68 1 84
0.304630 -0.107607 -0.197257 68 1 84
-0.564794 0.328939 0.304218 68 1 84
-0.162667 0.469152 -0.194686 68 1 84
-0.660487 -0.081653 0.320222 68 1 84
0.329007 0.176303 -0.171365 68 1 84
0.581342 -0.495714 0.085468 71 17 99
-0.458273 -0.201544 -0.119659 68 1 84
0.586611 -0.545503 0.098093 72 32 113
-0.545098 0.198440 0.061363 68 1 84
0.409570 0.377889 -0.034406 70 11 94
-0.501057 0.428614 0.237929 68 1 84
-0.063453 -0.165820 -0.327511 68 1 84
0.612509 0.098854 0.461117 68 1 84
-0.512519 0.017987 -0.072716 68 1 84
-0.119352 0.141542 -0.282388 68 1 84
-0.669675 -0.148105 0.313969 68 1 84
-0.721920 -0.438903 0.433414 68 1 84
0.259681 -0.051937 -0.213089 68 1 84
0.164823 -0.410707 -0.220353 30 155 137
0.156497 -0.483627 -0.309199 56 185 118
0.005168 0.313157 -0.281857 68 1 84
0.596127 -0.340157 0.100073 68 1 84
-0.444870 -0.344359 -0.084765 69 8 91
-0.283707 -0.163973 -0.208293 69 6 90
-0.541573 -0.165123 -0.047269 68 1 84
0.618571 -0.518584 0.194710 69 6 90
0.153508 0.577894 -0.162244 68 1 84
0.118620 -0.186708 -0.319081 68 1 84
0.147204 0.531596 -0.196350 68 1 84
-0.175580 0.610309 -0.080100 68 1 84
0.567379 -0.526693 0.048037 71 15 98
0.605524 -0.322866 0.112755 68 1 84
-0.245769 0.135890 -0.226385 68 1 84
-0.132501 0.110329 -0.268947 68 1 84
-0.357156 0.072379 -0.198747 68 1 84
0.468614 0.280782 -0.013562 68 1 84
-0.666133 -0.041961 0.496557 68 1 84
0.489387 0.065283 -0.071824 68 1 84
-0.244966 0.389958 -0.158652 68 1 84
0.658972 -0.556825 0.448514 68 1 84
-0.398255 0.204150 -0.142111 68 1 84
-0.536534 -0.425652 -0.017939 68 1 84
-0.543828 -0.187481 -0.040176 68 1 84
-0.342432 0.106023 -0.198496 68 1 84
0.119085 0.497609 -0.221232 68 1 84
-0.615323 0.167299 0.500201 68 1 84
0.632106 -0.045668 0.547661 68 1 84
-0.600375 0.216442 0.255036 68 1 84
-0.175020 0.201313 -0.243897 68 1 84
0.449541 -0.039324 -0.131233 68 1 84
-0.134939 0.283312 -0.240984 68 1 84
0.642985 -0.140812 0.593524 68 1 84
0.281157 0.547287 -0.034984 68 2 85
0.234431 0.577632 -0.075060 70 12 95
-0.501767 0.036948 -0.081974 68 1 84
-0.497992 0.058646 -0.081336 68 1 84
0.646375 -0.051373 0.393308 68 1 84
-0.385537 0.155340 -0.164121 68 1 84
-0.611372 0.177368 0.261590 68 1 84
-0.538386 0.375328 0.289564 68 1 84
0.321944 -0.387059 -0.143141 54 91 140
0.332055 0.143867 -0.173801 68 1 84
0.655754 -0.179880 0.488269 68 1 84
0.461415 -0.418023 -0.148981 34 137 141
-0.599155 -0.434124 0.112003 68 1 84
0.477074 0.077079 -0.082536 68 1 84
-0.039958 -0.357243 -0.271531 39 125 142
0.641649 -0.211309 0.186699 68 1 84
-0.618742 0.173401 0.479460 68 1 84
0.647802 -0.342265 0.273343 68 1 84
-0.558430 0.018038 0.001072 68 1 84
-0.426424 0.066321 -0.153608 68 1 84
-0.708412 -0.557651 0.424952 68 1 84
-0.670670 -0.471745 0.311175 68 1 84
-0.509112 0.116619 -0.047725 68 1 84
0.572754 0.041563 0.057822 68 1 84
-0.120349 0.487884 -0.216492 68 1 84
0.555848 -0.412020 0.035986 72 33 114
-0.407422 -0.492437 -0.224788 56 185 118
0.623545 -0.534698 0.223465 68 1 84
-0.628986 -0.186337 0.141658 68 1 84
0.636632 -0.475662 0.300044 68 1 84
0.630119 0.026733 0.433639 68 1 84
-0.430760 0.508690 0.198806 68 1 84
0.623858 0.011200 0.242748 68 1 84
-0.279380 -0.499772 -0.287039 246 230 31
-0.655767 -0.217505 0.220715 68 1 84
0.267066 0.009945 -0.203776 68 1 84
0.038965 -0.373968 -0.294537 31 161 135
-0.685244 -0.327344 0.317451 68 1 84
-0.647826 0.031448 0.317696 68 1 84
0.131756 0.288514 -0.268789 68 1 84
0.636429 -0.025363 0.282400 68 1 84
0.465034 0.460667 0.307046 68 1 84
0.129799 0.169563 -0.293916 68 1 84
0.455771 0.275972 -0.035014 68 1 84
-0.239392 0.582406 -0.042872 68 1 84
0.548810 -0.457323 0.004264 47 106 141
-0.617304 0.160461 0.500483 68 1 84
0.449221 -0.253549 -0.067838 68 2 85
-0.231983 0.162011 -0.232939 68 1 84
0.630103 -0.451560 0.263508 68 1 84
0.618575 -0.517954 0.188821 71 18 101
0.536641 0.350743 0.401306 68 1 84
0.359112 0.507658 0.030613 68 1 84
-0.555754 0.287361 0.156499 68 1 84
0.652627 -0.537746 0.401895 68 1 84
-0.299934 -0.495796 -0.279313 210 225 27
-0.410588 0.094803 -0.161084 68 1 84
-0.587759 0.281541 0.420329 68 1 84
-0.319162 0.083249 -0.211270 68 1 84
-0.340263 0.384090 -0.111845 68 1 84
0.444300 0.450921 0.101859 71 22 105
0.629821 -0.076052 0.181534 68 1 84
0.430023 0.339661 -0.033657 68 1 84
0.017007 0.457251 -0.246584 68 1 84
-0.101425 -0.309926 -0.216323 42 117 142
0.031257 -0.348207 -0.305504 31 163 134
0.190472 0.530904 -0.168654 68 1 84
0.664271 -0.278509 0.400082 68 1 84
-0.325967 0.203765 -0.184648 68 1 84
0.459829 0.282348 -0.025664 68 1 84
-0.599969 -0.146593 0.053114 68 1 84
-0.660604 -0.039503 0.354241 68 1 84
-0.072003 0.607642 -0.160146 68 1 84
-0.674671 -0.126597 0.374486 68 1 84
0.512314 -0.127135 -0.069652 68 1 84
0.147547 0.223562 -0.234003 68 1 84
-0.506265 0.419997 0.364037 68 1 84
0.439772 0.172926 -0.094937 68 1 84
0.581234 0.129048 0.561669 68 1 84
0.635429 0.006308 0.323914 68 1 84
0.561420 -0.025108 0.002639 68 1 84
-0.366147 -0.293963 -0.152999 55 89 140
0.256941 0.077628 -0.202810 68 1 84
-0.172909 -0.371742 -0.174853 63 71 136
0.510289 -0.388473 -0.024675 67 58 131
-0.550739 0.345412 0.450802 68 1 84
0.406565 0.302916 -0.081554 68 1 84
-0.368234 -0.144606 -0.185643 68 1 84
-0.259945 0.153561 -0.221535 68 1 84
0.096357 -0.134831 -0.409006 68 1 84
0.062610 0.169927 -0.321136 68 1 84
-0.035278 -0.005810 -0.300955 68 1 84
0.055570 0.372212 -0.242912 68 1 84
0.168289 0.446646 -0.202948 68 1 84
-0.515675 -0.552259 -0.067284 63 69 135
0.659099 -0.412575 0.451542 68 1 84
-0.443722 0.496797 0.244416 68 1 84
0.620284 0.077350 0.366693 68 1 84
-0.142548 -0.381932 -0.196997 43 115 142
-0.686206 -0.289889 0.328739 68 1 84
0.549572 0.323457 0.286730 68 1 84
0.536250 0.311482 0.509674 68 1 84
0.377904 -0.513329 -0.230006 105 204 91
0.318287 0.577032 0.107856 71 21 103
0.482895 0.398451 0.119042 68 1 84
0.201787 -0.183583 -0.224751 68 1 84
0.415883 -0.332878 -0.098873 66 61 132
-0.284111 0.583304 0.039095 68 1 84
-0.602939 0.235997 0.326133 68 1 84
-0.106139 -0.117081 -0.288151 68 1 84
0.280815 0.324479 -0.151084 68 1 84
-0.586975 0.282737 0.343390 68 1 84
-0.134387 -0.030137 -0.249522 68 1 84
0.649888 -0.348188 0.296130 68 1 84
-0.191584 0.403846 -0.183280 68 1 84
-0.435228 0.464400 0.076765 68 1 84
0.055911 -0.001587 -0.347502 68 1 84
0.129350 0.560084 -0.189551 68 1 84
-0.570072 -0.196757 -0.000954 68 1 84
-0.600669 -0.120247 0.056737 68 1 84
-0.272810 0.550807 -0.039350 68 1 84
0.636454 -0.041859 0.266042 68 1 84
0.289095 -0.450614 -0.243638 51 182 121
-0.031420 0.077802 -0.306905 68 1 84
0.391845 -0.341136 -0.119544 65 66 134
-0.433845 -0.079012 -0.159255 68 1 84
-0.039364 -0.068819 -0.418878 68 1 84
0.331983 0.567226 0.089061 70 14 97
-0.582572 0.291927 0.313066 68 1 84
-0.553219 -0.147644 -0.033511 68 1 84
-0.193164 -0.286777 -0.194364 69 50 127
0.089213 0.117748 -0.314924 68 1 84
0.053935 -0.317536 -0.318549 47 105 141
0.395469 0.519543 0.122874 71 21 103
-0.669775 -0.096167 0.468183 68 1 84
-0.581849 0.081172 0.094479 68 1 84
0.132629 -0.220956 -0.280216 69 8 91
0.009621 -0.148482 -0.420248 72 25 107
0.238226 0.204460 -0.213399 68 1 84
0.274905 0.029206 -0.200320 68 1 84
-0.495084 -0.102797 -0.104289 68 1 84
0.443467 0.301752 -0.037953 68 1 84
-0.509298 0.237599 0.008169 68 1 84
-0.453007 -0.396625 -0.127660 68 2 85
0.659844 -0.319241 0.488641 68 1 84
0.583132 -0.356273 0.082886 68 1 84
0.145393 0.308296 -0.246882 68 1 84
0.638201 -0.409993 0.275284 68 1 84
0.507755 0.322686 0.090390 68 1 84
0.652109 -0.207558 0.529612 68 1 84
0.097455 -0.021453 -0.379665 68 1 84
-0.484976 0.412958 0.118256 68 1 84
0.395029 0.370827 -0.055802 68 1 84
0.361139 0.555707 0.130195 68 1 84
-0.646014 -0.085003 0.242570 68 1 84
-0.314395 0.404570 -0.116714 68 1 84
-0.312648 -0.243421 -0.170112 71 44 123
-0.114656 0.408678 -0.222691 68 1 84
0.611031 0.112771 0.447223 68 1 84
-0.230848 0.418561 -0.158124 68 1 84
0.377373 -0.406265 -0.157135 38 127 142
0.657286 -0.301293 0.517752 68 1 84
0.421927 0.131198 -0.121698 68 1 84
-0.203586 0.365677 -0.184285 68 1 84
-0.613768 0.173544 0.499326 68 1 84
0.151638 0.322622 -0.233550 68 1 84
0.222932 -0.248797 -0.176823 68 1 84
-0.704375 -0.349645 0.417434 68 1 84
0.602406 0.179039 0.313398 68 1 84
-0.455873 0.405775 0.041620 68 1 84
0.444654 0.362179 0.002278 68 1 84
-0.540626 -0.436034 -0.011481 68 1 84
-0.656860 -0.485411 0.257242 68 1 84
0.427041 0.349241 -0.031572 68 1 84
-0.681439 -0.178034 0.404909 68 1 84
-0.656385 -0.025355 0.327731 68 1 84
-0.148708 0.612877 -0.110312 68 1 84
-0.639294 -0.072348 0.217684 68 1 84
0.363928 -0.267201 -0.122731 68 1 84
-0.601813 -0.033121 0.090427 68 1 84
0.070678 -0.379043 -0.283567 33 142 140
0.490771 0.170808 -0.033704 68 1 84
-0.549719 -0.184901 -0.032805 68 1 84
-0.012570 0.444260 -0.247738 68 1 84
0.090578 0.514472 -0.224759 68 1 84
0.492324 0.168513 -0.032361 68 1 84
0.528028 0.042869 -0.028486 68 1 84
0.592250 0.226053 0.312284 68 1 84
-0.589601 0.036392 0.089639 68 1 84
-0.546147 0.363252 0.346211 68 1 84
0.554604 -0.364448 0.043835 68 1 84
-0.120795 -0.157816 -0.272480 71 18 101
0.203702 -0.134059 -0.236044 68 1 84
0.375447 -0.226946 -0.116065 68 1 84
0.326593 0.506513 -0.018338 69 6 90
-0.560393 -0.091424 -0.021596 68 1 84
-0.688588 -0.260702 0.371972 68 1 84
-0.189373 -0.125112 -0.247393 68 1 84
-0.655012 0.010611 0.343521 68 1 84
0.611662 0.102053 0.272044 68 1 84
-0.381435 0.070844 -0.185718 68 1 84
-0.503649 -0.480680 -0.096829 63 69 135
-0.153463 0.280815 -0.225932 68 1 84
-0.539990 0.228844 0.065309 68 1 84
0.489875 0.164881 -0.037699 68 1 84
-0.165675 0.496271 -0.188162 68 1 84
0.277721 0.567429 -0.008963 71 15 98
-0.576687 0.222052 0.161845 68 1 84
0.600681 -0.141382 0.052613 68 1 84
-0.605815 -0.078684 0.082441 68 1 84
-0.122148 0.487957 -0.215679 68 1 84
0.092927 -0.136481 -0.411285 68 1 84
0.354429 -0.410931 -0.194258 42 119 142
0.053254 0.461895 -0.242957 68 1 84
-0.681576 -0.401710 0.328921 68 1 84
-0.271915 -0.059751 -0.238287 68 1 84
0.354046 0.018329 -0.183244 68 1 84
-0.558828 0.288705 0.169582 68 1 84
0.112013 -0.035517 -0.398327 68 1 84
0.485127 0.433107 0.223097 68 1 84
0.661921 -0.544950 0.474446 68 1 84
0.423581 -0.476253 -0.199522 36 170 130
0.189454 -0.035394 -0.231529 68 1 84
-0.558372 0.074451 0.026764 68 1 84
-0.526823 0.279743 0.068809 68 1 84
0.624474 -0.475542 0.240659 68 1 84
-0.566933 0.053889 0.036349 68 1 84
0.013920 0.166817 -0.328475 68 1 84
-0.503206 0.291626 0.029712 68 1 84
0.278150 -0.156924 -0.192351 68 1 84
0.485596 0.309711 0.031118 68 1 84
0.633740 0.014305 0.394527 68 1 84
-0.657112 -0.059270 0.313131 68 1 84
-0.241233 0.475493 -0.134615 68 1 84
0.624098 0.060260 0.408225 68 1 84
-0.390606 -0.462827 -0.240220 33 167 132
0.488010 -0.511878 -0.129556 32 143 140
0.532023 0.128657 0.018320 68 1 84
-0.497711 0.421727 0.180933 68 1 84
-0.647640 0.059713 0.466106 68 1 84
-0.532553 -0.274561 -0.028394 68 1 84
0.303652 0.254854 -0.171404 68 1 84
0.070110 0.434126 -0.242855 68 1 84
-0.058563 0.024950 -0.283938 68 1 84
0.175841 0.558733 -0.162894 68 1 84
-0.622425 0.074158 0.223213 68 1 84
-0.220036 -0.154018 -0.231906 68 1 84
0.209097 0.122300 -0.237495 68 1 84
-0.631940 -0.116737 0.168055 68 1 84
-0.685444 -0.283907 0.325449 68 1 84
0.105694 0.376109 -0.233443 68 1 84
-0.658194 0.016792 0.392096 68 1 84
0.549160 0.012710 -0.005760 68 1 84
-0.662997 -0.026073 0.428400 68 1 84
0.023479 0.195410 -0.291987 68 1 84
-0.429691 -0.198169 -0.138351 70 11 94
-0.191699 -0.294028 -0.194381 61 75 137
-0.053421 0.587931 -0.187150 68 1 84
-0.660590 -0.458175 0.286873 68 1 84
0.191269 -0.453266 -0.265318 30 158 136
-0.179186 -0.368445 -0.174416 62 73 137
-0.448838 0.227965 -0.086345 68 1 84
-0.487504 -0.530301 -0.122984 50 98 141
-0.657000 0.023238 0.386424 68 1 84
-0.704620 -0.310021 0.466846 68 1 84
0.569666 -0.061427 0.006133 68 1 84
-0.038603 -0.152708 -0.372817 68 1 84
0.219860 0.441650 -0.163771 68 1 84
0.620692 -0.011936 0.197201 68 1 84
-0.160460 -0.502736 -0.331880 112 206 86
-0.511291 0.189921 -0.011849 68 1 84
-0.124592 0.191560 -0.271987 68 1 84
0.145719 0.123999 -0.283536 68 1 84
-0.627468 -0.199577 0.136186 68 1 84
0.664122 -0.255191 0.412821 68 1 84
0.584794 -0.448951 0.092162 68 1 84
0.427242 -0.443914 -0.195075 33 166 133
0.379373 0.429556 -0.031873 68 1 84
0.046671 0.635951 -0.117128 68 1 84
-0.578034 -0.097372 0.008896 68 1 84
-0.329087 0.308280 -0.156446 68 1 84
-0.431950 -0.541714 -0.199219 44 177 125
0.521702 0.299342 0.103115 68 1 84
0.590470 0.220728 0.422868 68 1 84
0.354765 0.495420 0.006329 72 28 110
-0.355503 0.030309 -0.205635 68 1 84
0.461878 0.464568 0.306343 68 1 84
0.279013 0.583346 0.042756 68 1 84
-0.600936 0.133980 0.180015 68 1 84
0.475634 -0.241524 -0.060500 68 1 84
-0.117024 0.575204 -0.177233 68 1 84
-0.325506 0.455987 -0.073497 68 1 84
0.558182 -0.089859 -0.016538 68 1 84
-0.624865 -0.197675 0.126852 68 1 84
-0.056379 0.248883 -0.290026 68 1 84
-0.596033 -0.324196 0.076079 68 1 84
-0.623091 0.171701 0.422959 68 1 84
0.077099 -0.460485 -0.318413 81 196 104
0.076721 0.621425 -0.140506 68 1 84
-0.070716 0.556449 -0.208918 68 1 84
-0.525848 0.256358 0.051197 68 1 84
-0.642241 0.089165 0.350399 68 1 84
0.515837 0.057425 -0.040542 68 1 84
0.625686 -0.022554 0.216205 68 1 84
0.041277 -0.005513 -0.401341 68 1 84
-0.632268 0.066610 0.266090 68 1 84
-0.157976 -0.388330 -0.198519 39 125 142
-0.616873 -0.294965 0.119194 68 1 84
0.653025 -0.480349 0.401900 68 1 84
-0.546988 0.256776 0.100961 68 1 84
0.640813 -0.266942 0.188540 68 1 84
0.658862 -0.561096 0.448181 68 1 84
-0.664993 -0.057153 0.481950 68 1 84
-0.643774 0.095625 0.391398 68 1 84
-0.082881 -0.508478 -0.338211 119 208 82
-0.295576 0.071491 -0.220032 68 1 84
-0.609230 -0.269835 0.091129 68 1 84
0.182112 -0.057563 -0.253697 68 1 84
-0.141133 0.551390 -0.181438 68 1 84
-0.648875 0.038956 0.331895 68 1 84
0.579547 0.198986 0.207271 68 1 84
0.455911 -0.342908 -0.044285 68 1 84
-0.123638 -0.159418 -0.270263 72 34 115
0.533267 0.300835 0.140182 68 1 84
0.403226 -0.140038 -0.145187 68 1 84
0.503937 0.407715 0.313247 68 1 84
0.616021 0.083769 0.356208 68 1 84
-0.593426 -0.102471 0.040522 68 1 84
0.468135 0.393534 0.075380 68 1 84
-0.137047 0.434412 -0.211579 68 1 84
0.652593 -0.132914 0.288193 68 1 84
0.525302 0.224416 0.058687 68 1 84
-0.021102 0.198687 -0.281551 68 1 84
-0.379482 0.003585 -0.194970 68 1 84
0.206450 0.466214 -0.173448 68 1 84
0.583279 0.185272 0.210762 68 1 84
-0.573135 0.021185 0.034593 68 1 84
0.447903 0.479828 0.210948 68 1 84
0.450273 0.012417 -0.124534 68 1 84
-0.243055 0.593051 -0.009388 68 1 84
-0.528896 -0.392231 -0.023041 68 1 84
-0.256188 0.120693 -0.222225 68 1 84
0.490509 -0.422486 -0.106319 40 122 142
-0.082361 -0.318819 -0.229966 40 123 142
0.347358 -0.198688 -0.141041 68 1 84
-0.221011 0.177244 -0.236643 68 1 84
0.460355 0.463022 0.196704 68 1 84
-0.067336 -0.187538 -0.314871 71 37 117
-0.660907 -0.505390 0.258997 68 1 84
0.356331 -0.330233 -0.137685 50 99 141
-0.656635 0.017888 0.460777 68 1 84
0.524265 0.025865 -0.040128 68 1 84
0.121466 0.472967 -0.225651 68 1 84
0.102226 0.622702 -0.128965 68 1 84
0.225827 0.308413 -0.183387 68 1 84
-0.625883 -0.470690 0.184093 68 1 84
0.524279 0.141143 0.009666 68 1 84
0.036221 0.018104 -0.330475 68 1 84
-0.352813 0.276248 -0.153735 68 1 84
-0.611936 0.080579 0.188176 68 1 84
0.330814 -0.411914 -0.196764 32 143 140
-0.688925 -0.231991 0.461497 68 1 84
0.592778 -0.441399 0.109946 68 1 84
0.653870 -0.288968 0.569771 68 1 84
0.431054 0.136052 -0.113352 68 1 84
-0.395173 0.128888 -0.164622 68 1 84
-0.111409 0.221003 -0.247010 68 1 84
-0.680568 -0.326795 0.270433 68 1 84
-0.030998 -0.242047 -0.332332 51 97 141
0.311434 -0.360205 -0.141888 61 76 137
0.155499 -0.338748 -0.184535 69 50 127
-0.525614 -0.517718 -0.049255 64 68 135
-0.415898 -0.455799 -0.214343 33 142 140
0.215405 0.515913 -0.154564 68 1 84
-0.705807 -0.372450 0.405669 68 1 84
0.594184 0.064670 0.148574 68 1 84
-0.555139 0.344526 0.410515 68 1 84
0.653377 -0.119963 0.303965 68 1 84
-0.323999 0.357080 -0.137406 68 1 84
0.503918 -0.088039 -0.082527 68 1 84
-0.609649 -0.038631 0.113291 68 1 84
0.274748 0.123098 -0.200769 68 1 84
-0.245275 -0.245978 -0.188122 68 55 129
-0.385894 -0.071558 -0.191410 68 1 84
0.502545 -0.463894 -0.100813 44 112 142
-0.643761 0.057205 0.321068 68 1 84
-0.622172 -0.231948 0.122112 68 1 84
-0.651336 -0.088853 0.266000 68 1 84
-0.691033 -0.312157 0.356971 68 1 84
-0.559747 -0.011053 -0.007134 68 1 84
0.405304 -0.157228 -0.138236 68 1 84
-0.044763 -0.032997 -0.371816 68 1 84
0.090353 -0.329319 -0.280889 68 57 130
0.225456 -0.217114 -0.191027 67 59 131
-0.489456 0.231503 -0.028779 68 1 84
0.601974 0.123806 0.236683 68 1 84
0.075215 0.416810 -0.242188 68 1 84
0.621697 -0.154878 0.109824 68 1 84
-0.012056 -0.226781 -0.355815 49 100 141
-0.465416 0.464803 0.168891 68 1 84
-0.490949 -0.506587 -0.121902 52 94 141
0.430503 0.234664 -0.084036 68 1 84
0.560126 0.188596 0.570780 68 1 84
0.093292 -0.025992 -0.344241 68 1 84
-0.564389 0.230999 0.130883 68 1 84
0.372135 0.497629 0.036164 68 1 84
-0.304839 0.218717 -0.193414 68 1 84
0.422408 0.420013 0.019332 68 1 84
-0.459658 0.394840 0.037513 68 1 84
0.151546 0.004921 -0.274674 68 1 84
0.638564 -0.026029 0.461815 68 1 84
-0.494223 -0.007259 -0.099309 68 1 84
-0.655307 -0.090672 0.284107 68 1 84
0.261111 -0.420957 -0.221123 31 149 139
-0.302733 -0.254169 -0.175193 56 87 140
0.605622 -0.058359 0.089134 68 1 84
0.190637 0.267547 -0.210360 68 1 84
0.051610 0.063782 -0.306822 68 1 84
-0.442518 0.267935 -0.076650 68 1 84
-0.388029 0.277506 -0.127754 68 1 84
-0.650018 0.020065 0.318946 68 1 84
0.444224 -0.462404 -0.178583 32 144 140
-0.266549 -0.410490 -0.251933 31 149 139
-0.246937 0.163258 -0.226777 68 1 84
-0.423742 -0.418449 -0.198172 66 61 132
0.172821 -0.124810 -0.259363 68 1 84
-0.005869 -0.227958 -0.359729 44 114 142
0.640253 -0.013161 0.338577 68 1 84
0.430539 -0.150041 -0.126248 68 1 84
0.227692 -0.396484 -0.177698 36 132 141
0.351497 0.561216 0.135334 71 15 98
0.424391 0.152096 -0.114706 68 1 84
0.163517 -0.185212 -0.260779 68 1 84
-0.590143 0.127884 0.144313 68 1 84
0.551220 0.158772 0.083080 68 1 84
0.657569 -0.443602 0.437780 68 1 84
0.594882 0.205786 0.302981 68 1 84
0.540983 0.029169 -0.013271 68 1 84
0.555729 0.047913 0.022111 68 1 84
0.059177 0.574304 -0.195425 68 1 84
-0.654395 -0.355659 0.218573 68 1 84
-0.693111 -0.317942 0.369067 68 1 84
-0.079190 0.236535 -0.269318 68 1 84
-0.669706 -0.072810 0.411638 68 1 84
-0.194675 0.451704 -0.174972 68 1 84
-0.307373 0.286402 -0.174100 68 1 84
-0.542129 -0.444225 -0.009427 68 1 84
0.460667 -0.393801 -0.122499 45 111 142
-0.572912 -0.024849 0.015768 68 1 84
0.092534 -0.231137 -0.330198 68 1 84
0.612777 0.034027 0.544381 68 1 84
-0.241514 -0.062543 -0.243465 68 1 84
-0.050461 0.048203 -0.293301 68 1 84
-0.604795 -0.459421 0.137775 68 1 84
0.432891 0.495583 0.271550 68 1 84
-0.590193 -0.468656 0.096590 68 1 84
0.135509 -0.516699 -0.320156 183 221 41
0.431976 0.303353 -0.051988 68 1 84
0.453171 0.470247 0.319344 68 1 84
-0.577031 -0.488131 0.063214 68 1 84
-0.495108 0.200500 -0.034022 68 1 84
-0.666909 -0.513773 0.284371 68 1 84
-0.591549 -0.017569 0.065212 68 1 84
-0.617131 0.033164 0.181517 68 1 84
0.502691 0.405874 0.370133 68 1 84
0.413653 0.429071 0.014841 71 18 101
0.582339 -0.099048 0.021450 68 1 84
0.079987 0.107466 -0.312742 68 1 84
-0.446919 -0.374170 -0.104082 68 1 84
0.268778 -0.344046 -0.149525 70 48 125
0.147749 -0.017149 -0.320965 68 1 84
0.061714 -0.443960 -0.312937 54 184 119
0.503912 -0.443909 -0.090524 44 112 142
-0.651681 -0.034654 0.290940 68 1 84
-0.069535 -0.346619 -0.237429 34 139 141
-0.435951 -0.253181 -0.110565 71 42 121
-0.062880 -0.308975 -0.256692 44 114 142
0.370538 0.257412 -0.129721 68 1 84
-0.052472 -0.139582 -0.362281 68 1 84
0.223735 -0.199906 -0.201363 67 60 132
0.406880 0.327933 -0.068303 68 1 84
-0.681400 -0.346176 0.285062 68 1 84
-0.664693 -0.053861 0.476085 68 1 84
0.647640 -0.537076 0.372761 68 1 84
0.646932 -0.078090 0.466671 68 1 84
-0.379832 0.396668 -0.067576 68 1 84
-0.136769 -0.091645 -0.260076 68 1 84
0.340839 -0.070682 -0.190506 68 1 84
-0.441309 -0.066822 -0.154136 68 1 84
0.432787 -0.178220 -0.114922 68 1 84
-0.563294 -0.227948 -0.004369 68 1 84
-0.471267 0.170824 -0.081051 68 1 84
0.041497 -0.035386 -0.441269 68 1 84
0.553490 -0.156277 -0.019482 68 1 84
0.169791 0.549651 -0.172976 68 1 84
-0.180210 -0.289632 -0.195590 60 77 138
0.108021 0.627106 -0.116196 68 1 84
-0.503106 0.425430 0.341474 68 1 84
-0.665426 -0.022961 0.497350 68 1 84
-0.603018 0.126440 0.182323 68 1 84
-0.057372 0.472350 -0.240131 68 1 84
0.309415 -0.269086 -0.144675 71 37 117
-0.663888 -0.011908 0.484517 68 1 84
0.131249 0.102419 -0.284769 68 1 84
-0.569834 0.159069 0.102157 68 1 84
0.139858 0.625781 -0.089794 68 1 84
-0.621925 0.151996 0.289339 68 1 84
0.085674 0.469748 -0.236546 68 1 84
-0.617135 -0.139818 0.105537 68 1 84
-0.486363 -0.185599 -0.101975 69 8 91
0.181959 -0.289521 -0.179586 70 11 94
0.516345 -0.078074 -0.069276 68 1 84
0.048447 -0.245263 -0.359491 51 97 141
-0.700519 -0.379111 0.368815 68 1 84
0.041601 0.081021 -0.305355 68 1 84
0.146914 -0.397297 -0.218528 35 135 141
0.143094 0.321527 -0.239869 68 1 84
0.019915 -0.201299 -0.386411 60 78 138
0.099575 0.571385 -0.192992 68 1 84
0.095640 0.020331 -0.295989 68 1 84
0.065252 -0.053106 -0.446662 68 1 84
-0.008555 -0.488095 -0.336362 34 167 132
-0.608337 -0.015723 0.121682 68 1 84
0.533804 0.348919 0.233801 68 1 84
0.660125 -0.373504 0.464245 68 1 84
0.560196 0.278422 0.221559 68 1 84
-0.174637 -0.100880 -0.251264 68 1 84
-0.341593 -0.087128 -0.211685 70 12 95
0.522181 0.219139 0.048681 68 1 84
-0.338217 0.075004 -0.206548 68 1 84
-0.269094 0.511166 -0.087328 68 1 84
0.473971 0.426814 0.142996 68 1 84
0.134848 -0.075179 -0.387597 68 1 84
0.338096 0.199146 -0.162389 68 1 84
-0.466410 -0.433597 -0.142530 69 50 127
-0.068128 0.633273 -0.111448 68 1 84
0.324882 0.384386 -0.105431 68 1 84
-0.479799 -0.090408 -0.119379 68 1 84
-0.094309 -0.014993 -0.313594 68 1 84
-0.510599 -0.499429 -0.082077 52 94 141
0.615026 0.110195 0.385252 68 1 84
0.493876 0.283554 0.029461 68 1 84
0.602942 0.058433 0.557569 68 1 84
0.105701 -0.038098 -0.409125 68 1 84
-0.674488 -0.305382 0.264457 68 1 84
-0.629980 0.026271 0.229100 68 1 84
-0.098068 -0.005473 -0.298129 68 1 84
-0.654284 -0.463771 0.256025 68 1 84
-0.339666 -0.351019 -0.175448 68 1 84
-0.499733 -0.541326 -0.098629 46 108 142
-0.664198 -0.265732 0.233010 68 1 84
0.572505 -0.149701 0.004912 68 1 84
0.650044 -0.062135 0.359381 68 1 84
-0.638649 0.118004 0.399953 68 1 84
-0.668138 -0.056021 0.503434 68 1 84
0.648302 -0.388021 0.318191 68 1 84
0.573228 -0.394040 0.069834 68 1 84
0.445925 -0.450809 -0.176337 30 160 135
-0.615800 0.015684 0.166717 68 1 84
0.262533 -0.401758 -0.170663 44 114 142
-0.295906 0.399263 -0.130357 68 1 84
-0.600619 0.242900 0.324197 68 1 84
-0.508522 0.236076 0.005901 68 1 84
-0.333244 0.529037 0.009281 68 1 84
-0.676286 -0.395860 0.312545 68 1 84
-0.359073 0.480808 -0.016023 68 1 84
0.654420 -0.187603 0.281793 68 1 84
-0.441697 0.321173 -0.048451 68 1 84
-0.426714 -0.388097 -0.164629 69 54 129
-0.388926 0.062899 -0.182119 68 1 84
-0.531057 0.136398 0.000203 68 1 84
-0.513610 -0.545167 -0.072117 58 82 139
-0.275553 0.381253 -0.147221 68 1 84
-0.058331 0.344058 -0.251208 68 1 84
0.569222 0.277301 0.440409 68 1 84
0.135021 -0.025984 -0.346989 68 1 84
0.129891 0.615345 -0.125770 68 1 84
0.428750 0.176563 -0.104096 68 1 84
0.450947 0.448169 0.114626 68 1 84
0.335404 0.570998 0.139505 68 1 84
0.092782 -0.026048 -0.407304 68 1 84
0.657368 -0.201245 0.481668 68 1 84
0.438205 0.233089 -0.076402 68 1 84
0.560866 0.167793 0.114657 68 1 84
-0.338878 0.023825 -0.213917 68 1 84
-0.397318 0.504356 0.067747 68 1 84
-0.401387 0.352853 -0.076475 68 1 84
-0.445332 0.495220 0.218754 68 1 84
-0.390714 0.539235 0.176413 68 1 84
-0.134586 0.496744 -0.207735 68 1 84
