ply
format ascii 1.0
element vertex 1281
property float x
property float y
property float z
property uchar red
property uchar green
property uchar blue
end_header
-0.660781 -0.048149 0.361763 68 1 84
-0.009897 -0.314988 -0.331396 31 146 140
0.552403 0.316648 0.337132 53 93 140
-0.342204 0.109891 -0.190557 68 1 84
0.466993 0.402138 0.083819 68 1 84
-0.096076 0.270078 -0.270313 68 1 84
-0.113522 0.004935 -0.306813 68 1 84
0.619335 -0.437619 0.255879 68 1 84
0.689345 -0.449150 0.424398 68 1 84
0.340203 0.007150 -0.204000 68 1 84
-0.435062 0.509689 0.257107 30 154 137
0.062143 -0.047609 -0.344513 72 28 110
-0.441471 -0.386265 -0.141267 70 12 95
-0.261279 0.530388 -0.096727 68 1 84
-0.427769 -0.000348 -0.164195 68 1 84
0.618651 -0.282140 0.232906 68 1 84
-0.314265 -0.495782 -0.254957 44 114 142
0.409957 -0.441791 -0.163084 68 1 84
-0.394269 0.518310 0.069964 57 84 139
-0.463996 -0.158219 -0.118805 68 1 84
-0.601185 0.157434 0.183046 71 38 118
-0.317825 0.529628 -0.029156 70 9 92
0.248722 0.472911 -0.168433 68 1 84
-0.404299 0.119356 -0.150984 70 12 95
0.582947 0.245207 0.302327 69 53 128
0.606406 -0.128421 0.164805 68 1 84
0.140440 0.119215 -0.261939 68 1 84
0.478860 0.000067 -0.100151 68 1 84
0.343263 -0.315243 -0.138871 68 1 84
0.059887 -0.248588 -0.316159 35 137 141
0.107045 0.614161 -0.228033 68 1 84
-0.688689 -0.218688 0.476467 68 1 84
-0.269670 0.069824 -0.215733 68 1 84
0.659665 -0.141063 0.389912 68 1 84
0.005617 -0.199090 -0.402829 44 177 125
0.563703 0.259507 0.169958 68 55 129
-0.659398 -0.026946 0.389261 68 1 84
0.414422 -0.494833 -0.158790 71 40 120
0.238165 0.352311 -0.175455 68 1 84
0.271063 -0.031218 -0.222249 68 1 84
0.515273 -0.111433 -0.059425 68 1 84
0.435460 -0.238885 -0.085851 68 1 84
-0.428011 0.005381 -0.163185 68 1 84
-0.624394 0.082423 0.497047 47 106 141
-0.231242 -0.013725 -0.231353 68 1 84
0.004132 0.062203 -0.321497 68 1 84
-0.579549 0.245041 0.415813 47 106 141
0.596136 0.195424 0.356280 51 97 141
-0.179325 0.156380 -0.246669 68 1 84
-0.603537 -0.073471 0.079605 68 1 84
0.018820 -0.292702 -0.337467 56 185 118
-0.710516 -0.443783 0.406444 68 1 84
0.188687 -0.479679 -0.288657 51 182 121
-0.589049 -0.289612 0.085999 68 1 84
-0.364855 -0.178411 -0.161294 70 12 95
-0.091930 -0.079727 -0.416786 71 37 117
-0.534777 -0.339731 -0.002892 68 1 84
-0.626050 -0.220132 0.168700 68 1 84
-0.437277 -0.266376 -0.082385 68 1 84
-0.436533 0.441956 0.038424 65 65 134
0.257579 0.267481 -0.139398 68 1 84
-0.355636 -0.470609 -0.227162 66 64 133
0.443562 0.475689 0.285680 36 134 141
0.520232 0.289753 0.079708 68 1 84
0.172401 0.572126 -0.217146 68 1 84
-0.168845 0.608972 -0.123692 68 1 84
0.579420 -0.144261 0.064115 68 1 84
0.655166 -0.141281 0.539524 68 1 84
0.107974 -0.297607 -0.189962 70 47 124
0.021892 -0.415052 -0.296086 81 196 104
0.162936 -0.298875 -0.160572 72 35 116
-0.042823 0.300590 -0.279553 68 1 84
0.538393 0.086360 0.014623 68 1 84
-0.361483 -0.447104 -0.216793 71 44 123
-0.637841 -0.406687 0.259051 68 1 84
0.119787 0.599733 -0.238253 68 1 84
0.462681 0.001400 -0.119956 68 1 84
-0.692152 -0.354155 0.422332 68 1 84
0.041918 0.104467 -0.307055 68 1 84
0.215492 0.103202 -0.205936 68 1 84
-0.480319 -0.528839 -0.109166 71 38 118
-0.362052 0.559094 0.091986 69 50 127
-0.350038 -0.288115 -0.153019 71 39 119
0.059087 -0.262195 -0.309107 87 198 101
-0.261006 0.159283 -0.202531 68 1 84
-0.559254 -0.250488 0.027326 68 1 84
0.180034 0.532744 -0.234369 68 1 84
-0.453382 0.424788 0.048743 59 80 138
0.497272 -0.136734 -0.075716 68 1 84
0.304924 -0.038862 -0.215544 68 1 84
-0.685164 -0.195186 0.431711 68 1 84
0.055091 0.034386 -0.322325 68 1 84
0.287992 0.435790 -0.125025 68 1 84
-0.632867 0.086363 0.402507 60 78 138
-0.536128 0.329746 0.459098 31 148 139
-0.340471 -0.119832 -0.189539 71 22 105
-0.004768 0.308563 -0.274892 68 1 84
-0.251812 0.577029 -0.052662 68 1 84
0.436039 0.475832 0.152142 68 55 129
0.608850 0.063331 0.224698 68 1 84
0.300990 0.537016 -0.032444 68 1 84
0.501034 0.234201 0.013540 68 1 84
-0.176721 0.228033 -0.203566 68 1 84
0.226577 -0.506793 -0.283082 109 206 88
0.445922 -0.158012 -0.121298 68 1 84
0.422156 0.330882 -0.045912 68 1 84
0.594357 -0.296450 0.158475 68 1 84
-0.534412 0.370351 0.199242 54 91 140
0.463699 0.386446 0.057010 68 1 84
0.085801 -0.148422 -0.335495 66 62 133
0.258619 -0.310869 -0.169437 68 1 84
0.603014 -0.017773 0.177507 68 1 84
-0.596707 0.218213 0.356865 49 102 141
0.607741 0.108625 0.231759 68 1 84
0.303547 -0.150305 -0.186877 68 1 84
0.646711 -0.046460 0.452050 68 1 84
-0.199256 -0.412271 -0.238335 54 90 140
-0.645951 -0.356953 0.265266 68 1 84
-0.334791 0.245159 -0.150080 68 1 84
-0.665729 -0.265040 0.328219 68 1 84
-0.121667 -0.154635 -0.290673 72 34 115
0.002345 -0.393633 -0.300142 48 180 122
0.408988 0.365314 -0.040806 68 1 84
-0.097921 0.599784 -0.234563 68 1 84
0.572233 0.274441 0.304642 54 91 140
-0.602521 0.029806 0.119280 71 17 99
0.096043 0.215136 -0.263262 68 1 84
-0.193316 -0.160526 -0.223002 68 1 84
-0.639377 0.048603 0.452616 68 1 84
-0.686180 -0.325275 0.420647 68 1 84
-0.568474 0.294757 0.352203 45 110 142
-0.059350 -0.012902 -0.328070 68 1 84
-0.601250 0.184247 0.209889 62 72 136
0.071680 0.014667 -0.311302 68 1 84
-0.435942 0.490956 0.118277 46 107 142
-0.389925 -0.187148 -0.148611 71 17 99
0.235473 0.310534 -0.170417 68 1 84
0.590544 -0.430703 0.202376 68 1 84
-0.555186 0.291131 0.135445 60 78 138
-0.160302 0.145902 -0.258225 68 1 84
0.231050 0.021288 -0.213124 68 1 84
0.087260 -0.200929 -0.298366 61 74 137
0.378601 0.304355 -0.096182 68 1 84
0.640847 -0.220153 0.283819 68 1 84
-0.690123 -0.153585 0.478943 68 1 84
0.610755 0.065318 0.233153 68 1 84
0.348144 -0.401492 -0.194765 68 1 84
-0.651414 -0.306714 0.263757 68 1 84
0.610017 -0.245275 0.193221 68 1 84
0.401204 -0.366522 -0.137886 68 1 84
-0.580761 0.204748 0.481740 40 122 142
-0.502101 0.234629 -0.001804 62 73 137
-0.329357 0.574889 0.065084 71 21 103
-0.678554 -0.404240 0.365410 68 1 84
0.683814 -0.388066 0.490329 68 1 84
-0.272972 0.364552 -0.142739 68 1 84
-0.600680 0.049335 0.126370 71 39 119
-0.259810 -0.054664 -0.229044 68 1 84
-0.045325 0.631835 -0.226580 68 1 84
-0.636868 -0.167420 0.202399 68 1 84
-0.574316 0.291402 0.287962 38 128 142
0.387446 0.278268 -0.099071 68 1 84
-0.204409 0.597323 -0.087554 68 1 84
0.688863 -0.406721 0.519196 68 1 84
-0.715029 -0.485770 0.404096 68 1 84
-0.483594 0.440066 0.373743 46 178 124
-0.646041 -0.433335 0.273207 68 1 84
-0.684371 -0.148412 0.512244 68 1 84
0.066802 -0.220214 -0.320707 46 109 142
-0.295534 0.311815 -0.142445 68 1 84
-0.194620 -0.108789 -0.239410 68 1 84
0.123915 -0.390243 -0.223638 44 113 142
0.450871 0.194225 -0.069428 68 1 84
0.432017 0.128534 -0.115842 68 1 84
-0.446489 -0.361816 -0.122703 68 1 84
0.567579 0.196753 0.522190 43 116 142
-0.021978 0.163233 -0.314330 68 1 84
0.581003 0.080524 0.118839 68 1 84
-0.431189 0.514340 0.202172 42 118 142
0.566069 0.250676 0.450206 48 103 141
-0.211092 -0.203207 -0.189597 70 45 124
0.182838 -0.467744 -0.282301 30 157 136
-0.427703 0.142508 -0.122050 70 12 95
-0.411166 -0.427124 -0.181148 71 22 105
-0.163149 0.337467 -0.217003 68 1 84
-0.617071 0.109071 0.226677 72 32 113
0.622465 -0.406876 0.281279 68 1 84
0.042160 -0.500015 -0.309171 212 225 26
0.510748 0.186702 0.009629 68 1 84
0.605427 0.039623 0.202818 68 1 84
-0.396835 -0.006166 -0.186110 68 1 84
-0.634683 0.078887 0.325599 70 49 126
-0.082454 0.364793 -0.254883 68 1 84
-0.120069 -0.425058 -0.270192 41 175 127
-0.626207 0.067814 0.245074 72 34 115
-0.522493 -0.486205 -0.046899 68 2 85
0.481280 0.402979 0.127047 71 37 117
0.051609 -0.073042 -0.456557 61 74 137
-0.440370 0.227459 -0.077028 65 66 134
-0.490837 0.438850 0.190646 41 121 142
0.093887 0.235665 -0.273663 68 1 84
-0.651940 0.005797 0.428302 68 1 84
-0.041072 0.031300 -0.334981 68 1 84
0.065341 -0.238750 -0.312733 35 137 141
0.056797 0.231483 -0.286280 68 1 84
-0.667120 -0.077671 0.425810 68 1 84
-0.635175 -0.428833 0.247123 68 1 84
0.371218 0.193569 -0.132327 68 1 84
-0.066274 -0.380598 -0.279630 35 169 130
0.114411 0.325651 -0.252011 68 1 84
-0.634723 0.079479 0.407065 60 78 138
0.035945 -0.255242 -0.346115 42 176 126
-0.608014 -0.383086 0.168718 68 1 84
0.274988 0.271384 -0.132364 68 1 84
0.133185 -0.198888 -0.239326 52 94 141
-0.589074 0.234303 0.379951 54 90 140
0.095298 0.562413 -0.284107 68 1 84
0.176730 -0.463939 -0.281150 40 122 142
0.239111 -0.444849 -0.243707 39 126 142
-0.598460 -0.419068 0.146502 68 1 84
-0.414194 -0.431438 -0.179900 69 8 91
-0.602569 0.160006 0.463245 60 77 138
0.381737 -0.402118 -0.172108 68 1 84
0.642737 -0.121966 0.304928 68 1 84
0.135393 0.096962 -0.262127 68 1 84
-0.648636 0.034048 0.400921 68 1 84
-0.359470 0.554949 0.073381 69 54 129
-0.562018 0.319919 0.298512 45 111 142
-0.587499 -0.277325 0.080479 68 1 84
0.078869 0.205110 -0.273761 68 1 84
-0.291416 0.203589 -0.179800 68 1 84
-0.086552 0.626395 -0.203191 68 1 84
0.397984 0.495337 0.080096 68 1 84
0.630452 0.003338 0.303882 68 1 84
0.658202 -0.435200 0.348158 68 1 84
0.563163 0.295882 0.310584 49 101 141
0.379914 -0.297806 -0.101239 68 1 84
0.630038 -0.017700 0.290055 68 1 84
-0.294841 0.078216 -0.212079 68 1 84
0.586853 -0.061245 0.089137 68 1 84
0.263868 0.042681 -0.208473 68 1 84
-0.633241 0.083954 0.320319 72 35 116
-0.569446 -0.401447 0.053919 68 1 84
-0.507196 -0.054696 -0.090845 68 1 84
0.369696 -0.370679 -0.171524 68 1 84
-0.094381 0.452605 -0.276462 68 1 84
0.148479 -0.019859 -0.255821 68 1 84
0.130362 0.596678 -0.233155 68 1 84
-0.086985 0.239409 -0.268027 68 1 84
-0.501884 -0.235077 -0.040665 68 1 84
-0.393199 -0.221002 -0.134801 68 1 84
-0.654615 0.006686 0.400190 68 1 84
-0.432494 0.036032 -0.152879 68 1 84
0.619275 0.084451 0.424334 72 30 112
0.570676 -0.502558 0.123417 68 1 84
0.362170 -0.459952 -0.201835 71 42 121
0.127021 -0.008116 -0.306556 68 1 84
-0.098927 -0.468394 -0.301957 199 224 31
0.229289 0.151531 -0.191969 68 1 84
-0.688390 -0.215130 0.467275 68 1 84
-0.289955 -0.309223 -0.171384 67 59 131
-0.460730 -0.395890 -0.126586 68 1 84
0.549804 -0.501452 0.074403 68 1 84
0.118977 0.489109 -0.289127 68 1 84
-0.064559 0.633150 -0.211623 68 1 84
-0.296205 0.440169 -0.111993 68 1 84
-0.211971 -0.304864 -0.172533 62 72 136
-0.197025 0.582279 -0.129990 68 1 84
-0.243622 -0.192605 -0.185641 72 32 113
0.111409 0.311861 -0.255889 68 1 84
-0.008770 0.444343 -0.308894 68 1 84
0.117928 0.060308 -0.265288 68 1 84
-0.395312 0.429384 -0.028116 72 29 111
-0.018977 0.038158 -0.345165 68 1 84
-0.587251 -0.287314 0.081580 68 1 84
0.327576 -0.121008 -0.192587 68 1 84
0.467036 -0.230108 -0.063899 68 1 84
-0.424860 0.416832 -0.001743 69 52 127
0.258837 0.539814 -0.114108 68 1 84
0.617633 -0.410734 0.263159 68 1 84
0.549368 -0.407107 0.077431 68 1 84
0.419137 -0.502377 -0.151136 71 44 123
0.601695 0.180846 0.302995 66 61 132
-0.323986 -0.023013 -0.216116 68 1 84
0.377779 -0.446506 -0.189582 71 17 99
0.346269 0.138232 -0.164152 68 1 84
0.689741 -0.535296 0.388728 68 1 84
0.058531 0.615297 -0.249247 68 1 84
0.565295 0.147788 0.099792 68 1 84
-0.156143 0.015254 -0.240430 68 1 84
0.223285 0.247689 -0.158612 68 1 84
0.291448 -0.350944 -0.199702 68 1 84
0.525889 0.178901 0.031689 68 1 84
0.132202 0.124364 -0.268646 68 1 84
0.296927 0.557890 0.003378 68 1 84
0.658646 -0.149002 0.520661 68 1 84
-0.465530 0.354650 0.009399 60 77 138
0.661854 -0.188014 0.512399 68 1 84
-0.674546 -0.301633 0.341402 68 1 84
0.622518 -0.306719 0.255767 68 1 84
0.179087 -0.384688 -0.215205 66 62 133
0.458315 -0.294807 -0.029102 68 1 84
-0.165057 -0.187486 -0.231713 68 1 84
-0.487929 0.275446 -0.002234 63 71 136
0.390702 -0.307638 -0.090133 68 1 84
0.361717 -0.462540 -0.202617 70 45 124
0.394870 -0.261294 -0.104641 68 1 84
0.698991 -0.521546 0.489285 68 1 84
-0.099282 -0.000311 -0.308443 68 1 84
0.149149 -0.083457 -0.252985 71 39 119
0.118234 -0.317326 -0.174755 71 17 99
-0.590482 -0.413500 0.112656 68 1 84
0.606954 -0.303564 0.200428 68 1 84
0.362705 0.078761 -0.179439 68 1 84
-0.393628 -0.084064 -0.180428 68 1 84
0.582722 0.222277 0.204434 63 69 135
0.412253 0.210373 -0.100727 68 1 84
0.441057 0.386261 0.017364 68 1 84
-0.507296 0.135114 -0.035785 71 20 102
0.515166 0.268764 0.055478 68 1 84
0.485390 -0.182033 -0.071775 68 1 84
0.335368 -0.189143 -0.159183 72 33 114
0.641450 -0.030385 0.500333 68 1 84
-0.366841 0.401959 -0.073321 68 1 84
0.518721 0.173298 0.017586 68 1 84
-0.444389 0.015613 -0.147506 68 1 84
-0.689682 -0.270075 0.465412 68 1 84
-0.085283 -0.352822 -0.256965 39 125 142
0.641615 0.006157 0.394927 68 1 84
-0.657701 -0.209673 0.300532 68 1 84
-0.194415 0.207112 -0.219872 68 1 84
0.658841 -0.150085 0.420680 68 1 84
-0.440362 0.361331 -0.020059 67 58 131
-0.369619 0.130483 -0.170932 68 2 85
0.648967 -0.208124 0.302142 68 1 84
-0.510760 0.125529 -0.034934 71 40 120
0.536282 -0.368206 0.048813 68 1 84
-0.640144 -0.025670 0.247230 68 1 84
-0.438203 0.508537 0.233764 40 122 142
0.137193 -0.044225 -0.342910 72 32 113
-0.408668 -0.450900 -0.188255 71 22 105
0.163442 -0.311490 -0.156017 68 1 84
-0.137205 -0.216519 -0.244365 71 22 105
-0.224703 0.557800 -0.119005 68 1 84
0.118167 -0.057042 -0.372895 69 53 128
0.102001 0.462413 -0.294777 68 1 84
0.331945 -0.437704 -0.211424 68 57 130
0.560863 -0.030810 0.024605 68 1 84
0.542979 -0.180923 -0.001961 68 1 84
0.118707 -0.387447 -0.223136 48 104 141
0.057746 -0.028019 -0.402456 68 1 84
0.423430 0.108287 -0.132215 68 1 84
-0.379468 -0.164432 -0.161884 70 9 92
-0.262798 -0.018226 -0.229984 68 1 84
-0.089445 -0.105099 -0.397931 56 87 140
0.191878 0.355097 -0.210269 68 1 84
-0.524046 0.126443 -0.016315 72 33 114
-0.616133 -0.147949 0.120997 68 1 84
0.298506 0.522342 -0.060441 68 1 84
0.059100 0.086760 -0.307437 68 1 84
-0.516691 0.384620 0.409793 35 168 131
0.608142 -0.322124 0.209366 68 1 84
-0.123871 0.556570 -0.245221 68 1 84
-0.452104 0.495495 0.257983 32 144 140
0.586684 0.011245 0.111122 68 1 84
0.243168 -0.409612 -0.228972 46 109 142
-0.635261 -0.315879 0.227725 68 1 84
-0.632247 0.091770 0.369239 67 59 131
0.609960 -0.169608 0.180394 68 1 84
-0.636627 -0.156074 0.201390 68 1 84
-0.434297 0.164636 -0.107032 71 42 121
-0.084834 -0.446021 -0.293238 165 218 53
-0.676395 -0.187797 0.371808 68 1 84
0.454331 0.340623 0.002264 68 1 84
0.518506 0.375031 0.230383 61 76 137
-0.495720 -0.227096 -0.053447 68 1 84
0.615468 -0.027907 0.226054 68 1 84
-0.083322 0.194214 -0.292829 68 1 84
-0.651918 0.021391 0.392401 68 1 84
0.643970 -0.024219 0.442326 68 1 84
-0.495533 0.439143 0.253337 39 124 142
0.471554 -0.272690 -0.028740 68 1 84
-0.169269 0.513386 -0.216803 68 1 84
0.375673 -0.271979 -0.118821 68 1 84
-0.538101 0.345836 0.412147 36 134 141
-0.320863 0.540917 -0.012227 68 1 84
0.621083 0.082314 0.308434 68 1 84
-0.119127 0.156353 -0.282875 68 1 84
-0.306900 0.399765 -0.116298 68 1 84
-0.564971 0.314398 0.254771 47 105 141
-0.620748 0.093346 0.493448 64 67 135
-0.655706 -0.020709 0.501128 70 12 95
0.629931 0.041651 0.335870 68 1 84
-0.522254 0.328315 0.085823 60 78 138
0.480463 -0.088907 -0.102486 68 1 84
-0.235615 -0.243119 -0.186521 71 15 98
-0.449651 -0.250214 -0.079693 68 1 84
0.643659 -0.129816 0.305718 68 1 84
0.599610 0.139456 0.459326 57 85 139
-0.208129 0.157664 -0.227929 68 1 84
0.098641 0.203009 -0.262022 68 1 84
-0.184143 0.020183 -0.226705 68 1 84
0.194278 0.050776 -0.212712 68 1 84
-0.613708 0.159578 0.336261 59 81 138
0.098847 0.014984 -0.287249 68 1 84
0.604738 0.072635 0.207497 68 1 84
-0.404720 0.106959 -0.155099 68 1 84
-0.564707 0.286984 0.162800 48 104 141
0.553125 -0.277970 0.061113 68 1 84
0.444360 -0.106790 -0.135212 68 1 84
-0.179949 -0.084657 -0.246039 68 1 84
-0.509673 0.321154 0.055273 59 80 138
0.255766 0.204261 -0.141764 68 1 84
-0.605271 -0.444808 0.175899 68 1 84
-0.493510 -0.314132 -0.035523 68 1 84
-0.054508 0.357355 -0.261922 68 1 84
-0.573203 -0.513535 0.063920 68 1 84
-0.324643 -0.170693 -0.174543 71 15 98
0.037299 -0.505561 -0.309675 246 230 31
-0.253354 0.404640 -0.153990 68 1 84
-0.091969 -0.430533 -0.283112 85 198 102
-0.240980 -0.268030 -0.185593 71 43 122
0.533459 0.171951 0.042646 68 1 84
0.540140 0.343144 0.305115 53 93 140
-0.266783 -0.100398 -0.216433 68 1 84
0.475165 0.429488 0.175190 69 53 128
-0.657792 -0.040941 0.488475 68 1 84
0.080403 -0.135185 -0.361954 39 126 142
-0.033342 0.151692 -0.314223 68 1 84
-0.051689 -0.317623 -0.312693 60 78 138
0.370491 0.519180 0.068110 68 1 84
0.666082 -0.232909 0.389444 68 1 84
-0.688546 -0.234002 0.471365 68 1 84
-0.239115 0.361179 -0.166779 68 1 84
0.535839 0.085845 0.009722 68 1 84
-0.716449 -0.463514 0.408885 68 1 84
-0.170868 0.116126 -0.247766 68 1 84
0.045581 -0.192016 -0.374351 39 124 142
0.188965 -0.019688 -0.220739 68 1 84
0.133098 0.404110 -0.257466 68 1 84
0.528321 0.180363 0.036475 68 1 84
0.064541 0.096862 -0.305323 68 1 84
0.236366 0.032835 -0.210288 68 1 84
-0.164492 -0.196747 -0.225848 68 1 84
0.590904 0.073048 0.150619 68 1 84
0.010531 0.540654 -0.309953 68 1 84
0.248351 0.582737 -0.037268 68 1 84
0.587231 -0.435988 0.189457 68 1 84
-0.384114 -0.256778 -0.135153 68 1 84
-0.588102 0.130488 0.122016 62 73 137
0.350633 -0.319968 -0.138215 68 1 84
0.298302 0.148644 -0.171135 68 1 84
0.376353 -0.126836 -0.174091 71 18 101
-0.570290 0.283647 0.375350 39 125 142
0.097036 -0.443607 -0.280796 40 123 142
0.472466 -0.363586 -0.048424 68 1 84
0.012983 0.021562 -0.381799 68 1 84
0.662445 -0.230838 0.526499 68 1 84
-0.654202 -0.224398 0.273388 68 1 84
-0.584909 0.261365 0.244759 55 89 140
0.624138 0.027641 0.506065 71 40 120
0.533413 0.049975 -0.006974 68 1 84
0.554195 -0.482422 0.086243 68 1 84
0.618141 -0.031612 0.235016 68 1 84
-0.687659 -0.318823 0.432186 68 1 84
-0.044763 -0.502613 -0.311338 250 230 34
0.017798 0.593412 -0.281317 68 1 84
-0.683140 -0.143948 0.517658 68 1 84
-0.497110 0.416026 0.145699 44 113 142
-0.648052 -0.435095 0.278576 68 1 84
0.611195 0.138088 0.316181 72 28 110
0.473085 0.304447 0.007667 68 1 84
0.075005 -0.234795 -0.298325 40 122 142
-0.461059 -0.112084 -0.132543 68 1 84
0.583004 -0.126537 0.074180 68 1 84
-0.317096 0.513633 -0.046431 68 1 84
-0.216843 0.120808 -0.222415 68 1 84
-0.623966 0.001105 0.194085 68 2 85
0.103546 0.175573 -0.282900 68 1 84
0.423592 -0.309034 -0.060858 68 1 84
0.527607 -0.125360 -0.040615 68 1 84
-0.673275 -0.201530 0.365763 68 1 84
-0.536653 0.049196 -0.027695 68 1 84
-0.588184 -0.441331 0.107363 68 1 84
0.431585 -0.439332 -0.140808 68 1 84
0.452019 0.206261 -0.063605 68 1 84
0.504072 0.394056 0.208671 61 76 137
-0.611384 -0.042987 0.117468 68 1 84
-0.331548 -0.209587 -0.166489 72 35 116
0.440070 -0.149906 -0.129110 69 6 90
-0.558618 0.299288 0.413390 42 119 142
0.418590 0.369656 -0.025759 68 1 84
-0.089978 0.145739 -0.298428 68 1 84
0.584729 -0.192082 0.094420 68 1 84
0.522379 -0.432110 0.012746 68 1 84
-0.338158 -0.516394 -0.243169 43 115 142
0.632524 -0.124390 0.270782 68 1 84
0.080383 0.568941 -0.285544 68 1 84
0.466119 0.056102 -0.104770 68 1 84
0.070364 0.231838 -0.282970 68 1 84
-0.226158 0.254413 -0.161526 68 1 84
-0.187198 -0.415387 -0.243051 49 101 141
-0.409067 0.242160 -0.101450 68 1 84
0.096613 -0.319640 -0.200856 71 37 117
-0.278543 0.494729 -0.103556 68 1 84
0.330567 -0.182886 -0.163846 71 24 106
0.147692 -0.119713 -0.253940 71 39 119
0.303268 0.459708 -0.102029 68 1 84
-0.500023 -0.107005 -0.097372 68 1 84
-0.331021 0.178259 -0.173317 68 1 84
-0.433314 -0.353182 -0.131104 68 1 84
-0.671036 -0.124211 0.380697 68 1 84
0.267327 0.580903 0.011184 68 1 84
-0.567392 -0.301178 0.049223 68 1 84
-0.663796 -0.102357 0.336140 68 1 84
0.653823 -0.073023 0.400133 68 1 84
0.120215 0.615801 -0.213094 68 1 84
0.021873 0.115170 -0.305106 68 1 84
-0.662571 -0.351789 0.292174 68 1 84
0.637951 -0.027186 0.544587 71 39 119
-0.465444 0.153621 -0.079162 71 44 123
0.070262 0.038194 -0.310495 68 1 84
-0.248562 -0.492775 -0.284223 35 137 141
0.172676 0.155787 -0.236885 68 1 84
0.332454 0.552503 0.068371 68 1 84
0.549462 -0.417341 0.078188 68 1 84
0.189333 0.092586 -0.221033 68 1 84
-0.025253 0.552894 -0.302560 68 1 84
0.658495 -0.166936 0.327879 68 1 84
-0.536594 0.012915 -0.039752 70 14 97
0.379864 -0.453357 -0.189751 72 26 108
0.411903 0.398906 -0.013172 68 1 84
-0.506765 0.347299 0.070869 59 81 138
0.597308 -0.414112 0.217152 68 1 84
-0.573134 0.077747 0.056163 71 38 118
-0.170521 0.378386 -0.214227 68 1 84
-0.541816 -0.325349 0.011734 68 1 84
0.623003 -0.153113 0.231977 68 1 84
0.561326 -0.130817 0.016780 68 1 84
-0.363534 0.153187 -0.165961 68 1 84
0.320071 -0.513478 -0.233422 41 175 127
0.093933 0.263805 -0.275822 68 1 84
0.151149 -0.383511 -0.212266 62 72 136
-0.654730 -0.018001 0.480614 68 1 84
-0.390414 0.081700 -0.173464 72 30 112
-0.529341 0.352057 0.135156 58 82 139
-0.221911 -0.192538 -0.189982 70 11 94
0.284145 -0.402035 -0.222241 71 44 123
-0.599185 -0.339084 0.124236 68 1 84
0.559949 -0.470223 0.101414 68 1 84
-0.473654 0.021808 -0.116872 68 1 84
0.585232 0.171616 0.491938 42 118 142
-0.316271 0.587674 0.087348 71 18 101
0.111869 -0.195732 -0.266129 59 80 138
0.660276 -0.201093 0.548002 68 1 84
0.118247 -0.429702 -0.264748 53 92 140
0.268886 0.529463 -0.107158 68 1 84
0.641018 -0.459182 0.304545 68 1 84
-0.481857 0.021570 -0.107787 68 1 84
0.290789 0.556534 -0.013691 68 1 84
-0.636519 0.068206 0.318011 71 22 105
0.098488 0.237909 -0.271731 68 1 84
-0.156915 -0.033906 -0.304454 68 1 84
0.104055 -0.445884 -0.281084 36 134 141
-0.617384 0.100927 0.498305 61 75 137
-0.600684 -0.472964 0.154249 68 1 84
0.105246 0.623383 -0.207070 68 1 84
-0.526652 -0.323426 -0.006209 68 1 84
0.579548 0.217474 0.429787 45 110 142
0.277161 0.018659 -0.215615 68 1 84
-0.513607 0.035572 -0.064691 68 1 84
-0.182688 0.293451 -0.200460 68 1 84
0.586194 -0.225439 0.112266 68 1 84
0.625862 0.015693 0.286797 68 1 84
-0.563172 -0.014496 -0.003407 71 15 98
-0.291305 -0.121775 -0.201995 70 11 94
-0.366724 0.045203 -0.195487 68 1 84
-0.389277 -0.180794 -0.151526 71 20 102
-0.649869 -0.230555 0.250541 68 1 84
0.244006 -0.341795 -0.173452 69 5 88
-0.050974 -0.145662 -0.419577 32 145 140
0.646581 -0.381328 0.331324 68 1 84
-0.097953 -0.088639 -0.398582 64 67 135
0.369346 0.175385 -0.139539 68 1 84
-0.576561 0.010554 0.031418 68 1 84
-0.626316 0.045535 0.230785 68 1 84
-0.235165 -0.065790 -0.232586 68 1 84
-0.535380 0.370841 0.208406 51 96 141
0.629139 0.045737 0.335540 68 1 84
-0.042415 0.424467 -0.294497 68 1 84
0.149486 -0.393867 -0.220605 53 93 140
0.626578 0.032130 0.462994 70 11 94
0.187648 0.323682 -0.210627 68 1 84
0.602525 0.094549 0.203858 68 1 84
0.688824 -0.447314 0.423892 68 1 84
-0.448672 0.264841 -0.055142 66 61 132
-0.557421 0.329577 0.300782 52 94 141
-0.549117 0.290887 0.476587 30 155 137
0.025270 0.449961 -0.311553 68 1 84
0.331658 -0.453028 -0.216046 61 74 137
0.667768 -0.193726 0.404660 68 1 84
-0.392229 -0.338495 -0.166316 71 21 103
-0.600486 0.211577 0.267941 52 95 141
0.661726 -0.174183 0.332378 68 1 84
-0.657504 -0.175932 0.277585 68 1 84
0.580432 0.013446 0.087846 68 1 84
0.071701 -0.182740 -0.334951 63 69 135
0.072309 -0.175480 -0.338666 50 98 141
0.258754 -0.245494 -0.174415 68 1 84
-0.656601 -0.003830 0.391221 68 1 84
-0.656543 -0.089270 0.293578 68 1 84
0.370721 -0.057414 -0.191425 68 1 84
-0.011721 0.021134 -0.384622 68 1 84
-0.488820 0.436430 0.357165 32 164 133
-0.661047 -0.258006 0.309752 68 1 84
-0.700277 -0.341114 0.465037 68 1 84
0.265417 -0.065244 -0.222097 69 6 90
-0.671774 -0.143893 0.368033 68 1 84
0.247518 0.527168 -0.146619 68 1 84
-0.595558 -0.440588 0.138105 68 1 84
0.273483 -0.218332 -0.169454 68 1 84
-0.159594 0.281398 -0.220959 68 1 84
0.486244 0.415360 0.182818 67 60 132
0.363972 0.291578 -0.107637 68 1 84
-0.445042 0.501241 0.216168 42 119 142
-0.133074 -0.103360 -0.287019 68 1 84
0.373374 -0.127815 -0.175174 72 25 107
-0.403254 0.315933 -0.081917 70 12 95
-0.119561 -0.366192 -0.221412 49 102 141
0.644383 -0.015115 0.423968 68 1 84
-0.375961 0.067855 -0.186024 71 21 103
0.367691 0.516900 0.056546 68 1 84
-0.559030 -0.060273 -0.021251 68 1 84
0.109015 -0.305814 -0.185624 71 18 101
0.293175 -0.143046 -0.193216 68 2 85
-0.575060 0.217959 0.484276 40 122 142
-0.033197 -0.368729 -0.299817 33 140 141
-0.166491 -0.377008 -0.214206 64 67 135
-0.228990 0.609331 -0.002208 68 1 84
-0.449452 0.499117 0.249000 36 132 141
-0.542066 -0.420096 -0.009516 68 1 84
-0.174995 -0.144777 -0.242190 68 1 84
0.698254 -0.446216 0.515946 68 1 84
0.656718 -0.361135 0.359823 68 1 84
0.621920 -0.047679 0.244607 68 1 84
-0.599840 -0.126875 0.066491 68 1 84
0.660854 -0.171922 0.432460 68 1 84
0.113353 0.200473 -0.251665 68 1 84
-0.588321 0.163686 0.138177 67 60 132
0.593342 -0.062565 0.114849 68 1 84
0.520156 0.374016 0.244768 60 77 138
-0.129417 -0.247088 -0.229827 69 50 127
-0.265187 0.266490 -0.155176 68 1 84
0.460382 -0.080387 -0.124241 68 1 84
0.592499 -0.113598 0.107163 68 1 84
0.367974 -0.502632 -0.200166 54 91 140
-0.306777 -0.319756 -0.171728 71 42 121
-0.597479 0.214490 0.234074 48 104 141
0.603676 -0.198233 0.160068 68 1 84
-0.185049 -0.168414 -0.224276 68 1 84
0.666059 -0.415421 0.370801 68 1 84
0.286333 0.180836 -0.159917 68 1 84
-0.664942 -0.072523 0.532416 68 2 85
0.552843 0.118203 0.058340 68 1 84
0.539688 0.343073 0.273216 58 83 139
0.575199 0.211253 0.471616 39 126 142
-0.646628 -0.205878 0.233174 68 1 84
-0.477548 -0.020776 -0.120481 68 1 84
-0.289520 0.598116 0.063647 70 14 97
0.616673 0.059792 0.261117 68 1 84
0.040997 -0.262897 -0.335732 38 172 129
-0.466701 -0.321897 -0.070212 68 1 84
0.252571 0.555156 -0.106122 68 1 84
-0.552717 0.296704 0.452868 33 140 141
-0.613150 -0.225893 0.127581 68 1 84
0.670513 -0.308593 0.479727 68 1 84
-0.324898 -0.452192 -0.234604 59 81 138
0.648358 -0.037670 0.406284 68 1 84
0.589700 -0.245571 0.128223 68 1 84
-0.521699 -0.249919 -0.012068 68 1 84
-0.521447 0.369083 0.431906 31 147 139
-0.569733 -0.181877 0.015885 68 1 84
-0.353294 0.441814 -0.063068 70 9 92
-0.561299 0.266817 0.466195 35 135 141
-0.689903 -0.150133 0.476552 68 1 84
-0.494765 0.008674 -0.096204 68 1 84
0.474964 0.190609 -0.041133 68 1 84
-0.129139 -0.089128 -0.318309 72 34 115
-0.416679 0.519867 0.140001 47 105 141
0.146980 -0.295499 -0.162280 71 40 120
0.541532 0.243731 0.092588 70 9 92
0.390467 0.515002 0.113876 71 40 120
0.447131 0.318313 -0.021365 68 1 84
-0.568091 -0.161660 0.005656 68 1 84
0.138592 -0.418523 -0.246315 56 87 140
-0.187944 0.145804 -0.240414 68 1 84
-0.399598 -0.484439 -0.201073 66 61 132
-0.203389 0.553967 -0.155124 68 1 84
0.613935 -0.060171 0.211518 68 1 84
0.658421 -0.160992 0.330209 68 1 84
-0.432379 0.432638 0.022520 59 80 138
-0.493832 -0.462781 -0.101683 71 38 118
0.609595 0.070047 0.527602 57 84 139
-0.518629 0.402593 0.273967 31 148 139
0.477678 0.054359 -0.090412 68 1 84
-0.096910 0.432822 -0.268136 68 1 84
0.634815 -0.022354 0.314051 68 1 84
0.473685 -0.057786 -0.111199 68 1 84
-0.643502 -0.384500 0.271552 68 1 84
0.519467 0.379673 0.346406 34 137 141
0.247118 -0.189742 -0.181806 71 22 105
0.178980 0.602023 -0.159400 68 1 84
0.601204 0.047803 0.186379 68 1 84
-0.158055 -0.175428 -0.244673 68 1 84
0.632357 -0.162421 0.267743 68 1 84
-0.441021 0.499436 0.173861 47 105 141
-0.372245 -0.439484 -0.208675 71 39 119
0.453919 -0.064888 -0.131069 68 1 84
0.122517 0.529466 -0.283207 68 1 84
-0.543594 -0.437400 -0.007693 68 1 84
-0.371971 -0.436750 -0.208113 69 54 129
-0.411504 -0.080406 -0.171505 68 1 84
-0.185780 -0.315532 -0.164540 67 59 131
0.584391 -0.409243 0.171029 68 1 84
0.052728 0.480473 -0.312021 68 1 84
-0.297749 -0.092409 -0.211096 68 1 84
0.609159 0.054084 0.223616 68 1 84
-0.579665 0.149214 0.106215 63 71 136
-0.346656 0.433074 -0.073609 68 1 84
-0.128025 -0.128428 -0.288126 72 34 115
0.400669 0.388897 -0.034655 68 1 84
0.417069 0.475248 0.084500 70 12 95
0.513224 -0.261196 0.002807 68 1 84
0.583768 0.059265 0.121000 68 1 84
-0.623496 0.115050 0.274900 70 45 124
0.204435 0.090263 -0.211024 68 1 84
0.513177 0.390750 0.328968 40 123 142
0.050028 0.281115 -0.284324 68 1 84
0.072952 0.427540 -0.297912 68 1 84
-0.387591 -0.445798 -0.201351 71 37 117
0.530544 0.331700 0.456800 34 167 132
-0.640870 0.037749 0.510276 66 62 133
0.093008 0.094350 -0.291204 68 1 84
-0.146861 -0.193539 -0.247230 71 18 101
0.202097 -0.151193 -0.217634 66 64 133
0.292725 0.555359 -0.012465 68 1 84
-0.445626 0.500776 0.220091 43 116 142
-0.429645 0.515519 0.230352 40 122 142
-0.163897 0.365254 -0.217541 68 1 84
0.357856 0.454659 -0.039173 68 1 84
0.316977 -0.072724 -0.208768 69 6 90
-0.259712 -0.511542 -0.281368 38 172 129
0.268356 0.477861 -0.140337 68 1 84
-0.555054 -0.317454 0.030180 68 1 84
-0.663319 -0.069010 0.486550 68 1 84
-0.655282 -0.037249 0.315907 68 1 84
-0.195520 -0.349051 -0.197641 68 57 130
-0.595223 -0.335707 0.112696 68 1 84
0.657352 -0.125406 0.366952 68 1 84
0.621525 -0.358777 0.269767 68 1 84
-0.543626 -0.196669 -0.016256 68 1 84
0.473936 0.442844 0.304170 42 118 142
0.597731 -0.076397 0.130905 68 1 84
0.635712 -0.488517 0.256626 68 1 84
-0.545950 -0.372239 0.005056 68 1 84
-0.136331 0.389130 -0.233353 68 1 84
-0.495784 -0.045376 -0.103010 68 1 84
0.012035 -0.249691 -0.366891 96 201 96
0.421361 -0.340927 -0.093244 68 1 84
-0.446564 0.447917 0.063998 63 69 135
0.232426 0.109729 -0.197241 68 1 84
-0.169351 0.099852 -0.245073 68 1 84
-0.113884 0.035663 -0.279045 68 1 84
0.540185 -0.229836 0.017842 68 1 84
0.616821 0.061279 0.492037 67 59 131
0.524187 -0.262661 0.015440 68 1 84
-0.452405 0.305811 -0.033365 63 69 135
-0.122483 0.328362 -0.240636 68 1 84
0.496267 0.175164 -0.017633 68 1 84
-0.441193 0.097044 -0.126881 70 14 97
0.527607 0.346564 0.431575 31 162 134
0.600666 -0.109429 0.142043 68 1 84
-0.296961 0.128088 -0.199499 68 1 84
0.316794 0.508209 -0.047666 68 1 84
0.342443 -0.078041 -0.199191 71 21 103
-0.684849 -0.273094 0.418604 68 1 84
0.575842 0.244188 0.202694 71 21 103
-0.618671 -0.314631 0.176210 68 1 84
0.430402 0.431175 0.045475 68 1 84
0.598059 0.183911 0.372975 55 89 140
0.222009 0.241620 -0.156837 68 1 84
0.628128 -0.084510 0.258188 68 1 84
0.517055 0.124441 -0.007253 68 1 84
0.549967 0.170862 0.074616 68 1 84
-0.666133 -0.234577 0.358587 68 1 84
0.593284 0.120027 0.175070 68 1 84
0.175323 -0.483229 -0.291469 53 183 120
0.596346 0.011767 0.155486 68 1 84
0.049174 -0.401987 -0.281010 32 145 140
0.540849 -0.453231 0.053483 68 1 84
-0.464955 -0.430770 -0.135058 68 1 84
0.494096 0.414117 0.242753 69 52 127
-0.030299 -0.317987 -0.325824 42 119 142
-0.607886 0.098183 0.178366 71 44 123
0.532712 0.182932 0.045332 68 1 84
0.604958 -0.417095 0.233534 68 1 84
0.688383 -0.441270 0.428441 68 1 84
-0.086206 -0.142686 -0.360515 37 130 142
0.519568 0.378932 0.297366 56 86 139
-0.663979 -0.199527 0.338702 68 1 84
-0.342565 0.566907 0.068165 72 30 112
-0.679525 -0.202906 0.383025 68 1 84
-0.555265 -0.456708 0.017805 68 1 84
-0.202667 -0.492197 -0.295195 35 169 130
0.428818 0.427652 0.038836 68 1 84
0.325399 0.225309 -0.138774 68 1 84
0.179905 -0.346356 -0.181008 69 53 128
-0.145937 -0.060983 -0.319812 68 1 84
-0.536476 -0.018587 -0.048414 68 1 84
-0.631504 -0.087844 0.187578 68 1 84
0.314275 0.449530 -0.093148 68 1 84
-0.175414 -0.188911 -0.220520 68 1 84
-0.585313 0.190807 0.484832 44 112 142
0.014238 -0.217806 -0.386629 83 197 103
-0.248333 -0.089667 -0.224227 68 1 84
0.641847 -0.100866 0.308499 68 1 84
0.620856 0.077268 0.298322 68 1 84
-0.605693 -0.511430 0.157025 68 1 84
0.586965 -0.129661 0.088197 68 1 84
0.109441 0.533762 -0.288347 68 1 84
0.313289 0.435962 -0.098975 68 1 84
0.500393 -0.002477 -0.071934 68 1 84
-0.218310 0.559644 -0.126729 68 1 84
-0.360537 -0.125278 -0.182791 68 1 84
0.192120 -0.479921 -0.288011 43 177 125
0.113090 0.515079 -0.290778 68 1 84
0.582905 -0.459432 0.166534 68 1 84
0.003111 0.385427 -0.286762 68 1 84
-0.101594 -0.075010 -0.402647 71 21 103
-0.230384 -0.201025 -0.185631 72 26 108
0.549701 0.280923 0.146108 71 39 119
0.074862 -0.302564 -0.244784 41 121 142
0.516659 0.296957 0.077944 68 1 84
-0.572095 0.285877 0.203173 48 103 141
0.663425 -0.207215 0.476035 68 1 84
-0.551828 -0.124631 -0.031843 68 1 84
-0.245677 -0.490527 -0.284358 35 135 141
0.578732 0.236522 0.391356 50 98 141
0.211428 0.234884 -0.163495 68 1 84
0.061765 -0.509489 -0.306486 253 231 36
0.536463 -0.139870 -0.024386 68 1 84
0.600369 -0.407342 0.222327 68 1 84
0.018386 0.528298 -0.313561 68 1 84
0.204773 0.509287 -0.214774 68 1 84
0.364896 0.326395 -0.095943 68 1 84
-0.464292 -0.480296 -0.139120 70 47 124
-0.279409 -0.126759 -0.202901 68 1 84
0.609234 0.057554 0.224832 68 1 84
-0.438357 -0.497646 -0.168563 66 61 132
-0.224717 -0.518000 -0.293295 75 194 108
-0.568922 -0.495218 0.053032 68 1 84
-0.145958 0.056483 -0.247389 68 1 84
0.026427 -0.063584 -0.467492 72 25 107
-0.647939 -0.339297 0.261708 68 1 84
0.485880 0.423113 0.219945 68 57 130
-0.029219 -0.366677 -0.301371 34 138 141
-0.650231 0.006241 0.517265 71 22 105
0.262672 0.551367 -0.089686 68 1 84
0.481948 0.085027 -0.074937 68 1 84
-0.033406 -0.362761 -0.301004 39 125 142
-0.681985 -0.456987 0.354133 68 1 84
0.657179 -0.126559 0.361557 68 1 84
-0.603351 0.203395 0.292999 53 93 140
-0.530988 0.354598 0.425491 30 152 138
-0.422200 -0.528877 -0.177979 67 58 131
0.173201 -0.443298 -0.262029 55 88 140
0.277205 0.090706 -0.193445 68 1 84
-0.655972 -0.016031 0.424458 68 1 84
0.117900 -0.315825 -0.174995 71 18 101
-0.091093 0.422984 -0.267445 68 1 84
0.333870 0.391018 -0.094103 68 1 84
-0.477059 0.454775 0.175091 49 102 141
0.520489 -0.453784 0.006106 68 1 84
0.137472 0.555361 -0.263026 68 1 84
-0.064478 -0.159760 -0.391525 40 123 142
-0.028542 -0.262350 -0.362039 53 183 120
-0.703849 -0.493290 0.382809 68 1 84
-0.529078 0.364768 0.409331 31 146 140
-0.463990 -0.245892 -0.069895 68 1 84
-0.336097 0.136026 -0.184946 68 1 84
0.097515 0.566663 -0.280745 68 1 84
-0.638380 -0.350781 0.248341 68 1 84
-0.523758 0.394431 0.231298 45 111 142
0.182195 0.158699 -0.228734 68 1 84
0.058203 0.540734 -0.304532 68 1 84
-0.629158 -0.037824 0.196465 68 1 84
0.663642 -0.246089 0.513525 68 1 84
-0.508372 -0.434840 -0.078839 68 1 84
-0.514839 0.393054 0.395959 32 164 133
-0.512381 0.085857 -0.048075 72 25 107
0.621260 0.087520 0.367649 72 25 107
0.015599 -0.483799 -0.309964 212 225 26
0.162203 0.557113 -0.240546 68 1 84
0.351640 0.077331 -0.184102 68 1 84
-0.241401 0.520314 -0.130543 68 1 84
-0.139515 -0.332219 -0.187551 63 69 135
0.406536 -0.383835 -0.142809 68 1 84
0.429752 0.164628 -0.103361 68 1 84
-0.082139 0.581972 -0.264546 68 1 84
0.525519 0.220459 0.048994 68 1 84
-0.517309 0.277731 0.041544 58 82 139
0.556625 0.298778 0.214975 64 67 135
-0.101469 -0.007198 -0.315028 68 1 84
0.093719 0.049402 -0.286177 68 1 84
-0.227195 0.204893 -0.199527 68 1 84
0.663188 -0.293558 0.398924 68 1 84
-0.408086 0.399791 -0.033530 71 43 122
0.545376 -0.009873 -0.001487 68 1 84
0.116071 0.459333 -0.287295 68 1 84
-0.505981 0.100745 -0.050881 71 22 105
0.303292 0.535059 -0.031379 68 1 84
0.459011 0.008782 -0.123067 68 1 84
0.447845 -0.119869 -0.130304 68 1 84
0.448807 0.123781 -0.100990 68 1 84
0.663376 -0.241142 0.545111 68 1 84
-0.593839 -0.223819 0.077794 68 1 84
0.659691 -0.188796 0.324189 68 1 84
-0.269039 -0.339412 -0.197190 62 73 137
-0.317566 0.584643 0.076098 69 6 90
0.637435 -0.088933 0.293703 68 1 84
-0.484286 -0.021536 -0.113320 68 1 84
-0.074215 -0.473416 -0.305591 183 221 41
-0.574183 0.256271 0.162072 47 105 141
0.091280 -0.074836 -0.408799 71 44 123
0.665053 -0.257212 0.421421 68 1 84
0.452669 -0.240599 -0.069974 68 1 84
-0.490629 -0.476003 -0.104047 72 29 111
-0.236041 0.592596 -0.046805 68 1 84
-0.437089 0.393078 -0.003463 68 57 130
0.656962 -0.261058 0.337716 68 1 84
-0.449382 -0.126527 -0.139150 68 1 84
0.369375 -0.401640 -0.181013 68 1 84
-0.199789 0.192483 -0.224116 68 1 84
0.108512 0.597548 -0.248885 68 1 84
-0.585453 0.215422 0.442322 47 105 141
-0.335775 -0.462445 -0.234186 62 72 136
0.087773 0.189706 -0.277623 68 1 84
0.491924 -0.176635 -0.067033 68 1 84
-0.329802 -0.403094 -0.220706 71 38 118
0.233479 0.039441 -0.208006 68 1 84
-0.601910 -0.044123 0.081149 68 1 84
-0.166548 0.164444 -0.254202 68 1 84
-0.543432 0.044658 -0.018790 68 1 84
0.320094 -0.226949 -0.154133 71 39 119
0.473581 -0.349111 -0.036593 68 1 84
0.610793 -0.487573 0.233478 68 1 84
-0.102827 -0.296890 -0.236410 55 89 140
0.142711 0.075684 -0.251308 68 1 84
0.622126 0.081568 0.398977 72 29 111
0.033789 -0.354028 -0.291323 73 193 109
-0.189463 -0.428586 -0.254943 37 130 142
0.614522 0.019158 0.237519 68 1 84
-0.135017 -0.455960 -0.291341 44 177 125
-0.393316 -0.075565 -0.181969 68 1 84
0.011563 0.405214 -0.298872 68 1 84
-0.396293 0.540883 0.143126 53 93 140
-0.342086 -0.484107 -0.238070 54 91 140
-0.488550 0.123558 -0.063988 71 42 121
0.612100 -0.179197 0.189920 68 1 84
-0.211045 -0.215824 -0.186120 70 49 126
-0.691906 -0.372833 0.406828 68 1 84
-0.625806 -0.073478 0.167215 68 1 84
-0.256539 0.218058 -0.181101 68 1 84
-0.711099 -0.510267 0.402278 68 1 84
-0.207596 0.262853 -0.170440 68 1 84
0.397289 0.511624 0.126537 67 60 132
0.577354 0.093025 0.112183 68 1 84
0.012842 -0.316604 -0.324651 41 175 127
0.670531 -0.191095 0.369385 68 1 84
0.665454 -0.217631 0.419146 68 1 84
0.576094 -0.211986 0.078065 68 1 84
0.454494 0.084468 -0.110094 68 1 84
-0.059233 0.596217 -0.265896 68 1 84
0.238966 -0.441779 -0.241836 45 110 142
-0.427271 0.500735 0.117360 51 97 141
-0.541254 0.316903 0.463086 31 163 134
0.518238 0.318524 0.102908 71 37 117
0.349542 0.213025 -0.136410 68 1 84
0.585030 -0.425415 0.176366 68 1 84
-0.336648 0.576494 0.092538 71 37 117
0.440498 0.452537 0.101699 71 39 119
-0.503051 0.427935 0.272077 36 132 141
-0.360052 0.345768 -0.104169 68 1 84
-0.007418 0.633357 -0.229954 68 1 84
0.476066 -0.319717 -0.015534 68 1 84
0.547491 0.263636 0.122577 71 22 105
0.461199 -0.013646 -0.123349 68 1 84
0.529487 0.155942 0.028775 68 1 84
0.637706 -0.255732 0.280243 68 1 84
-0.157038 -0.499431 -0.305791 98 202 95
-0.673589 -0.171143 0.367147 68 1 84
-0.055029 -0.032119 -0.350595 72 25 107
-0.711836 -0.440590 0.410615 68 1 84
0.437987 -0.332549 -0.067985 68 1 84
-0.587401 0.247151 0.225840 49 101 141
-0.438089 0.114759 -0.123531 68 1 84
-0.630822 0.091401 0.303245 71 39 119
-0.611867 -0.121265 0.105719 68 1 84
0.460564 0.447405 0.165229 69 52 127
0.602716 0.061236 0.195602 68 1 84
0.371367 -0.170260 -0.157901 70 14 97
0.664651 -0.206089 0.333540 68 1 84
-0.528423 0.332780 0.106514 60 77 138
0.544098 0.298721 0.469013 30 156 137
-0.651110 0.023999 0.380687 68 1 84
-0.424380 0.438323 0.016137 66 64 133
0.628787 0.052341 0.418372 68 1 84
0.473336 0.153467 -0.058626 68 1 84
-0.403277 0.487604 0.036746 70 49 126
-0.465794 -0.072809 -0.132065 68 1 84
0.418743 -0.238950 -0.097748 68 1 84
0.444534 0.239981 -0.059416 68 1 84
-0.680723 -0.165241 0.413944 68 1 84
0.156542 0.278208 -0.230674 68 1 84
-0.243290 -0.500535 -0.287718 35 137 141
0.442937 -0.481518 -0.124589 67 59 131
0.582881 0.209050 0.425169 61 75 137
-0.258453 0.598254 0.007496 68 1 84
-0.718750 -0.453665 0.417222 68 1 84
-0.674798 -0.304581 0.342400 68 1 84
0.054728 -0.334257 -0.269642 71 192 110
-0.653025 -0.522329 0.290845 68 1 84
0.407790 0.172742 -0.117436 68 1 84
0.253087 0.559603 -0.096794 68 1 84
0.640495 -0.074237 0.314356 68 1 84
0.176586 0.087128 -0.229212 68 1 84
-0.560225 -0.391884 0.032797 68 1 84
0.188876 -0.076872 -0.233634 68 3 87
-0.644196 -0.351168 0.259936 68 1 84
0.672171 -0.197930 0.359972 68 1 84
-0.417703 0.526431 0.218306 45 111 142
0.617549 0.084871 0.440967 71 38 118
-0.018029 0.484512 -0.313683 68 1 84
0.211987 0.597701 -0.082781 68 1 84
0.592747 -0.476505 0.210839 68 1 84
-0.354995 0.251140 -0.137621 68 1 84
-0.043142 0.081004 -0.314500 68 1 84
-0.289087 0.150003 -0.196712 68 1 84
0.465136 -0.122338 -0.113861 68 1 84
-0.446662 0.044437 -0.138373 68 1 84
-0.667196 -0.142398 0.334407 68 1 84
-0.618202 -0.161658 0.129852 68 1 84
0.571196 0.102782 0.098462 68 1 84
-0.462814 0.367916 0.014482 61 74 137
-0.654225 -0.480781 0.299971 68 1 84
-0.559185 0.323553 0.315477 40 122 142
0.661858 -0.159181 0.341654 68 1 84
0.511266 0.393218 0.304519 57 84 139
-0.444361 0.333949 -0.029974 67 58 131
-0.418827 0.109071 -0.142757 70 9 92
-0.599698 0.201406 0.382434 62 73 137
0.346687 0.388216 -0.085319 68 1 84
0.205765 -0.054039 -0.228970 68 1 84
-0.672625 -0.265597 0.370601 68 1 84
0.049738 0.094672 -0.307631 68 1 84
0.576929 -0.299865 0.115525 68 1 84
-0.596529 0.056718 0.113823 70 49 126
-0.444947 -0.277294 -0.072091 68 1 84
-0.485737 0.448090 0.204535 42 118 142
0.314171 -0.222421 -0.156532 71 43 122
0.519576 -0.021713 -0.046888 68 1 84
-0.579647 0.227654 0.152734 62 73 137
0.649483 -0.104083 0.340187 68 1 84
-0.006507 -0.334884 -0.318833 41 121 142
0.330889 -0.342307 -0.187258 68 1 84
-0.240376 0.567703 -0.082383 68 1 84
-0.606278 -0.049461 0.095097 68 1 84
-0.378504 -0.260610 -0.139253 68 3 87
-0.250278 -0.017633 -0.231177 68 1 84
0.570877 0.278490 0.285415 58 82 139
0.145945 0.543048 -0.262640 68 1 84
0.215705 0.597998 -0.065245 68 1 84
0.377969 0.480255 0.016440 68 1 84
0.573665 0.230839 0.173217 70 14 97
0.258712 -0.360989 -0.209334 68 1 84
0.640929 -0.062368 0.325433 68 1 84
-0.362684 0.183634 -0.155637 68 1 84
-0.412940 -0.088776 -0.169531 68 1 84
0.558305 0.267811 0.461532 42 118 142
0.225046 0.589571 -0.083969 68 1 84
-0.047976 -0.376601 -0.291455 31 146 140
-0.304510 0.518413 -0.056108 68 1 84
-0.232197 0.298876 -0.164266 68 1 84
0.610274 0.065651 0.231227 68 1 84
-0.138690 -0.262576 -0.198957 60 77 138
0.546691 -0.391422 0.070386 68 1 84
0.653258 -0.075378 0.444575 68 1 84
0.648643 -0.039138 0.408034 68 1 84
0.236618 -0.107393 -0.219466 70 12 95
0.295552 0.210710 -0.144166 68 1 84
0.561795 -0.417699 0.108282 68 1 84
-0.343625 -0.180075 -0.167019 69 5 88
0.179603 -0.286765 -0.169569 61 76 137
0.303978 -0.262467 -0.166315 68 3 87
0.171057 0.451492 -0.246936 68 1 84
0.521275 0.327316 0.122720 72 29 111
0.211035 -0.275307 -0.177048 68 1 84
0.357679 0.152832 -0.153110 68 1 84
0.578941 -0.513246 0.150428 68 1 84
-0.067674 -0.144733 -0.398732 41 121 142
-0.540592 0.344576 0.399388 36 132 141
-0.279826 0.586393 0.005427 68 1 84
-0.610050 0.133919 0.472497 54 91 140
-0.059435 0.328692 -0.265814 68 1 84
-0.606886 -0.141250 0.089074 68 1 84
-0.660014 -0.328041 0.279353 68 1 84
-0.169766 0.233656 -0.201259 68 1 84
-0.369851 0.431760 -0.052355 72 26 108
-0.359342 -0.327258 -0.191554 71 18 101
0.581320 -0.346956 0.142485 68 1 84
0.415122 -0.125808 -0.153657 69 8 91
0.435520 -0.039950 -0.149477 68 1 84
0.582678 -0.007100 0.087444 68 1 84
0.039426 0.344048 -0.263938 68 1 84
0.637010 -0.097560 0.290647 68 1 84
0.012360 0.366338 -0.274834 68 1 84
-0.525350 -0.243766 -0.011716 68 1 84
-0.123940 -0.327187 -0.198032 61 74 137
0.527155 -0.316341 0.034839 68 1 84
0.510638 -0.295777 0.014673 68 1 84
-0.155910 0.254391 -0.216178 68 1 84
-0.684623 -0.200665 0.423965 68 1 84
-0.656470 -0.513324 0.299926 68 1 84
-0.283533 0.386767 -0.132815 68 1 84
-0.142115 0.547796 -0.231703 68 1 84
0.489885 0.037975 -0.077784 68 1 84
0.401473 0.425545 -0.004843 68 1 84
0.653816 -0.281608 0.351796 68 1 84
-0.522331 0.027015 -0.055907 69 5 88
-0.551185 0.201216 0.065113 65 66 134
0.151165 0.378215 -0.237237 68 1 84
-0.454777 0.042971 -0.131085 68 1 84
0.375684 -0.381597 -0.170120 68 1 84
0.341267 0.028913 -0.200551 68 1 84
0.639377 0.007766 0.425579 69 8 91
0.357983 0.330102 -0.098042 68 1 84
-0.539184 -0.266586 0.009320 68 1 84
0.594643 -0.070130 0.118681 68 1 84
-0.332050 0.491728 -0.048731 70 9 92
-0.294822 0.541241 -0.044023 68 1 84
0.475021 0.438903 0.226510 69 52 127
0.078216 0.426850 -0.295693 68 1 84
-0.643872 0.017525 0.304190 68 1 84
0.529731 -0.433819 0.029199 68 1 84
-0.370115 0.215053 -0.140189 68 1 84
0.552096 -0.110782 -0.003107 68 1 84
-0.132288 0.320750 -0.236224 68 1 84
-0.191566 -0.283982 -0.173015 61 74 137
0.537451 -0.339008 0.050993 68 1 84
0.602063 -0.088256 0.150599 68 1 84
-0.508568 0.390308 0.133144 42 117 142
0.518521 -0.417187 0.006394 68 1 84
0.653623 -0.410313 0.345005 68 1 84
0.180665 0.102309 -0.229341 68 1 84
0.493469 -0.379161 -0.026600 68 1 84
-0.025185 0.226618 -0.287798 68 1 84
-0.376491 -0.291538 -0.136505 68 1 84
0.546353 0.294938 0.467685 31 149 139
-0.088836 -0.311365 -0.257035 47 106 141
0.425135 -0.184889 -0.123659 68 1 84
0.140717 0.500630 -0.276950 68 1 84
-0.378286 0.492204 0.005078 71 42 121
-0.561139 0.252533 0.488062 32 145 140
0.667729 -0.319632 0.425780 68 1 84
0.638775 -0.018482 0.488622 68 1 84
-0.483079 0.414216 0.098098 53 93 140
-0.712587 -0.406016 0.431869 68 1 84
0.398688 -0.185317 -0.138318 68 1 84
0.508117 0.070510 -0.041553 68 1 84
-0.473670 -0.300646 -0.049986 68 1 84
0.088895 0.527742 -0.298319 68 1 84
0.535354 0.323309 0.455292 32 164 133
0.579511 0.237558 0.212575 72 29 111
0.667551 -0.203997 0.379374 68 1 84
0.427409 0.485135 0.149193 69 52 127
-0.548080 0.322244 0.417762 38 129 142
-0.026863 0.085932 -0.314714 68 1 84
-0.492836 0.439825 0.214613 40 122 142
-0.417581 0.513045 0.120645 54 91 140
0.456518 0.360638 0.020133 68 1 84
0.178568 0.163842 -0.230483 68 1 84
-0.483125 -0.175236 -0.096235 68 1 84
0.519572 0.352252 0.161820 71 43 122
-0.595606 -0.472421 0.135259 68 1 84
-0.429906 0.453792 0.040822 63 71 136
0.643390 -0.055565 0.488383 68 1 84
0.647778 -0.235869 0.298747 68 1 84
0.629582 -0.149450 0.258210 68 1 84
0.385705 0.436054 -0.016502 68 1 84
0.288925 -0.216270 -0.164935 71 20 102
0.507839 -0.498852 -0.016122 53 93 140
-0.219032 -0.231930 -0.184641 70 47 124
-0.309203 0.511469 -0.057350 68 1 84
0.008245 0.633675 -0.229229 68 1 84
0.691716 -0.425714 0.480516 68 1 84
0.405364 0.213625 -0.105037 68 1 84
0.438616 0.424412 0.052529 68 1 84
0.032097 0.390066 -0.291161 68 1 84
-0.379838 0.140158 -0.161302 71 22 105
0.235332 0.265909 -0.155647 68 1 84
0.585715 -0.464305 0.187814 68 1 84
-0.324380 -0.481014 -0.246281 51 96 141
0.166595 0.322636 -0.224603 68 1 84
0.512144 0.321065 0.090418 68 1 84
0.089736 0.557258 -0.288504 68 1 84
-0.507717 0.415242 0.195190 43 116 142
-0.574834 -0.506064 0.068118 68 1 84
0.620505 0.090974 0.354227 69 8 91
-0.169762 0.536012 -0.208407 68 1 84
-0.209295 -0.436785 -0.257443 37 130 142
-0.588996 0.194725 0.158678 68 57 130
0.238491 -0.075045 -0.225881 68 1 84
0.516989 0.377387 0.229483 63 69 135
-0.558412 0.161511 0.061757 70 48 125
0.179739 0.585431 -0.192426 68 1 84
-0.626941 -0.133552 0.162517 68 1 84
-0.452693 -0.325159 -0.087421 68 1 84
0.274429 0.340821 -0.144874 68 1 84
-0.116288 -0.191808 -0.287377 64 68 135
-0.419402 0.232458 -0.095780 72 29 111
-0.034086 -0.061945 -0.468029 69 6 90
0.554144 0.201883 0.096731 68 1 84
-0.061257 -0.503249 -0.310602 241 229 28
-0.656932 -0.257318 0.291421 68 1 84
-0.063341 -0.099318 -0.442648 50 98 141
-0.159114 -0.262419 -0.184509 71 40 120
-0.031311 0.579116 -0.287034 68 1 84
0.138656 -0.208039 -0.227401 64 68 135
0.124290 -0.033824 -0.348409 70 12 95
0.258204 0.544961 -0.108858 68 1 84
-0.730923 -0.475551 0.487568 68 1 84
-0.063265 0.449281 -0.293830 68 1 84
-0.492677 0.229161 -0.016621 60 78 138
0.621168 -0.185279 0.225028 68 1 84
-0.074450 0.462987 -0.291343 68 1 84
-0.648616 0.013421 0.446114 68 1 84
0.644559 -0.064038 0.484485 68 1 84
-0.597168 0.205259 0.392497 53 93 140
-0.645444 -0.089473 0.245326 68 1 84
-0.716235 -0.394222 0.452816 68 1 84
0.026481 0.119347 -0.305263 68 1 84
-0.449770 0.453925 0.079782 58 83 139
-0.461397 -0.313035 -0.069197 68 1 84
-0.050219 -0.055267 -0.461680 68 1 84
-0.640302 -0.103212 0.222386 68 1 84
-0.642750 -0.270531 0.236768 68 1 84
0.624536 -0.081200 0.244818 68 1 84
-0.109296 0.222028 -0.255556 68 1 84
0.617581 0.052879 0.502540 67 60 132
-0.382933 0.544536 0.105966 62 73 137
0.318671 0.072005 -0.196286 68 1 84
0.608118 0.091900 0.229688 68 1 84
-0.170717 0.224602 -0.214040 68 1 84
0.414727 -0.377480 -0.132080 68 1 84
-0.151730 0.494133 -0.235861 68 1 84
0.083433 -0.144002 -0.345520 43 116 142
-0.027142 -0.312453 -0.330716 36 132 141
-0.661189 -0.045722 0.412271 68 1 84
0.406221 -0.442167 -0.166430 68 3 87
-0.570128 -0.457850 0.053407 68 1 84
0.298986 -0.474267 -0.237733 31 146 140
-0.518759 0.024154 -0.061612 68 3 87
-0.545784 -0.085904 -0.044009 68 1 84
-0.252264 0.510071 -0.123804 68 1 84
0.629491 -0.509982 0.265536 68 1 84
0.052036 0.139237 -0.308377 68 1 84
-0.668352 -0.285469 0.311785 68 1 84
-0.583511 -0.441798 0.092071 68 1 84
0.170547 0.301516 -0.220271 68 1 84
0.590778 0.196016 0.400942 67 59 131
0.076158 -0.353060 -0.236366 37 130 142
