ply
format ascii 1.0
element vertex 1264
property float x
property float y
property float z
property uchar red
property uchar green
property uchar blue
end_header
0.275193 -0.339612 -0.179386 68 1 84
0.629465 -0.343464 0.193402 35 136 141
-0.082588 0.047382 -0.376626 41 120 142
0.645968 -0.154761 0.448946 228 227 24
0.505567 -0.425587 -0.118883 68 1 84
0.322200 0.068539 -0.204183 68 1 84
0.614748 -0.139325 0.125448 30 155 137
0.606037 -0.013167 0.332925 48 180 122
0.554709 0.175291 0.253319 33 140 141
0.344062 0.040707 -0.204212 68 1 84
0.656424 -0.158285 0.407499 218 226 24
-0.679215 -0.188328 0.363561 112 206 86
-0.470521 -0.057960 -0.147963 68 1 84
0.487706 0.111477 -0.070685 65 66 134
0.564534 0.156236 0.365409 30 152 138
-0.625134 -0.248197 0.126477 57 84 139
-0.255690 -0.118669 -0.204450 68 1 84
-0.667879 -0.298237 0.459699 59 186 117
0.311097 0.170089 -0.160496 68 1 84
0.121171 0.065605 -0.262917 68 1 84
0.296190 -0.060958 -0.212798 68 1 84
0.655562 -0.170575 0.329547 136 213 71
-0.584114 0.141705 0.308758 39 124 142
0.591053 0.035649 0.484988 100 203 93
0.562311 0.158824 0.310545 30 158 136
0.547334 0.024392 -0.015192 38 128 142
-0.385187 0.445509 0.100734 68 1 84
0.544251 0.176708 0.481857 31 163 134
-0.308629 -0.384836 -0.214390 68 1 84
0.558327 0.156979 0.248881 33 140 141
-0.596851 -0.376789 0.111494 71 39 119
0.678756 -0.396385 0.371875 79 195 105
-0.314617 -0.410347 -0.249702 68 1 84
-0.311052 0.160894 -0.166211 69 8 91
-0.189228 0.122868 -0.218213 68 1 84
-0.539206 -0.486883 -0.071871 68 1 84
-0.377941 -0.330200 -0.149754 68 1 84
-0.333992 0.081171 -0.196715 71 17 99
-0.436973 -0.366360 -0.141307 70 14 97
0.435868 0.070251 -0.145478 70 9 92
-0.134298 -0.204919 -0.228828 68 1 84
-0.461190 -0.250875 -0.083107 68 1 84
-0.505766 0.215399 0.047735 71 24 106
0.527365 -0.160145 -0.048743 52 94 141
0.608085 -0.104692 0.115909 32 165 133
-0.571271 -0.051430 -0.034834 65 65 134
0.438208 -0.351259 -0.113861 68 1 84
0.239784 0.462958 -0.069303 68 1 84
0.188870 0.577804 0.020552 68 1 84
0.082309 0.028472 -0.409261 47 106 141
0.167252 -0.044537 -0.249876 68 1 84
0.652944 -0.371122 0.272710 31 147 139
0.045550 0.531570 -0.177548 68 1 84
0.205696 0.466144 -0.102456 68 1 84
0.217558 0.561197 0.005651 68 1 84
-0.548836 0.260345 0.283576 50 98 141
0.195433 0.557862 -0.060757 68 1 84
-0.615997 -0.036617 0.201818 55 89 140
-0.460150 0.409470 0.225620 71 43 122
0.585409 -0.009213 0.088564 32 143 140
0.393533 -0.464681 -0.247394 68 1 84
-0.479536 -0.053281 -0.141645 70 11 94
-0.174812 -0.359235 -0.205766 68 1 84
-0.500965 0.013162 -0.115837 71 24 106
-0.243848 -0.283874 -0.177472 68 1 84
-0.574927 0.173746 0.384682 33 142 140
-0.650246 -0.451800 0.284613 43 115 142
0.120444 0.243097 -0.228838 68 1 84
-0.165880 0.022840 -0.259683 68 1 84
0.587394 -0.319594 0.089512 57 84 139
-0.366137 0.005487 -0.203253 72 34 115
-0.663981 -0.230796 0.247124 30 152 138
0.310707 0.487547 0.052479 68 1 84
-0.178698 0.213511 -0.219825 68 1 84
0.697622 -0.346438 0.472553 225 227 24
-0.376017 0.351248 -0.018023 68 1 84
0.590609 -0.025654 0.106945 33 166 133
-0.613830 -0.381044 0.153592 66 64 133
0.072602 -0.112445 -0.362629 72 35 116
-0.656272 -0.209935 0.213007 35 136 141
-0.672543 -0.237215 0.434748 89 199 100
-0.662362 -0.475308 0.367931 38 128 142
-0.096556 -0.132891 -0.319421 68 1 84
-0.218961 -0.178794 -0.181669 68 1 84
-0.638396 -0.114318 0.196699 41 120 142
0.382716 -0.237778 -0.139632 68 1 84
-0.470967 -0.107826 -0.138839 68 1 84
0.701064 -0.345669 0.477729 228 227 24
-0.595306 -0.066484 0.016139 42 117 142
0.578116 -0.199595 0.043341 40 123 142
-0.657123 -0.535764 0.328375 58 83 139
-0.530032 -0.339582 -0.026320 68 1 84
0.642355 -0.451456 0.265621 40 123 142
-0.565591 0.210260 0.277927 45 110 142
-0.121230 -0.122492 -0.290602 68 1 84
-0.259989 -0.278646 -0.182580 68 1 84
0.502547 -0.122703 -0.091734 51 97 141
-0.561120 -0.516523 0.022213 68 1 84
-0.515980 -0.322508 -0.036943 71 21 103
0.384881 0.226962 -0.087298 72 25 107
0.031396 -0.226711 -0.361901 72 35 116
0.684572 -0.352467 0.403380 199 224 31
-0.175490 0.549001 -0.098481 68 1 84
0.533389 0.227059 0.185645 56 87 140
-0.484311 0.290144 0.080037 68 1 84
-0.618021 -0.232438 0.103729 61 75 137
0.367167 -0.437013 -0.240969 68 1 84
-0.550394 0.185268 0.139179 69 52 127
-0.165578 0.400183 -0.140869 68 1 84
0.034801 0.371333 -0.184876 68 1 84
0.522155 0.237222 0.470994 44 113 142
0.377835 -0.402390 -0.205366 68 1 84
0.468432 -0.521738 -0.198910 68 1 84
0.199474 0.083970 -0.209556 68 1 84
-0.360123 0.295886 -0.071215 68 1 84
0.399466 -0.002836 -0.183588 68 2 85
0.046136 -0.171229 -0.370655 72 26 108
-0.315286 0.506706 0.083514 68 1 84
-0.608108 -0.047386 0.071942 59 81 138
-0.359486 0.288436 -0.076163 68 1 84
-0.324805 -0.253827 -0.183264 68 1 84
0.419356 0.419981 0.357671 70 48 125
0.602323 0.000525 0.341157 87 198 101
-0.635834 -0.062006 0.531463 41 175 127
-0.444834 0.416300 0.181856 68 1 84
-0.577794 0.169375 0.303030 55 88 140
0.104044 0.251104 -0.238821 68 1 84
-0.593669 0.040281 0.161145 65 66 134
-0.351690 0.196820 -0.131015 71 37 117
0.460517 0.229529 -0.004324 71 24 106
-0.420712 -0.168573 -0.130493 68 1 84
-0.629970 -0.566807 0.222434 71 42 121
0.512042 -0.062120 -0.093793 37 130 142
0.583145 -0.354502 0.088008 52 94 141
-0.467209 0.292055 0.050940 68 1 84
0.204461 -0.179550 -0.185570 68 1 84
0.396487 0.448759 0.175867 70 12 95
0.658997 -0.228257 0.264995 64 189 114
0.446465 0.403791 0.222893 69 52 127
-0.045138 -0.226850 -0.346958 68 1 84
-0.509429 0.307773 0.160537 65 66 134
0.693449 -0.415514 0.460167 215 226 25
-0.384023 0.479270 0.253796 68 1 84
-0.620450 -0.059552 0.144452 64 67 135
0.446521 0.401055 0.205911 71 42 121
-0.647964 -0.070295 0.415053 91 200 98
0.475519 0.357639 0.349293 48 104 141
-0.259542 0.551986 0.096180 68 1 84
-0.433254 0.409743 0.134597 68 1 84
-0.449685 -0.331027 -0.097285 68 1 84
0.571839 0.059461 0.169133 34 138 141
-0.595648 0.032390 0.170636 63 71 136
0.511373 -0.425293 -0.109179 68 1 84
0.529099 -0.334498 -0.003219 69 50 127
0.604081 -0.058377 0.161519 30 159 136
-0.237525 0.407950 -0.081637 68 1 84
0.494299 -0.104773 -0.105831 49 102 141
-0.499581 0.102302 -0.068762 71 42 121
-0.550732 0.250947 0.351068 53 92 140
0.094597 -0.231764 -0.252479 68 1 84
0.291956 0.142826 -0.178445 68 1 84
0.537795 0.120728 0.046722 46 108 142
-0.628932 -0.434047 0.211351 61 74 137
-0.645860 -0.061080 0.413163 75 194 108
0.019950 -0.022300 -0.472168 30 152 138
-0.180810 0.248058 -0.174539 68 1 84
0.578906 -0.109765 0.019052 31 148 139
-0.561148 0.160406 0.504900 31 149 139
-0.603004 -0.346971 0.117352 70 47 124
-0.306780 -0.193511 -0.159458 68 1 84
-0.607419 -0.407479 0.144986 69 50 127
-0.404506 -0.464599 -0.246782 72 30 112
0.572882 -0.055935 0.010262 33 140 141
0.632120 -0.088462 0.314703 167 219 51
0.571267 0.069492 0.202788 31 161 135
-0.623100 -0.242792 0.119223 54 91 140
-0.182514 0.526750 -0.106973 68 1 84
-0.291451 0.102226 -0.193872 68 1 84
-0.667989 -0.297955 0.457653 61 187 116
0.283372 0.270166 -0.106498 68 1 84
-0.639302 -0.097570 0.276934 37 131 141
0.289868 0.415681 -0.034493 68 1 84
0.551649 -0.456838 0.006053 68 1 84
-0.604083 0.075787 0.458947 71 192 110
-0.455316 0.410774 0.317869 66 61 132
-0.665295 -0.376612 0.434395 32 165 133
0.512898 -0.179022 -0.052739 55 88 140
-0.545128 -0.000937 -0.063023 72 34 115
0.550569 0.196604 0.262176 39 124 142
-0.400430 0.316791 -0.020577 68 1 84
-0.017300 0.541880 -0.170538 68 1 84
0.151101 0.298194 -0.199567 68 1 84
0.600497 -0.006288 0.299440 40 174 127
0.157570 -0.168321 -0.227303 68 1 84
-0.286822 0.537481 0.129090 68 1 84
0.644822 -0.218893 0.214511 42 176 126
-0.545481 -0.492451 -0.043239 68 1 84
-0.137721 0.148520 -0.251889 68 1 84
-0.526461 -0.334186 -0.029043 70 14 97
0.583865 -0.119791 0.032743 31 150 139
-0.638847 -0.121405 0.182168 35 137 141
0.382428 0.392058 0.041975 68 1 84
-0.585640 -0.051139 -0.004235 48 104 141
-0.601524 0.095626 0.404988 31 147 139
-0.058852 0.133697 -0.296033 54 90 140
-0.587395 -0.380817 0.090553 71 15 98
0.055114 0.136068 -0.293494 68 1 84
-0.666973 -0.528137 0.384034 41 120 142
0.063953 0.035088 -0.432659 40 123 142
0.619704 -0.110056 0.170848 35 168 131
0.349753 0.445908 0.056393 68 1 84
0.644860 -0.296872 0.214676 32 164 133
0.528598 -0.441384 -0.081744 68 1 84
0.234607 -0.299261 -0.179942 68 1 84
0.082133 -0.194759 -0.303280 68 1 84
-0.665823 -0.355641 0.443248 44 177 125
-0.558549 0.171740 0.155155 63 69 135
0.374640 0.395228 0.035090 69 6 90
0.652131 -0.138574 0.361677 220 226 24
0.439294 -0.128903 -0.133658 48 103 141
-0.101124 0.046514 -0.315426 59 81 138
0.401799 0.440898 0.162769 72 33 114
0.215167 0.365955 -0.109167 68 1 84
0.678607 -0.284712 0.432129 243 229 30
0.183007 0.569248 -0.055798 68 1 84
0.336763 -0.064389 -0.201405 68 1 84
-0.188474 0.250343 -0.164764 68 1 84
-0.576161 -0.453538 0.068812 68 1 84
-0.094992 -0.073381 -0.387139 58 82 139
-0.060842 0.427571 -0.186765 68 1 84
-0.515764 -0.027953 -0.107565 67 58 131
0.241458 0.288256 -0.108829 68 1 84
-0.316848 0.147566 -0.170573 71 21 103
-0.527839 -0.142456 -0.079618 71 42 121
0.048565 -0.156988 -0.373815 71 24 106
-0.498895 0.031277 -0.111799 71 40 120
0.598782 -0.012784 0.269370 44 177 125
-0.452045 0.398216 0.159036 68 1 84
-0.028315 0.274195 -0.264940 70 12 95
-0.141992 -0.274507 -0.182238 68 1 84
-0.509130 0.259618 0.101997 71 20 102
-0.602210 -0.000073 0.113603 70 48 125
-0.631435 -0.096485 0.169039 42 117 142
-0.515325 -0.450074 -0.135645 68 3 87
0.382540 -0.401814 -0.201605 68 1 84
-0.667169 -0.436864 0.482212 33 142 140
0.693960 -0.444468 0.472423 129 211 76
0.559205 -0.044036 -0.019483 35 135 141
0.338226 -0.152709 -0.154226 68 1 84
-0.189851 0.387411 -0.125603 68 1 84
0.452472 0.120138 -0.109590 68 1 84
0.569240 0.017620 0.041263 30 158 136
0.115301 0.185888 -0.262385 68 1 84
0.070947 0.568403 -0.142286 68 1 84
0.514742 -0.491541 -0.121129 68 1 84
-0.408253 -0.231972 -0.127743 68 1 84
0.419601 -0.359844 -0.134638 68 1 84
-0.162496 0.383734 -0.147174 68 1 84
-0.535292 0.284929 0.224583 61 75 137
0.550596 0.117323 0.540449 33 167 132
0.320811 0.066521 -0.205105 68 1 84
-0.623589 -0.527978 0.205366 65 65 134
0.250705 0.537435 0.021985 68 1 84
0.561278 0.135213 0.472360 32 164 133
-0.619031 -0.478980 0.188562 66 62 133
-0.362120 0.493621 0.197270 68 1 84
-0.310202 -0.198502 -0.159234 68 1 84
0.197251 -0.260878 -0.176953 68 1 84
-0.442279 0.428908 0.221912 70 45 124
-0.517633 -0.192368 -0.062079 71 40 120
0.375371 0.384759 0.026440 68 1 84
-0.311174 0.518573 0.113428 68 1 84
0.183342 0.110422 -0.218302 68 1 84
0.656917 -0.198844 0.290901 149 215 63
-0.557011 0.218668 0.422419 40 122 142
0.272822 0.437036 -0.043003 68 1 84
0.237535 0.416235 -0.077685 68 1 84
-0.288213 0.519655 0.050427 68 1 84
-0.478446 0.360777 0.406386 68 2 85
-0.509952 0.229446 0.071883 70 11 94
-0.150383 -0.325938 -0.191017 68 1 84
-0.423359 0.186433 -0.090378 71 18 101
0.347033 0.082768 -0.192179 68 1 84
0.593780 -0.241064 0.082835 41 121 142
0.250306 0.454022 -0.060290 68 1 84
0.452729 0.393178 0.318691 57 85 139
-0.435065 0.402149 0.126172 71 15 98
0.219075 -0.182029 -0.177902 68 1 84
0.085083 -0.263615 -0.250771 68 1 84
0.643570 -0.505411 0.249439 44 114 142
0.355552 0.035696 -0.200920 68 1 84
-0.065359 -0.148559 -0.361469 71 15 98
0.192145 0.342136 -0.135800 68 1 84
0.069108 -0.005018 -0.442340 40 122 142
0.518465 -0.468148 -0.113760 68 1 84
0.616508 -0.075390 0.563076 33 167 132
-0.560865 0.030507 -0.014301 72 25 107
0.608342 -0.041919 0.520153 73 193 109
0.499820 0.002078 -0.102494 51 97 141
0.181872 -0.068406 -0.243785 68 1 84
-0.307761 -0.407247 -0.248535 68 1 84
-0.665288 -0.399317 0.429694 33 167 132
-0.100994 0.131951 -0.273414 71 22 105
-0.021428 0.127663 -0.308043 70 48 125
-0.629532 -0.009287 0.478360 40 174 127
0.664667 -0.556387 0.307063 43 116 142
0.599685 0.007417 0.335781 81 196 104
-0.655105 -0.352269 0.341654 34 167 132
-0.006280 0.097269 -0.390807 51 97 141
-0.222758 -0.379816 -0.214717 68 1 84
0.012277 0.210345 -0.288991 67 58 131
-0.031221 0.258002 -0.260549 68 1 84
-0.236266 -0.398057 -0.238343 68 1 84
-0.081131 0.515591 -0.179501 68 1 84
-0.211326 0.316382 -0.133553 68 1 84
-0.542159 0.169487 0.089362 71 17 99
-0.102747 -0.315915 -0.231688 68 1 84
0.197127 -0.374335 -0.210021 68 1 84
0.607956 -0.042185 0.524208 61 187 116
-0.571150 0.194125 0.300461 38 127 142
0.403492 0.136814 -0.137705 68 1 84
0.535733 0.187566 0.142589 42 117 142
-0.448507 -0.525297 -0.221229 66 64 133
-0.048806 0.398315 -0.184059 68 1 84
0.186595 -0.088241 -0.238280 68 1 84
0.424415 -0.508700 -0.239531 68 1 84
0.572184 -0.251327 0.050086 50 99 141
0.661431 -0.250516 0.255333 43 177 125
-0.574612 -0.336104 0.058502 69 5 88
0.660679 -0.221125 0.448018 210 225 27
0.202263 -0.172315 -0.190703 68 1 84
-0.580641 0.035397 0.044673 66 62 133
0.292967 0.079113 -0.204791 68 1 84
0.269822 -0.155303 -0.170947 68 1 84
-0.643051 -0.088166 0.320350 30 159 136
-0.530362 -0.011929 -0.087526 70 48 125
-0.668393 -0.455842 0.452707 36 132 141
-0.185206 -0.020429 -0.236266 68 1 84
0.025489 0.594519 -0.084564 68 1 84
-0.409870 -0.278147 -0.136663 68 1 84
-0.347825 0.480840 0.094876 68 1 84
-0.549070 0.257593 0.329369 48 103 141
-0.655395 -0.100324 0.449083 79 195 105
-0.214235 -0.156246 -0.197646 68 1 84
-0.412839 0.422975 0.115621 68 1 84
0.641202 -0.231968 0.198741 30 159 136
-0.096957 -0.095291 -0.347245 72 30 112
0.578106 0.035953 0.194415 30 160 135
-0.632996 -0.094812 0.199007 39 125 142
-0.424059 0.050334 -0.167952 71 20 102
-0.110642 -0.179637 -0.277866 68 1 84
-0.667190 -0.287491 0.486603 57 185 118
0.637742 -0.113528 0.439536 189 222 38
-0.191413 -0.053308 -0.240552 72 29 111
-0.445637 0.031026 -0.158731 72 25 107
0.590847 -0.016525 0.139236 34 137 141
0.387049 0.093264 -0.168478 68 1 84
0.505139 0.319245 0.306805 45 110 142
-0.050198 -0.096388 -0.423640 64 67 135
0.435486 0.402509 0.362478 61 74 137
-0.217432 0.570590 0.023314 68 1 84
0.324934 0.170332 -0.155600 68 1 84
-0.355834 0.498787 0.212426 68 1 84
0.481830 -0.054224 -0.124261 67 60 132
-0.283751 -0.262775 -0.187086 68 1 84
0.532783 -0.452240 -0.072268 68 1 84
-0.490685 -0.100094 -0.127969 68 2 85
-0.536655 -0.499864 -0.076936 68 1 84
-0.478491 0.091533 -0.102675 69 8 91
-0.550816 0.206104 0.479973 39 124 142
0.064339 0.269904 -0.260733 68 1 84
0.143275 -0.433024 -0.321400 68 1 84
0.515026 0.242592 0.137061 62 72 136
0.566313 0.122175 0.470106 51 182 121
-0.421401 0.005208 -0.178983 70 11 94
-0.476908 0.388953 0.232438 66 64 133
-0.331043 -0.203818 -0.155355 68 1 84
-0.035842 0.531043 -0.178310 68 1 84
-0.144807 -0.057929 -0.276430 68 1 84
-0.671322 -0.241355 0.442903 89 199 100
0.355340 0.385168 0.004791 68 1 84
0.586992 -0.537944 0.095336 68 1 84
-0.381836 0.369834 0.004639 69 5 88
-0.167706 -0.385487 -0.241654 68 1 84
0.564392 0.081199 0.535035 50 181 122
-0.241886 0.087729 -0.201195 68 1 84
-0.079063 0.078192 -0.308539 70 48 125
0.067163 -0.185143 -0.333767 68 1 84
0.641433 -0.138219 0.276177 105 204 91
-0.114249 0.091246 -0.262754 69 5 88
-0.035574 -0.380026 -0.317946 68 1 84
0.139078 -0.046071 -0.278845 68 1 84
-0.501358 -0.114923 -0.114380 71 18 101
0.188535 0.295090 -0.158284 68 1 84
-0.109309 -0.330149 -0.232133 68 1 84
0.310746 -0.318504 -0.172140 68 1 84
-0.661151 -0.122542 0.392564 36 170 130
0.204424 0.559281 -0.040882 68 1 84
0.101085 0.364630 -0.176016 68 1 84
-0.669166 -0.303167 0.344412 42 176 126
0.408968 -0.016869 -0.178132 70 11 94
0.531321 -0.448661 -0.076423 68 1 84
0.102807 -0.276043 -0.217475 68 1 84
-0.594029 -0.487818 0.120709 68 1 84
-0.181849 0.568753 -0.068842 68 1 84
-0.614957 0.003441 0.524917 30 160 135
0.065450 -0.221809 -0.315117 68 1 84
0.550487 0.205598 0.327981 39 124 142
0.044543 -0.211062 -0.355640 70 9 92
-0.563517 0.120073 0.100509 68 57 130
-0.371432 0.484890 0.176070 68 1 84
-0.208004 0.191194 -0.202655 68 1 84
-0.557345 -0.423177 0.008789 68 1 84
0.340019 0.370880 -0.019837 68 1 84
-0.578423 0.139098 0.225363 46 108 142
0.380975 -0.417912 -0.220106 68 1 84
0.035377 0.377569 -0.184054 68 1 84
0.038387 0.060369 -0.367589 70 47 124
0.668436 -0.472802 0.331895 34 137 141
0.327517 0.253845 -0.107081 68 1 84
0.046051 0.055327 -0.372448 66 62 133
0.343871 0.199093 -0.129722 68 1 84
-0.024831 0.395061 -0.188359 68 1 84
0.188130 0.520883 -0.106961 68 1 84
0.612463 -0.073003 0.195239 30 158 136
-0.386206 0.227299 -0.091398 68 1 84
-0.666589 -0.328303 0.458495 42 176 126
-0.576296 0.060230 0.061630 60 78 138
0.624491 -0.265016 0.152944 30 151 138
-0.136653 0.487021 -0.154800 68 1 84
0.466730 -0.286115 -0.054658 72 29 111
0.275717 -0.372792 -0.200348 68 1 84
-0.325541 0.471741 0.038874 68 1 84
-0.562159 -0.158139 -0.030749 64 67 135
-0.446821 -0.258818 -0.094981 68 1 84
-0.578533 -0.193973 0.013791 65 65 134
-0.357280 0.410823 0.016354 72 25 107
0.256172 -0.285980 -0.186383 68 1 84
0.423247 -0.245438 -0.102541 71 15 98
0.674478 -0.256442 0.389085 197 223 33
0.119171 0.065031 -0.278740 68 1 84
-0.041272 0.466718 -0.196596 68 1 84
0.630098 -0.100390 0.468764 146 215 65
-0.042665 0.097918 -0.336020 68 55 129
-0.526097 -0.460791 -0.117814 68 1 84
-0.044733 -0.333595 -0.308835 68 1 84
0.329694 -0.359310 -0.183063 68 1 84
0.473306 0.334300 0.443789 55 88 140
-0.335569 0.510609 0.177118 68 1 84
-0.529563 0.124352 0.003222 71 39 119
-0.326849 -0.350325 -0.170879 68 1 84
-0.608415 -0.030877 0.094155 61 74 137
-0.090654 -0.178729 -0.305416 68 1 84
0.578594 -0.187679 0.040230 40 122 142
-0.488558 0.235541 0.033607 70 9 92
0.409721 -0.516900 -0.249060 68 1 84
-0.279250 0.422605 -0.043652 68 1 84
-0.211485 0.447457 -0.098795 68 1 84
-0.450584 0.397444 0.153751 68 1 84
0.331953 0.120945 -0.180083 68 1 84
0.389627 0.338563 -0.002401 68 1 84
-0.448502 0.349596 0.080552 68 1 84
0.558870 0.138660 0.479174 57 185 118
0.560508 0.069283 0.060037 31 163 134
0.539538 -0.369448 0.000034 70 49 126
0.392483 0.144537 -0.139987 68 1 84
0.208137 0.444060 -0.100684 68 1 84
-0.547880 -0.292262 0.010954 69 6 90
0.358525 0.471708 0.134519 72 33 114
0.415201 0.314474 0.010326 72 30 112
0.691032 -0.427657 0.435882 159 217 56
0.388494 0.328337 -0.013434 70 11 94
0.451744 -0.288923 -0.069630 70 11 94
-0.595899 0.039085 0.214041 63 69 135
0.179479 0.006199 -0.228753 68 1 84
0.075788 0.594939 -0.078816 68 1 84
0.209632 -0.048230 -0.234421 68 1 84
0.034186 -0.146346 -0.395513 64 67 135
0.368031 0.474198 0.204678 68 3 87
0.490976 -0.445105 -0.153215 68 1 84
-0.210418 0.548922 -0.056709 68 1 84
0.342599 0.489864 0.176335 70 11 94
-0.670997 -0.291108 0.411318 61 187 116
0.658184 -0.238470 0.524480 69 191 111
0.599005 -0.160960 0.077478 31 148 139
0.581409 -0.426317 0.088121 68 57 130
-0.303789 -0.222547 -0.169525 68 1 84
-0.079927 -0.296253 -0.270445 68 1 84
0.445476 -0.354229 -0.112083 68 1 84
0.674218 -0.254628 0.386071 183 221 41
0.240648 0.550072 0.069240 68 1 84
0.615940 -0.122499 0.138955 30 156 137
-0.118996 0.065261 -0.284373 69 52 127
0.004934 0.336031 -0.216946 68 1 84
0.255578 0.499716 -0.034889 68 1 84
-0.106099 -0.458920 -0.328942 68 1 84
0.506432 0.310200 0.343810 41 121 142
0.615840 -0.382813 0.167615 38 129 142
-0.672960 -0.237021 0.291737 35 169 130
0.637332 -0.463658 0.243457 46 107 142
0.379786 0.095721 -0.171601 68 1 84
0.656147 -0.487249 0.290599 40 122 142
-0.617609 -0.042773 0.190847 49 100 141
0.438482 0.115521 -0.124477 68 1 84
0.127920 0.060952 -0.258428 68 1 84
0.623586 -0.275399 0.153250 30 158 136
0.096369 0.047872 -0.318824 68 1 84
-0.663283 -0.268338 0.249370 33 140 141
0.670471 -0.349911 0.324228 41 175 127
-0.606875 0.017229 0.274516 44 114 142
-0.641699 -0.294512 0.188548 36 132 141
-0.668560 -0.160878 0.444714 116 208 84
0.683494 -0.368817 0.395222 157 217 58
-0.107857 -0.332636 -0.236097 68 1 84
-0.095255 0.173801 -0.276319 65 65 134
0.589905 -0.010884 0.161382 30 160 135
-0.406249 -0.332675 -0.130488 69 6 90
-0.313693 -0.444524 -0.271515 72 32 113
0.244376 0.468062 -0.063231 68 1 84
-0.083775 0.499100 -0.181188 68 1 84
0.087625 0.576153 -0.125872 68 1 84
-0.574744 0.141197 0.482535 30 158 136
-0.210586 0.572818 0.006674 68 1 84
0.664586 -0.180905 0.381257 250 230 34
-0.165275 0.015179 -0.291042 63 71 136
0.083072 0.327769 -0.221649 68 1 84
-0.256490 -0.273113 -0.183440 68 1 84
-0.553840 0.007424 -0.043953 71 42 121
0.592521 -0.494596 0.116572 70 9 92
-0.009497 -0.070896 -0.458230 46 108 142
0.202669 0.238821 -0.155788 68 1 84
0.527829 -0.004930 -0.065650 46 109 142
0.561094 -0.165521 -0.000204 42 119 142
0.589171 -0.011055 0.139012 34 137 141
0.541944 0.178865 0.157536 36 133 141
0.490834 -0.052132 -0.116558 50 99 141
-0.345422 0.287520 -0.085005 68 1 84
-0.246786 0.002653 -0.224563 68 1 84
-0.292469 -0.065754 -0.214442 70 48 125
0.105538 -0.214103 -0.249998 68 1 84
-0.245065 0.392339 -0.079828 68 1 84
-0.025235 0.334786 -0.222156 68 1 84
0.628581 -0.189849 0.161910 31 150 139
0.635146 -0.295020 0.188857 30 153 138
-0.512087 0.288674 0.472845 66 62 133
0.060371 0.438879 -0.189895 68 1 84
-0.660576 -0.493224 0.351107 39 125 142
-0.460508 0.407086 0.306653 66 61 132
0.221620 -0.204284 -0.175674 68 1 84
0.459873 0.176798 -0.056227 72 26 108
-0.424678 0.445993 0.266646 68 1 84
-0.221295 -0.424148 -0.272180 68 1 84
0.675492 -0.270612 0.436175 253 231 36
-0.560260 0.211503 0.219544 52 95 141
-0.574751 0.085066 0.100184 67 58 131
-0.467999 -0.264764 -0.074150 68 1 84
-0.371453 0.288763 -0.067338 68 1 84
0.329198 -0.214801 -0.160845 68 1 84
0.244746 -0.096983 -0.215278 68 1 84
-0.572316 -0.121450 -0.029617 49 101 141
0.029301 -0.137159 -0.404101 68 57 130
-0.340187 0.425912 0.012465 68 1 84
-0.014977 -0.301910 -0.328878 68 1 84
0.639310 -0.246073 0.192278 38 172 129
-0.616328 0.045011 0.390445 30 156 137
0.427965 0.329159 0.044800 70 47 124
-0.669882 -0.230097 0.462146 109 206 88
0.383836 -0.256079 -0.143198 68 1 84
-0.667887 -0.310835 0.444271 68 190 112
-0.653805 -0.124126 0.325769 30 156 137
0.301133 0.201634 -0.149830 68 1 84
-0.483082 0.373186 0.338475 62 72 136
-0.668676 -0.316864 0.383628 40 174 127
-0.622634 -0.183364 0.097763 46 107 142
-0.055705 -0.050004 -0.452763 54 91 140
-0.079437 -0.354905 -0.285713 68 1 84
0.455634 0.395361 0.249032 56 86 139
-0.274259 -0.377910 -0.202480 68 1 84
0.483180 0.357104 0.285646 46 109 142
-0.570583 0.191608 0.270806 48 104 141
-0.560707 0.227971 0.298511 40 123 142
0.551391 0.202636 0.321748 40 122 142
0.587152 0.066786 0.433879 105 204 91
-0.037440 0.355824 -0.193542 68 1 84
0.494875 0.330728 0.339986 48 104 141
-0.128907 0.070393 -0.261739 72 33 114
0.280904 0.390912 -0.050935 68 1 84
-0.664312 -0.171492 0.518876 91 200 98
0.620584 -0.325965 0.162054 32 144 140
0.260862 0.456281 -0.049283 68 1 84
-0.486084 0.338728 0.142876 71 44 123
-0.014072 -0.134221 -0.417903 64 68 135
0.609801 -0.011777 0.367890 167 219 51
0.309039 -0.475155 -0.284781 68 1 84
-0.286148 -0.049342 -0.219826 69 50 127
-0.090500 -0.433181 -0.326041 68 1 84
0.043339 -0.462865 -0.340284 68 1 84
-0.489951 0.197441 0.000418 71 44 123
-0.362201 -0.145617 -0.158875 68 1 84
-0.470782 -0.232218 -0.079948 68 1 84
-0.017860 -0.126645 -0.421085 62 72 136
-0.470541 0.372291 0.157295 72 28 110
0.422577 0.388699 0.102759 67 59 131
-0.673766 -0.168433 0.390347 64 189 114
-0.171921 0.040629 -0.222613 68 1 84
-0.459061 -0.415711 -0.173829 72 30 112
0.576298 0.047860 0.214012 31 161 135
0.461830 -0.146352 -0.111206 59 80 138
-0.626410 -0.046742 0.301028 44 114 142
0.457510 0.391565 0.233095 63 69 135
-0.456589 0.404483 0.339088 72 28 110
0.683251 -0.432290 0.391174 35 168 131
-0.102064 0.441025 -0.172454 68 1 84
-0.388524 0.388812 0.032443 69 50 127
0.188777 0.535426 -0.096591 68 1 84
0.173740 0.372202 -0.137602 68 1 84
-0.502706 0.085373 -0.076879 71 20 102
-0.607331 -0.356591 0.129690 65 65 134
0.316923 0.468533 0.032263 68 1 84
-0.014748 0.329537 -0.233073 68 1 84
-0.593926 -0.484522 0.120173 68 1 84
0.249441 0.334526 -0.091010 68 1 84
0.151210 0.041097 -0.232233 68 1 84
0.311449 0.391054 -0.027604 68 1 84
0.214783 -0.053818 -0.232777 68 1 84
0.111918 0.285747 -0.243212 68 1 84
0.612062 -0.218800 0.114541 33 140 141
-0.603118 -0.230688 0.073618 67 60 132
0.326644 -0.431869 -0.251332 68 1 84
-0.108331 -0.318344 -0.225202 68 1 84
0.198985 -0.063792 -0.236524 68 1 84
0.176020 0.269953 -0.181891 68 1 84
-0.540204 -0.385900 -0.031938 69 5 88
-0.131318 0.416152 -0.157847 68 1 84
0.528132 -0.436225 -0.080095 68 1 84
0.034724 -0.261478 -0.338733 71 17 99
0.462897 -0.519467 -0.205164 68 1 84
-0.672864 -0.287344 0.334350 43 177 125
0.196155 -0.190717 -0.184448 68 1 84
0.550237 0.132973 0.130651 32 145 140
0.604335 -0.046865 0.206919 30 157 136
0.436312 0.161500 -0.096423 68 1 84
-0.230686 -0.400185 -0.240827 68 1 84
-0.518851 -0.035516 -0.104790 70 47 124
0.642050 -0.184648 0.521646 205 224 29
0.694396 -0.342906 0.512726 189 222 38
0.514735 -0.367538 -0.047533 72 34 115
0.033277 -0.129150 -0.405281 68 55 129
-0.554956 0.237886 0.250543 49 101 141
-0.129181 0.309143 -0.220857 71 15 98
-0.110524 -0.126350 -0.302065 68 1 84
-0.667098 -0.290680 0.495217 46 178 124
-0.451482 0.050524 -0.148128 70 48 125
-0.449612 0.267522 0.002686 68 1 84
0.495932 -0.467538 -0.155564 68 1 84
0.353247 0.342359 -0.033512 68 1 84
0.268648 -0.311929 -0.180578 68 1 84
-0.384954 0.177037 -0.126725 68 1 84
0.582171 -0.013826 0.064006 30 159 136
-0.093022 -0.302161 -0.244307 68 1 84
-0.073840 -0.261248 -0.288517 68 1 84
-0.307773 0.082535 -0.200374 68 1 84
0.004122 -0.336111 -0.323366 68 1 84
0.415068 -0.289788 -0.105352 68 1 84
0.280452 0.306929 -0.084578 68 1 84
-0.257126 -0.396446 -0.237609 68 1 84
-0.335037 0.259496 -0.106440 68 1 84
-0.570192 -0.369152 0.048711 71 24 106
0.550695 0.139513 0.516367 41 175 127
0.103330 -0.403430 -0.310939 68 1 84
0.600289 0.014478 0.461243 87 198 101
-0.543446 -0.392675 -0.027304 68 1 84
-0.293850 -0.159566 -0.166658 68 1 84
0.237563 0.009474 -0.225244 68 1 84
-0.547940 0.132417 0.057833 71 42 121
0.567764 0.093774 0.515516 61 187 116
-0.342398 0.204828 -0.131125 70 45 124
0.541371 0.010055 -0.035647 35 136 141
0.463206 0.219201 -0.010453 65 65 134
-0.149198 0.398877 -0.151549 68 1 84
0.500410 -0.136864 -0.087952 53 92 140
0.462876 0.244466 0.015425 70 45 124
0.456644 -0.342284 -0.092929 68 1 84
0.574601 -0.424274 0.071967 71 43 122
-0.541459 0.064408 -0.027919 72 26 108
-0.655286 -0.397230 0.309423 31 150 139
-0.073100 0.482710 -0.187219 68 1 84
0.001924 0.581344 -0.126348 68 1 84
-0.373977 -0.171512 -0.144664 68 1 84
0.421980 0.386203 0.098384 66 62 133
0.149597 -0.370858 -0.233361 68 1 84
0.118776 0.108702 -0.251639 68 1 84
-0.551772 0.148584 0.093342 70 11 94
-0.651443 -0.105671 0.342213 37 171 129
-0.054642 -0.096175 -0.420306 67 58 131
-0.517561 0.272084 0.136258 70 12 95
0.692779 -0.440811 0.451247 131 211 75
-0.559114 -0.344174 0.027848 70 12 95
-0.080269 0.268356 -0.257214 63 69 135
0.132301 0.153407 -0.250964 68 1 84
0.278591 0.316495 -0.080631 68 1 84
0.511662 0.283258 0.179225 59 80 138
-0.526586 0.251923 0.138471 69 53 128
0.064247 0.597985 -0.064823 68 1 84
-0.504941 -0.284407 -0.039323 68 1 84
0.624297 -0.321020 0.169870 37 130 142
-0.531209 -0.504269 -0.098113 68 1 84
0.097057 0.033404 -0.384376 44 112 142
0.401028 -0.279585 -0.123946 68 1 84
0.566716 -0.421217 0.052895 71 39 119
0.036862 0.177676 -0.286126 68 1 84
-0.240543 0.390910 -0.083815 68 1 84
0.035483 0.564035 -0.147702 68 1 84
-0.337869 0.492095 0.099316 68 1 84
0.329778 0.177030 -0.149853 68 1 84
0.127251 -0.188912 -0.243070 68 1 84
-0.638938 -0.189716 0.145318 43 116 142
0.365143 0.021735 -0.198835 68 1 84
-0.038566 0.603279 -0.058287 68 1 84
-0.465544 -0.463642 -0.198463 71 20 102
-0.670694 -0.303461 0.374608 81 196 104
0.183982 -0.419005 -0.283944 68 1 84
0.500238 0.316512 0.196962 51 97 141
-0.177111 0.203051 -0.223769 70 12 95
0.028905 0.569154 -0.140985 68 1 84
0.640893 -0.093209 0.388587 197 223 33
0.073267 -0.298168 -0.273503 68 1 84
-0.392281 0.147959 -0.140987 72 32 113
-0.545563 -0.016726 -0.067336 66 61 132
-0.150203 -0.078464 -0.268369 68 1 84
-0.286226 -0.272025 -0.185705 68 1 84
0.602405 0.001577 0.346119 75 194 108
-0.581033 -0.395717 0.076465 68 1 84
0.375116 -0.011445 -0.195137 68 1 84
-0.649824 -0.500968 0.296624 52 95 141
0.564458 0.098698 0.521195 46 178 124
-0.202264 0.577987 0.009574 68 1 84
0.620180 -0.070938 0.277997 105 204 91
0.479534 0.224153 0.025046 61 75 137
0.546929 -0.355367 0.020295 68 57 130
0.374820 0.096555 -0.173845 68 1 84
0.180391 0.577899 -0.031660 68 1 84
-0.646950 -0.251917 0.187508 42 119 142
0.331295 0.263382 -0.099127 68 1 84
-0.096373 -0.252741 -0.248626 68 1 84
0.414769 -0.434653 -0.215493 68 1 84
-0.427026 0.431559 0.168646 68 1 84
0.200775 0.206369 -0.202130 68 1 84
-0.280424 0.525541 0.045707 68 1 84
-0.647663 -0.569018 0.289677 69 52 127
0.635356 -0.178486 0.193648 31 163 134
-0.659701 -0.116339 0.408397 79 195 105
0.029033 -0.304674 -0.323419 68 1 84
0.674898 -0.286451 0.511938 139 213 70
-0.481853 0.216416 0.005294 72 35 116
-0.563047 0.036240 -0.004819 72 30 112
0.052747 0.050705 -0.352404 68 1 84
0.134760 -0.015364 -0.317473 72 25 107
-0.205863 0.370659 -0.118895 68 1 84
-0.328385 0.421908 -0.002764 68 1 84
-0.455877 0.410118 0.318203 66 62 133
-0.569150 0.200636 0.301167 34 138 141
-0.274713 0.529998 0.043084 68 1 84
0.528719 -0.492637 -0.076793 68 1 84
-0.406901 0.259488 -0.053052 69 6 90
0.604279 -0.032045 0.263493 40 174 127
-0.665927 -0.351676 0.440243 48 180 122
0.646298 -0.139848 0.312990 126 210 78
-0.638615 -0.309802 0.188171 43 115 142
-0.332775 -0.029044 -0.211799 67 59 131
-0.448443 0.106840 -0.123742 72 29 111
-0.641566 -0.113738 0.243681 37 130 142
0.138220 0.269128 -0.222176 68 1 84
-0.163494 0.317406 -0.178057 68 1 84
0.071745 -0.298364 -0.276714 68 1 84
0.648830 -0.227569 0.224496 51 182 121
0.577477 0.038643 0.195645 30 156 137
0.593110 -0.057814 0.079260 31 149 139
0.600574 -0.007195 0.297633 48 180 122
-0.566932 0.206652 0.348772 41 120 142
-0.057365 0.125062 -0.301667 69 54 129
-0.299561 0.292360 -0.096290 68 1 84
0.620718 -0.034242 0.374923 139 213 70
0.128623 -0.237923 -0.203699 68 1 84
0.543236 -0.207796 -0.003954 61 74 137
-0.283975 -0.181930 -0.163738 68 1 84
-0.091908 0.554848 -0.153470 68 1 84
0.459096 -0.310474 -0.067730 68 1 84
-0.333948 0.434107 0.012347 68 1 84
0.273737 0.109105 -0.193443 68 1 84
0.564225 0.132064 0.255033 31 147 139
0.126616 0.237782 -0.227045 68 1 84
0.409027 0.211650 -0.080939 72 25 107
-0.033119 0.318664 -0.254367 71 39 119
-0.346722 0.422497 0.016108 68 1 84
0.584625 -0.335980 0.088030 49 102 141
-0.608597 0.003003 0.262101 51 96 141
-0.418565 -0.040791 -0.180190 68 1 84
-0.382981 -0.131016 -0.162314 68 1 84
-0.669175 -0.211500 0.494912 98 202 95
0.187082 0.235542 -0.177173 68 1 84
-0.539011 0.186807 0.101230 72 33 114
0.213511 -0.327052 -0.177809 68 1 84
-0.339459 0.509367 0.216694 68 1 84
0.654628 -0.174199 0.432313 253 231 36
-0.613269 -0.395346 0.156669 71 37 117
0.562472 0.114110 0.200926 34 138 141
0.438960 0.261591 -0.004662 72 30 112
-0.070405 0.533741 -0.174788 68 1 84
-0.661997 -0.256795 0.241560 31 147 139
0.125658 -0.129582 -0.279149 68 1 84
-0.615783 -0.373938 0.156107 62 72 136
-0.046220 -0.355402 -0.308762 68 1 84
0.088936 -0.223153 -0.269521 68 1 84
-0.184976 0.343267 -0.145918 68 1 84
0.412271 0.190886 -0.094476 68 1 84
-0.518070 0.069788 -0.064520 72 26 108
0.328261 -0.422355 -0.244970 68 1 84
0.053025 -0.033086 -0.451542 37 130 142
-0.664157 -0.178425 0.286000 33 166 133
-0.588813 -0.403865 0.097168 71 21 103
-0.352406 -0.440353 -0.259007 72 33 114
-0.625353 -0.021977 0.517843 41 175 127
-0.173820 -0.069945 -0.250188 71 21 103
-0.667730 -0.357705 0.502357 30 158 136
-0.164881 0.390851 -0.143352 68 1 84
0.484016 0.311259 0.465136 61 74 137
0.598727 0.015344 0.354627 103 204 92
0.695965 -0.499244 0.455454 43 177 125
-0.042171 0.445220 -0.195805 68 1 84
0.218690 -0.165922 -0.185496 68 1 84
0.076257 0.025650 -0.422270 42 119 142
-0.647251 -0.369158 0.238004 35 137 141
0.149357 0.491051 -0.146441 68 1 84
0.364319 -0.055628 -0.193530 68 1 84
-0.052771 0.419914 -0.187473 68 1 84
-0.090243 0.445107 -0.177973 68 1 84
0.241274 0.209343 -0.173051 68 1 84
0.469931 0.377156 0.262364 61 74 137
0.444458 0.340741 0.084033 70 48 125
-0.229322 -0.216946 -0.172007 68 1 84
-0.151560 -0.327940 -0.191759 68 1 84
0.669127 -0.529670 0.323439 46 109 142
-0.483087 0.299116 0.087220 68 3 87
0.574386 -0.052684 0.015464 32 144 140
0.200501 0.418262 -0.108400 68 1 84
-0.437574 0.431070 0.298663 72 30 112
0.455850 0.334764 0.098040 58 83 139
0.177872 0.088675 -0.218095 68 1 84
0.335654 0.185738 -0.141884 68 1 84
-0.669494 -0.254407 0.457791 73 193 109
-0.101631 0.005335 -0.422905 40 123 142
-0.645947 -0.101197 0.540820 79 195 105
0.007259 -0.067043 -0.455916 39 126 142
0.674218 -0.538561 0.339586 45 111 142
-0.674330 -0.228563 0.423751 69 191 111
0.653016 -0.414732 0.301978 32 164 133
-0.544271 0.269543 0.327934 51 96 141
-0.543625 0.182680 0.536437 48 104 141
0.610338 -0.038410 0.500576 134 212 73
-0.417931 -0.467633 -0.238059 72 32 113
0.038897 0.103084 -0.318910 68 1 84
0.576404 0.101269 0.442250 94 201 97
-0.665473 -0.557901 0.373476 45 111 142
-0.110622 -0.379951 -0.279140 68 1 84
-0.090091 0.565513 -0.144537 68 1 84
-0.050201 0.317211 -0.255257 72 34 115
-0.449695 0.410441 0.344391 72 29 111
-0.165380 0.337552 -0.164160 68 1 84
-0.666659 -0.140712 0.400844 35 169 130
-0.004155 0.389426 -0.189623 68 1 84
-0.132780 -0.028030 -0.341923 48 104 141
-0.410402 0.458880 0.238307 68 1 84
0.059103 0.053563 -0.409895 43 115 142
0.073951 0.562842 -0.148125 68 1 84
0.640496 -0.148341 0.249058 83 197 103
0.518424 0.205998 0.104895 53 92 140
-0.609425 -0.214711 0.079272 60 78 138
0.155621 -0.371515 -0.230271 68 1 84
-0.057033 -0.310248 -0.302574 68 1 84
-0.471196 -0.509801 -0.201238 72 26 108
-0.138041 -0.230218 -0.202892 68 1 84
0.190140 0.248489 -0.162821 68 1 84
0.045936 0.353847 -0.193435 68 1 84
-0.665770 -0.393344 0.441996 37 171 129
-0.236289 0.211982 -0.173118 68 1 84
0.442601 0.407131 0.304403 67 60 132
-0.190896 0.520467 -0.102259 68 1 84
0.515107 0.279864 0.188248 58 83 139
-0.337993 0.458893 0.041498 68 1 84
0.629101 -0.410273 0.221511 46 107 142
0.336644 0.062365 -0.201988 68 1 84
-0.546933 0.167765 0.102819 71 43 122
0.281951 -0.008953 -0.224186 68 1 84
0.550640 0.167327 0.466225 31 161 135
0.170047 0.580634 -0.040603 68 1 84
0.179783 0.145160 -0.224905 68 1 84
-0.559542 0.205800 0.204759 59 81 138
0.647887 -0.191142 0.244656 96 201 96
-0.251199 0.505259 -0.037573 68 1 84
-0.151775 -0.267358 -0.177288 68 1 84
0.216832 0.066028 -0.207464 68 1 84
0.081655 0.226410 -0.267482 68 1 84
-0.488470 0.257134 0.054366 68 1 84
-0.154578 -0.267786 -0.175042 68 1 84
-0.589623 -0.047213 0.007171 53 92 140
-0.333772 -0.359665 -0.173304 68 1 84
0.156093 -0.425371 -0.309261 69 6 90
0.571182 -0.032415 0.015253 30 154 137
-0.043388 0.075313 -0.428053 31 162 134
0.502222 0.309947 0.190233 52 94 141
-0.280106 0.410869 -0.047755 68 1 84
-0.259335 0.536943 0.021771 68 1 84
-0.303731 -0.097789 -0.200223 68 1 84
0.140178 -0.068990 -0.275315 68 1 84
0.292788 0.475356 0.001062 68 1 84
0.371270 -0.067820 -0.188175 68 3 87
0.526593 0.255802 0.199328 49 102 141
-0.078681 -0.042201 -0.440383 61 76 137
0.063555 0.177500 -0.283991 68 1 84
0.541580 -0.448030 -0.035342 68 1 84
0.049247 0.086313 -0.319348 68 1 84
0.185735 0.057691 -0.213987 68 1 84
-0.152542 -0.276783 -0.173328 68 1 84
0.030823 0.476420 -0.198787 68 1 84
-0.017612 0.591261 -0.103754 68 1 84
0.630326 -0.244969 0.166322 31 146 140
-0.580892 0.111657 0.199919 56 87 140
0.602202 -0.015690 0.288481 71 192 110
0.066652 0.016177 -0.441267 34 138 141
-0.070881 0.529960 -0.176539 68 1 84
-0.673326 -0.535691 0.445060 34 139 141
-0.052781 0.427623 -0.189222 68 1 84
0.588895 -0.000741 0.214461 31 161 135
0.572776 0.110576 0.448619 69 191 111
-0.042052 0.522503 -0.183068 68 1 84
0.680125 -0.322587 0.375304 167 219 51
-0.136084 -0.031290 -0.330027 49 102 141
-0.423137 0.446323 0.213872 71 24 106
-0.433551 0.308780 0.016124 68 1 84
-0.291003 -0.361891 -0.177156 68 1 84
-0.040855 -0.011917 -0.473520 34 137 141
0.282704 -0.158481 -0.166068 68 1 84
0.619918 -0.078287 0.514103 116 208 84
-0.516306 0.173072 0.026178 71 38 118
0.091457 0.250166 -0.244469 68 1 84
0.416145 -0.319975 -0.106151 68 1 84
0.200323 0.519525 -0.094694 68 1 84
-0.338079 -0.375979 -0.191881 68 1 84
-0.117104 0.580121 -0.108908 68 1 84
-0.457023 0.076962 -0.132025 72 28 110
0.087754 0.518720 -0.174927 68 1 84
0.097094 -0.007095 -0.393987 61 76 137
-0.496143 0.239525 0.052511 68 1 84
0.187675 -0.251452 -0.177986 68 1 84
-0.456667 -0.039593 -0.158529 68 1 84
-0.173138 0.067473 -0.218956 68 1 84
0.584388 -0.200896 0.054677 37 131 141
0.602425 -0.015188 0.502903 105 204 91
0.347740 0.327168 -0.049080 69 8 91
-0.190192 0.540861 -0.090773 68 1 84
-0.562320 -0.066572 -0.051436 67 58 131
0.482177 -0.055147 -0.123910 67 60 132
-0.019950 0.345025 -0.204088 68 1 84
0.453854 -0.480077 -0.214296 68 1 84
0.321605 0.504633 0.191084 69 8 91
-0.205521 0.562810 -0.042542 68 1 84
0.472193 0.042960 -0.123199 60 77 138
0.666587 -0.363185 0.314657 34 167 132
-0.613827 0.055560 0.436024 47 179 123
0.198952 0.184243 -0.210937 68 1 84
-0.618905 -0.324616 0.144094 58 82 139
0.109752 0.021102 -0.374352 61 75 137
0.472626 0.369602 0.307072 52 94 141
0.185187 0.011814 -0.225767 68 1 84
0.537100 -0.376896 -0.008880 71 40 120
0.089225 0.070067 -0.289208 68 1 84
0.445584 0.063845 -0.140452 71 37 117
-0.046318 -0.379095 -0.314027 68 1 84
0.186999 -0.294352 -0.162797 68 1 84
0.114378 -0.358490 -0.248760 68 1 84
0.020034 -0.413540 -0.330608 68 1 84
0.188098 -0.411936 -0.269009 68 1 84
0.543174 -0.428845 -0.020280 68 1 84
-0.561964 0.056534 0.010866 62 72 136
0.458089 0.348990 0.120805 64 68 135
-0.033741 0.588399 -0.116234 68 1 84
-0.574656 -0.528891 0.062980 68 1 84
0.624638 -0.040314 0.404790 186 222 39
0.471885 0.359758 0.361929 45 110 142
0.496296 0.273663 0.117855 62 72 136
-0.465536 0.104740 -0.109069 71 38 118
0.459779 0.232877 -0.002118 71 24 106
-0.209133 -0.382883 -0.221723 68 1 84
-0.420600 -0.284243 -0.122362 68 1 84
-0.180893 -0.293966 -0.156491 68 1 84
-0.592714 0.015892 0.071485 54 90 140
-0.025779 0.598429 -0.083552 68 1 84
0.346833 -0.108045 -0.178502 68 1 84
0.189792 0.474345 -0.117080 68 1 84
0.481735 -0.510711 -0.183018 68 1 84
-0.603360 -0.034672 0.061590 64 67 135
-0.586434 0.117013 0.258931 46 108 142
-0.036492 -0.216912 -0.362142 68 1 84
0.610217 -0.281955 0.125021 39 125 142
-0.291716 0.534123 0.127553 68 1 84
0.251970 0.542635 0.079126 68 1 84
0.627946 -0.111726 0.532089 186 222 39
-0.419292 0.293835 -0.015222 69 6 90
0.496725 0.263054 0.108157 61 75 137
0.102774 -0.086365 -0.322486 72 29 111
-0.538881 -0.183171 -0.047109 67 60 132
0.257311 0.520816 -0.006247 68 1 84
0.105744 -0.240038 -0.229197 68 1 84
0.685834 -0.421557 0.404986 83 197 103
0.546234 -0.195427 -0.006751 57 85 139
-0.262660 0.550643 0.105389 68 1 84
-0.616571 0.048515 0.420767 31 149 139
0.663329 -0.213777 0.316143 126 210 78
0.696502 -0.395974 0.506481 186 222 39
0.035484 -0.163941 -0.386630 67 60 132
-0.651144 -0.482396 0.301536 62 73 137
-0.523031 0.148729 0.014176 72 35 116
-0.559352 0.065140 0.012721 68 57 130
0.246360 0.500370 -0.047589 68 1 84
0.287640 -0.384923 -0.221311 68 1 84
0.603452 -0.079241 0.116118 53 183 120
-0.598589 -0.179554 0.043972 69 54 129
0.356693 0.186901 -0.130881 68 1 84
-0.609759 -0.176658 0.066885 58 83 139
-0.530209 -0.504380 -0.101314 68 1 84
0.406343 0.158480 -0.123063 68 1 84
0.556410 0.151738 0.465459 30 158 136
0.179403 0.201600 -0.220555 68 1 84
0.581487 0.086744 0.422667 73 193 109
0.589581 0.043404 0.326365 64 189 114
-0.017947 0.556700 -0.156229 68 1 84
0.136655 0.443314 -0.153250 68 1 84
0.039691 0.050604 -0.447586 31 163 134
-0.613783 -0.535169 0.176581 69 6 90
-0.203717 0.452163 -0.105509 68 1 84
0.640995 -0.144998 0.463109 202 224 30
-0.209662 0.474079 -0.098039 68 1 84
-0.448222 0.132394 -0.108186 71 22 105
-0.587865 -0.303292 0.075433 65 65 134
-0.232291 0.075518 -0.205821 68 1 84
0.379087 0.440927 0.103817 67 58 131
-0.520959 -0.156341 -0.079226 71 22 105
0.422552 -0.339845 -0.113100 68 1 84
-0.588193 -0.401265 0.095266 72 35 116
-0.562717 -0.043518 -0.047074 66 62 133
0.625967 -0.044665 0.382937 141 214 68
0.498337 0.100027 -0.061417 61 76 137
-0.028325 -0.325699 -0.317528 68 1 84
-0.617415 -0.522021 0.187194 72 30 112
0.658223 -0.173046 0.342661 162 218 55
-0.259409 0.361280 -0.080970 68 1 84
-0.170168 -0.369261 -0.221526 68 1 84
0.066292 0.595097 -0.080311 68 1 84
0.530411 0.214277 0.155268 62 72 136
0.498150 0.177856 0.011204 57 85 139
-0.294499 -0.227029 -0.172393 68 1 84
0.468879 0.144951 -0.071446 71 37 117
-0.661324 -0.230791 0.235379 30 154 137
0.138590 0.250206 -0.215387 68 1 84
-0.491245 -0.503606 -0.177829 68 1 84
0.241424 0.401520 -0.077634 68 1 84
0.413860 0.039548 -0.170438 68 1 84
-0.229092 0.423347 -0.085840 68 1 84
0.373839 0.470540 0.259423 68 1 84
-0.446740 0.425921 0.244558 71 39 119
-0.534472 0.217575 0.123260 72 33 114
-0.386422 0.050677 -0.188176 71 44 123
-0.280668 -0.427764 -0.269039 68 1 84
0.402822 -0.011302 -0.181800 68 1 84
-0.486433 0.369342 0.206959 71 37 117
-0.125414 0.590515 -0.083803 68 1 84
0.354357 0.269324 -0.082837 70 9 92
0.498838 -0.180383 -0.064329 62 73 137
-0.631086 -0.062487 0.298602 37 131 141
0.203231 0.570633 0.038550 68 1 84
-0.651449 -0.307959 0.226434 31 146 140
-0.250513 0.541573 0.010697 68 1 84
-0.642409 -0.442191 0.253076 48 103 141
0.576568 -0.144813 0.020556 45 110 142
0.195899 0.219438 -0.197973 68 1 84
0.342720 0.409615 0.011520 68 1 84
0.191222 0.144258 -0.218451 68 1 84
-0.546049 0.147583 0.071709 72 29 111
-0.215824 0.574232 0.066305 68 1 84
0.553954 -0.514835 0.007939 68 1 84
0.392118 -0.393865 -0.185891 68 1 84
-0.135173 -0.408022 -0.298514 68 1 84
0.505893 0.208850 0.071486 57 84 139
-0.455972 -0.196370 -0.101494 68 1 84
0.523976 -0.354339 -0.021388 72 32 113
-0.013544 0.509416 -0.189519 68 1 84
0.062134 -0.060820 -0.427677 51 97 141
-0.430206 0.021214 -0.171453 72 25 107
0.114787 0.562142 -0.131001 68 1 84
-0.217139 0.126381 -0.205659 68 1 84
0.646373 -0.283635 0.213657 41 175 127
0.484856 0.329144 0.406713 46 108 142
-0.095160 -0.197565 -0.288788 68 1 84
0.519321 -0.022480 -0.082040 42 118 142
0.491317 0.345379 0.270859 50 98 141
0.150856 0.039142 -0.289711 68 1 84
0.499196 0.322260 0.345788 38 128 142
0.622946 -0.418723 0.203156 46 109 142
-0.666296 -0.581596 0.382038 35 135 141
0.581405 0.083845 0.351334 83 197 103
-0.420187 -0.410043 -0.197460 71 38 118
-0.581585 0.153091 0.347809 40 123 142
0.480230 0.099054 -0.089030 70 48 125
-0.529321 0.259012 0.468779 60 78 138
-0.428040 0.425942 0.156464 68 1 84
-0.028035 0.537383 -0.173727 68 1 84
0.072922 0.301213 -0.258034 68 1 84
0.344913 0.270736 -0.087415 68 1 84
0.485142 -0.217817 -0.056714 66 62 133
-0.675382 -0.186032 0.398362 116 208 84
-0.188904 -0.455678 -0.306577 68 1 84
-0.096148 -0.360180 -0.273733 68 1 84
0.568415 -0.415789 0.057454 69 50 127
-0.431894 -0.097630 -0.162726 68 1 84
0.234690 0.207484 -0.177798 68 1 84
-0.657615 -0.143463 0.314885 44 177 125
0.589471 -0.223385 0.070966 35 137 141
-0.619193 -0.354286 0.157255 68 55 129
-0.014393 0.097066 -0.385840 42 118 142
0.416947 0.100738 -0.146546 68 1 84
0.423909 0.279198 -0.009323 72 34 115
-0.567634 0.039400 0.009480 66 61 132
0.630120 -0.101417 0.271558 71 192 110
-0.593627 -0.434688 0.114109 72 26 108
-0.149151 0.596367 -0.023755 68 1 84
-0.244335 -0.147655 -0.189151 68 1 84
0.387825 0.460062 0.247098 71 24 106
0.360817 0.148228 -0.153810 68 1 84
0.564680 0.050198 0.055717 30 159 136
-0.209359 -0.181154 -0.184767 68 1 84
0.226912 -0.311490 -0.178290 68 1 84
0.394007 -0.320159 -0.123915 68 1 84
0.386632 -0.363589 -0.160090 68 1 84
-0.446360 -0.037565 -0.164868 68 1 84
0.562073 -0.116491 -0.016252 41 121 142
-0.072638 -0.403579 -0.315000 68 1 84
-0.331054 -0.007087 -0.213491 70 47 124
-0.273998 0.500354 -0.008415 68 1 84
-0.081617 -0.321979 -0.272434 68 1 84
-0.182659 0.519206 -0.110370 68 1 84
-0.498990 0.283841 0.104429 71 22 105
0.675395 -0.270442 0.437731 253 231 36
-0.567046 0.136536 0.518660 33 142 140
-0.549436 -0.334836 0.011003 68 1 84
-0.435906 0.174579 -0.087676 72 28 110
-0.275162 0.243049 -0.129233 68 1 84
-0.596011 0.103175 0.350213 40 122 142
-0.446477 -0.062852 -0.162573 68 1 84
0.274006 0.531472 0.139419 68 1 84
0.542760 -0.138615 -0.040391 48 103 141
0.332586 -0.114923 -0.178078 68 1 84
0.072187 0.441620 -0.185596 68 1 84
0.238559 0.505484 -0.055166 68 1 84
0.051075 0.370048 -0.183221 68 1 84
0.456160 -0.229235 -0.076211 70 47 124
-0.337477 -0.230550 -0.166637 68 1 84
0.092631 -0.173754 -0.299224 68 1 84
-0.661395 -0.132477 0.361897 47 179 123
-0.628720 -0.026411 0.507116 69 191 111
0.594591 -0.437870 0.120075 60 77 138
0.653731 -0.531060 0.276108 60 78 138
0.580429 0.049738 0.257331 51 182 121
-0.422297 0.446033 0.291447 71 21 103
0.332021 -0.030332 -0.209579 68 1 84
-0.515953 0.312002 0.398279 54 90 140
-0.365961 0.292913 -0.068795 68 1 84
-0.547808 -0.161846 -0.048070 72 32 113
0.211552 0.264079 -0.138209 68 1 84
0.637702 -0.382179 0.237136 31 147 139
0.333890 0.070466 -0.200602 68 1 84
0.055769 0.051539 -0.374389 63 69 135
0.124238 0.021875 -0.354309 64 68 135
-0.170740 0.275202 -0.194465 68 1 84
-0.101394 0.518674 -0.169731 68 1 84
-0.439206 0.227576 -0.041283 72 29 111
-0.497380 0.036402 -0.111362 72 32 113
0.604504 -0.014339 0.314091 33 166 133
-0.046645 -0.196818 -0.361279 68 1 84
-0.440788 0.097632 -0.134929 68 3 87
-0.294734 0.526973 0.092903 68 1 84
-0.616628 -0.038039 0.209068 49 101 141
0.165677 0.532316 -0.119691 68 1 84
0.025739 0.271583 -0.265039 68 1 84
0.217391 -0.036987 -0.233237 68 1 84
0.607183 -0.131759 0.100701 30 155 137
-0.667805 -0.414056 0.478358 33 167 132
0.139377 0.274618 -0.221636 68 1 84
-0.226674 0.426601 -0.087410 68 1 84
-0.614425 -0.011300 0.283109 66 61 132
0.090072 -0.045446 -0.387959 64 67 135
0.403616 0.154442 -0.127372 68 1 84
-0.569486 0.158503 0.475394 33 141 140
-0.511223 -0.111338 -0.107634 72 30 112
0.508451 0.305355 0.209148 54 91 140
0.592433 -0.474770 0.115273 70 45 124
-0.604407 0.017810 0.253597 50 98 141
0.088214 0.086150 -0.280636 68 1 84
-0.309352 0.129758 -0.179940 68 1 84
0.535164 0.191502 0.496886 34 167 132
0.673629 -0.258896 0.438244 218 226 24
0.015570 0.364867 -0.189307 68 1 84
-0.530860 -0.001246 -0.084083 65 65 134
-0.670863 -0.293266 0.410589 66 190 113
0.030284 0.374213 -0.184942 68 1 84
-0.567601 0.172823 0.199867 45 111 142
0.388901 0.458940 0.211346 71 24 106
0.540613 -0.084314 -0.056013 38 127 142
0.367392 0.151564 -0.148646 68 1 84
0.275812 0.120770 -0.189365 68 1 84
-0.651819 -0.085281 0.430439 96 201 96
0.488133 0.233744 0.055465 61 76 137
-0.665477 -0.395316 0.435691 33 166 133
0.034350 0.068155 -0.351957 68 57 130
-0.601481 -0.003356 0.094852 44 113 142
0.358343 -0.171895 -0.142498 68 1 84
-0.208286 0.564005 -0.034137 68 1 84
0.371740 0.472200 0.232410 68 1 84
0.543209 0.222858 0.254367 45 111 142
-0.415676 0.413075 0.105421 68 1 84
-0.457716 0.373219 0.128674 70 9 92
-0.185639 -0.094780 -0.241053 72 28 110
0.567844 0.143490 0.360384 32 164 133
-0.635062 -0.222902 0.141168 57 85 139
-0.196153 -0.405172 -0.254175 68 1 84
-0.576325 0.172380 0.289129 52 95 141
0.144173 0.382608 -0.150961 68 1 84
-0.071969 0.110577 -0.300581 71 44 123
-0.628841 -0.481772 0.222231 69 54 129
-0.580613 0.076284 0.121272 58 82 139
0.533131 0.258781 0.287503 43 116 142
0.611655 -0.473461 0.171623 64 68 135
-0.102816 -0.198322 -0.277079 68 1 84
-0.424606 -0.338603 -0.120042 68 1 84
-0.449756 -0.218959 -0.098548 68 1 84
0.550781 -0.290532 0.029651 62 72 136
0.032048 0.305563 -0.264736 68 1 84
-0.181409 0.534616 -0.103512 68 1 84
0.106548 0.291230 -0.244598 68 1 84
0.541511 0.229021 0.356681 34 137 141
-0.667403 -0.174331 0.482773 141 214 68
-0.544767 -0.356937 -0.005521 68 1 84
-0.657792 -0.414200 0.342649 30 156 137
0.377242 -0.299468 -0.141529 68 1 84
0.444596 -0.472273 -0.218710 68 1 84
-0.535892 0.271224 0.198123 54 90 140
0.073638 0.128566 -0.284650 68 1 84
0.139798 0.448972 -0.152187 68 1 84
0.649409 -0.150415 0.429489 233 228 25
-0.462658 0.131391 -0.094115 72 32 113
-0.253133 0.236222 -0.134439 68 1 84
-0.319042 -0.132080 -0.175282 68 1 84
-0.246308 0.001551 -0.224865 68 1 84
0.212741 0.053141 -0.210181 68 1 84
