ply
format ascii 1.0
element vertex 1275
property float x
property float y
property float z
property uchar red
property uchar green
property uchar blue
end_header
0.361140 -0.520918 -0.164256 68 1 84
-0.110945 -0.160882 -0.389975 68 1 84
0.323837 0.254263 -0.159566 69 52 127
0.268671 -0.352574 -0.151711 69 54 129
-0.287215 0.583422 0.004023 68 1 84
0.546318 -0.498434 0.224145 68 1 84
0.455678 -0.268739 -0.058884 41 120 142
0.179286 -0.540286 -0.207893 68 1 84
-0.730044 -0.304219 0.500360 68 1 84
-0.087850 0.518544 -0.198602 68 1 84
-0.582036 0.143738 0.524961 56 86 139
0.034473 -0.312296 -0.286427 71 42 121
0.421011 -0.151144 -0.109025 114 207 85
0.200486 0.026175 -0.211799 186 222 39
-0.545960 -0.038538 0.012525 56 185 118
-0.056252 -0.290487 -0.353092 68 1 84
-0.514273 0.345330 0.326092 34 138 141
-0.100562 -0.072393 -0.286333 68 1 84
0.579245 0.198553 0.359194 68 1 84
-0.506495 0.352078 0.230692 39 125 142
-0.141048 0.063096 -0.235220 68 1 84
0.428065 0.502839 0.072737 68 1 84
0.271931 0.628288 -0.024785 68 1 84
0.289802 0.027139 -0.199195 68 190 112
0.234439 0.646499 -0.066900 68 1 84
0.032234 -0.095298 -0.309364 68 1 84
0.595017 -0.073098 0.281601 68 1 84
-0.457361 0.420338 0.103128 55 88 140
0.589247 -0.091330 0.237184 68 1 84
0.514176 -0.470298 0.097816 68 1 84
-0.647940 -0.436454 0.257246 68 1 84
-0.402588 0.015987 -0.130504 30 154 137
-0.099652 -0.235896 -0.348284 65 65 134
0.499527 0.310001 0.032319 68 1 84
-0.353595 0.434780 -0.053581 68 1 84
0.228646 -0.171376 -0.185193 43 177 125
0.474870 0.295536 -0.016477 68 1 84
-0.672037 -0.201112 0.411200 68 1 84
-0.446803 -0.156208 -0.116444 45 111 142
-0.561075 -0.355927 0.039637 68 1 84
-0.538015 0.061919 0.050649 30 153 138
-0.316097 0.493074 -0.047889 68 1 84
0.261340 -0.480303 -0.172974 68 1 84
0.096388 -0.176144 -0.244732 39 173 128
0.285178 0.564027 -0.092825 68 1 84
0.367421 -0.053522 -0.149588 43 177 125
-0.162167 0.266962 -0.170036 68 1 84
0.087420 -0.275577 -0.224301 49 102 141
-0.483700 -0.530730 -0.142269 68 1 84
-0.276116 0.512022 -0.067829 68 1 84
-0.188472 -0.189638 -0.209109 64 67 135
0.096002 0.032108 -0.251759 68 1 84
0.519663 0.363039 0.407765 68 1 84
-0.212015 0.654622 0.030684 68 1 84
-0.029277 0.509418 -0.222933 68 1 84
-0.324237 0.590169 0.073718 68 1 84
-0.109737 0.320692 -0.240005 68 1 84
-0.468916 -0.428393 -0.143023 68 1 84
0.403725 0.273281 -0.104934 69 50 127
-0.562426 -0.229639 0.037439 64 68 135
0.312879 -0.640959 -0.195057 68 1 84
-0.482345 0.415636 0.278288 35 137 141
-0.608394 -0.345685 0.119800 68 1 84
-0.141893 -0.593556 -0.262660 68 1 84
0.284205 0.081572 -0.197997 37 130 142
0.556306 -0.449165 0.206123 68 1 84
-0.687866 -0.242567 0.448633 68 1 84
0.525285 -0.511517 0.154851 68 1 84
0.417062 0.084597 -0.119729 36 170 130
0.251104 -0.226247 -0.173050 36 170 130
0.570415 -0.115469 0.128823 67 59 131
0.144807 -0.556304 -0.231189 68 1 84
-0.544023 -0.311256 0.025243 63 71 136
0.063281 -0.324395 -0.217547 65 65 134
0.162239 0.452083 -0.203920 68 1 84
0.624149 -0.560663 0.437727 68 1 84
0.525646 0.207203 0.054653 70 14 97
0.522181 -0.243944 0.032030 70 14 97
-0.601597 -0.234525 0.098423 68 1 84
0.507043 -0.349775 0.052174 68 1 84
0.257905 0.149947 -0.203992 48 104 141
0.092216 0.526328 -0.226882 68 1 84
0.497805 0.061110 -0.013275 30 156 137
0.628041 -0.391947 0.498014 68 1 84
0.132262 -0.133906 -0.213291 53 183 120
-0.423043 0.274564 -0.055080 42 118 142
0.399395 0.546663 0.094508 68 1 84
-0.295535 -0.227469 -0.174355 42 119 142
0.558097 -0.605982 0.288043 68 1 84
0.182549 -0.505848 -0.193082 68 1 84
0.395817 0.391856 -0.067397 68 1 84
-0.529479 -0.452683 -0.064951 68 1 84
-0.188918 -0.457039 -0.180078 68 1 84
0.472015 -0.475499 0.005863 68 1 84
0.286626 0.560574 -0.092886 68 1 84
0.480956 -0.426885 0.030890 68 1 84
0.505484 0.404713 0.345373 68 1 84
-0.204837 0.000160 -0.203501 45 111 142
0.607714 -0.092889 0.336263 68 1 84
0.209373 0.436202 -0.175399 68 1 84
-0.336071 0.326632 -0.114983 68 1 84
0.507211 0.164792 0.006217 55 89 140
0.341320 0.048921 -0.177159 149 215 63
-0.651690 -0.124821 0.324092 68 1 84
0.066203 0.046821 -0.277982 68 1 84
0.409045 0.191312 -0.118230 45 111 142
0.010546 -0.356645 -0.289388 68 1 84
-0.678244 -0.215527 0.335491 68 1 84
0.566894 -0.269306 0.134774 68 1 84
0.496220 -0.285296 0.010011 68 3 87
0.313975 -0.303857 -0.147299 38 127 142
0.082855 -0.081478 -0.274764 56 87 140
-0.089006 -0.468240 -0.239801 68 1 84
-0.012293 -0.172542 -0.429064 68 1 84
-0.438381 -0.122616 -0.120198 42 119 142
-0.621397 0.044105 0.439690 68 1 84
-0.154468 -0.468941 -0.190850 68 1 84
0.617651 -0.383025 0.402867 68 1 84
-0.181797 0.180716 -0.225292 68 1 84
-0.471426 0.432871 0.340379 51 97 141
0.570177 0.097498 0.222773 69 6 90
-0.217498 0.473730 -0.125683 68 1 84
-0.216719 0.480729 -0.123552 68 1 84
0.294881 -0.307146 -0.152984 65 65 134
-0.661553 -0.169239 0.464664 68 1 84
0.432246 -0.250889 -0.091016 38 128 142
-0.631416 -0.459568 0.214685 68 1 84
-0.445442 0.467677 0.389435 45 111 142
0.003670 -0.544929 -0.253428 68 1 84
-0.518070 0.017692 -0.004870 139 213 70
0.400405 -0.606730 -0.127370 68 1 84
-0.016022 0.583142 -0.218723 68 1 84
-0.604536 -0.179638 0.105850 61 76 137
0.145124 0.626649 -0.174337 68 1 84
0.268151 0.522525 -0.124922 68 1 84
0.581672 0.181032 0.326996 68 1 84
0.522285 -0.125473 0.010111 57 85 139
0.505826 -0.251371 0.006259 53 92 140
0.588457 -0.071350 0.247087 68 1 84
0.552377 0.167028 0.123540 68 57 130
0.565867 -0.318015 0.147798 68 1 84
-0.541895 0.276636 0.501614 39 124 142
-0.600113 0.112621 0.471733 72 29 111
-0.553847 0.259709 0.429617 46 108 142
0.456451 0.252961 -0.054213 71 44 123
-0.110413 -0.389888 -0.215564 68 1 84
-0.658919 -0.344192 0.266817 68 1 84
0.594746 0.039263 0.482911 68 1 84
0.267213 0.179128 -0.198498 51 96 141
-0.636812 -0.399498 0.220361 68 1 84
0.554888 -0.308280 0.118862 68 1 84
-0.561279 0.189779 0.314122 30 153 138
-0.035687 -0.041803 -0.350881 68 1 84
0.173538 -0.343516 -0.161842 68 1 84
0.446326 0.138823 -0.086032 41 121 142
-0.300024 0.613878 0.079379 68 1 84
-0.585546 -0.062487 0.087410 32 144 140
0.574826 -0.222123 0.144668 68 1 84
-0.148740 -0.129324 -0.259247 51 97 141
-0.144508 -0.585789 -0.262247 68 1 84
-0.243454 0.593472 -0.036925 68 1 84
-0.045871 0.201601 -0.271569 68 1 84
0.607451 -0.052053 0.395491 68 1 84
0.448699 0.154762 -0.081851 46 107 142
-0.312380 0.592673 0.056512 68 1 84
0.188742 -0.371725 -0.155135 68 1 84
-0.674834 -0.215659 0.483373 68 1 84
-0.184207 -0.432135 -0.161482 68 1 84
0.587161 -0.296200 0.204476 68 1 84
-0.637596 -0.384479 0.216685 68 1 84
0.501918 0.218613 0.008040 66 61 132
-0.261140 0.415408 -0.122206 68 1 84
0.619642 -0.329803 0.464681 68 1 84
-0.674874 -0.198730 0.509356 68 1 84
-0.257387 -0.570470 -0.258713 68 1 84
0.322504 -0.192549 -0.160223 59 186 117
0.033910 0.551309 -0.227561 68 1 84
-0.222052 0.293909 -0.160918 68 1 84
-0.141507 -0.148035 -0.297548 61 76 137
-0.280567 -0.191574 -0.175786 48 103 141
-0.012992 0.157611 -0.305591 68 1 84
0.395416 0.161091 -0.134971 31 147 139
-0.091025 0.602718 -0.184909 68 1 84
0.530797 0.370668 0.229224 68 1 84
-0.259898 -0.340312 -0.163416 69 8 91
-0.477754 0.111842 -0.033437 42 118 142
0.426274 -0.147497 -0.104802 121 209 81
0.578906 -0.032674 0.221011 69 6 90
0.014365 0.405614 -0.238917 68 1 84
0.491038 0.016029 -0.024059 56 185 118
-0.347150 -0.004011 -0.169101 66 62 133
0.602749 -0.202691 0.526966 68 1 84
-0.729875 -0.315198 0.520384 68 1 84
0.137530 -0.014120 -0.213158 31 162 134
0.122983 -0.128391 -0.292168 61 74 137
-0.182948 -0.518875 -0.223388 68 1 84
-0.660905 -0.151872 0.310821 68 1 84
0.585596 0.094526 0.479700 68 1 84
0.527695 0.340557 0.422818 68 1 84
-0.646071 -0.027615 0.559179 68 1 84
-0.515205 0.329428 0.245505 33 142 140
0.001167 -0.195497 -0.414107 63 71 136
-0.119379 -0.327586 -0.244722 71 18 101
-0.537901 -0.017292 0.010206 94 201 97
0.008027 0.360006 -0.261463 68 1 84
-0.534558 0.289815 0.320364 34 137 141
-0.341171 0.542571 0.026265 68 1 84
0.565647 -0.414259 0.206992 68 1 84
-0.465444 0.445556 0.221733 48 103 141
-0.256869 -0.611444 -0.261838 68 1 84
-0.633518 0.002756 0.517431 68 1 84
0.606194 -0.026240 0.392475 68 1 84
0.027271 -0.072898 -0.362913 68 1 84
-0.340599 -0.211893 -0.162929 46 109 142
0.564570 0.099728 0.186865 72 25 107
-0.390077 0.557619 0.218142 68 2 85
0.089811 0.304541 -0.276546 68 1 84
-0.466143 0.446276 0.249246 32 145 140
-0.122559 -0.131377 -0.382324 68 1 84
0.150582 0.481081 -0.210424 68 1 84
0.120064 -0.384154 -0.144357 71 40 120
-0.506398 -0.088343 -0.055588 36 134 141
-0.595328 0.037027 0.288380 50 99 141
0.619268 -0.312521 0.373654 68 1 84
-0.373976 0.561318 0.127737 68 1 84
-0.130079 0.103900 -0.251190 68 1 84
0.016583 -0.272076 -0.340175 46 107 142
0.323825 0.581822 -0.013440 68 1 84
0.605050 -0.395317 0.352239 68 1 84
0.098898 0.530098 -0.225857 68 1 84
0.614639 -0.109770 0.486608 68 1 84
0.114306 0.367871 -0.249138 68 1 84
-0.021211 -0.032340 -0.322410 68 1 84
0.045659 -0.414298 -0.173611 68 1 84
-0.424889 -0.270804 -0.119593 68 1 84
0.507042 0.142501 0.004210 65 66 134
0.175250 0.258161 -0.207891 68 1 84
-0.485921 0.381938 0.156587 33 141 140
-0.661481 -0.309583 0.266005 68 1 84
0.089305 0.504921 -0.228523 68 1 84
0.601632 -0.069162 0.318417 68 1 84
0.413390 0.441638 -0.017541 68 1 84
-0.394480 0.377791 -0.042815 61 75 137
0.578484 0.025745 0.253108 68 1 84
0.252443 -0.535598 -0.204327 68 1 84
-0.004839 -0.036910 -0.314320 68 1 84
0.081232 0.226774 -0.243805 68 1 84
-0.572439 -0.376388 0.052417 68 1 84
-0.448743 0.005848 -0.090913 42 176 126
-0.313818 0.611764 0.105489 68 1 84
0.621328 -0.329047 0.515201 68 1 84
0.124604 -0.191952 -0.217447 35 137 141
0.196962 -0.371693 -0.155299 68 1 84
-0.523853 0.287912 0.223520 31 147 139
-0.310567 0.463547 -0.070744 68 1 84
-0.350217 -0.200545 -0.159794 46 109 142
-0.029242 0.153061 -0.303755 68 1 84
-0.088544 0.695459 -0.083417 68 1 84
-0.601327 0.081623 0.366502 68 57 130
0.219414 0.616892 -0.136577 68 1 84
0.570385 0.218419 0.421090 68 1 84
0.227126 -0.474581 -0.167909 68 1 84
-0.615371 0.066724 0.468470 70 14 97
0.390749 0.532928 0.043092 68 1 84
-0.587524 0.042174 0.259439 34 137 141
-0.190709 0.106021 -0.222806 68 1 84
-0.534773 -0.077215 -0.017962 31 149 139
0.560629 -0.283510 0.123771 68 1 84
0.543391 0.290550 0.140544 68 1 84
0.527046 -0.240269 0.039341 71 15 98
-0.407021 0.422705 0.004201 72 34 115
-0.498579 0.252632 0.069667 79 195 105
-0.359645 -0.140960 -0.156136 45 110 142
0.133297 -0.305819 -0.173868 47 105 141
0.134023 0.274724 -0.251592 68 1 84
0.544838 0.324735 0.203768 68 1 84
-0.654495 -0.053129 0.488379 68 1 84
-0.108389 -0.226042 -0.341206 71 17 99
0.516370 -0.345832 0.063826 68 1 84
-0.308320 -0.015737 -0.187748 69 54 129
0.580887 -0.225371 0.165095 68 1 84
-0.175920 0.564135 -0.124473 68 1 84
0.493347 -0.058523 -0.025363 36 133 141
0.106735 -0.332615 -0.166239 70 47 124
-0.130204 0.186445 -0.246604 68 1 84
0.555406 0.140025 0.133138 71 44 123
0.199376 0.476151 -0.181645 68 1 84
0.625142 -0.536885 0.430083 68 1 84
0.606869 -0.032347 0.467339 68 1 84
-0.107720 -0.078553 -0.364464 68 1 84
-0.114478 -0.452810 -0.214539 68 1 84
-0.063716 -0.092011 -0.424583 68 1 84
0.577663 0.155497 0.468249 68 1 84
-0.374893 0.405591 -0.049801 68 1 84
0.168844 0.492499 -0.201855 68 1 84
0.206782 0.362362 -0.197744 68 1 84
0.570498 0.212702 0.243124 68 1 84
-0.206690 -0.294939 -0.171049 66 64 133
-0.487386 0.300983 0.071384 35 135 141
-0.333047 0.511700 -0.016570 68 1 84
-0.436319 0.487190 0.170790 52 95 141
0.572005 -0.068367 0.152766 46 108 142
-0.671537 -0.345749 0.303678 68 1 84
-0.560729 0.200947 0.323854 37 130 142
0.548796 -0.339687 0.115326 68 1 84
0.467074 0.305456 -0.023929 68 1 84
0.205567 -0.621924 -0.246812 68 1 84
-0.301819 -0.133142 -0.173779 33 166 133
0.629569 -0.407983 0.502423 68 1 84
-0.265340 0.233039 -0.180564 68 1 84
0.120942 0.012719 -0.229398 58 83 139
-0.435824 0.104812 -0.090505 44 177 125
0.365794 -0.197841 -0.143936 30 158 136
0.034915 -0.207213 -0.385537 55 89 140
0.501030 -0.500284 0.075693 68 1 84
0.085958 0.092143 -0.280453 68 1 84
-0.258444 0.260039 -0.175010 68 1 84
0.051330 -0.370300 -0.187975 72 26 108
-0.014004 0.179468 -0.301177 68 1 84
0.553609 0.041820 0.107486 47 105 141
0.534395 0.359761 0.210601 68 1 84
-0.394447 0.548572 0.173571 68 1 84
0.179661 0.285047 -0.220253 68 1 84
-0.652775 -0.035909 0.539819 68 1 84
-0.132741 -0.170891 -0.315985 71 43 122
-0.579148 0.082763 0.277960 35 136 141
0.592906 -0.216945 0.218960 68 1 84
0.542522 0.312204 0.405748 68 1 84
-0.262539 0.335957 -0.146602 68 1 84
0.088028 -0.461456 -0.160006 68 1 84
0.358211 -0.447763 -0.094864 68 3 87
0.137701 -0.512921 -0.193010 68 1 84
-0.442668 -0.431736 -0.167275 68 1 84
-0.413611 0.099061 -0.115016 34 137 141
-0.720799 -0.250567 0.488513 68 1 84
-0.264629 -0.314194 -0.166679 68 2 85
0.059570 -0.175713 -0.379482 53 92 140
-0.127678 -0.183872 -0.330360 71 44 123
0.618870 -0.271702 0.325759 68 1 84
-0.497179 -0.037492 -0.051624 46 109 142
0.063203 -0.504459 -0.207642 68 1 84
-0.611251 -0.425505 0.146917 68 1 84
0.283470 -0.441428 -0.140523 71 17 99
0.325130 0.415560 -0.109276 68 1 84
0.487271 0.426730 0.107912 68 1 84
0.304341 0.562464 -0.068331 68 1 84
0.551507 0.301221 0.371533 68 1 84
-0.605504 0.062748 0.569105 69 8 91
0.582339 0.110839 0.484817 68 1 84
-0.495908 0.263509 0.069095 59 186 117
0.114849 -0.379493 -0.147132 70 48 125
-0.385417 -0.159612 -0.148219 31 146 140
0.321306 0.134517 -0.179578 30 153 138
-0.446660 -0.020111 -0.096277 42 176 126
-0.701626 -0.269132 0.444487 68 1 84
0.514013 0.393668 0.335967 68 1 84
-0.530107 0.258149 0.218682 35 136 141
0.608291 -0.046968 0.408663 68 1 84
0.383328 -0.109151 -0.133558 167 219 51
-0.061182 -0.015749 -0.278173 68 1 84
-0.467121 0.443528 0.291706 32 143 140
0.586541 -0.341058 0.226377 68 1 84
0.590218 -0.040090 0.276579 68 1 84
-0.135679 0.610193 -0.145532 68 1 84
-0.513020 -0.363193 -0.032269 68 1 84
-0.021458 -0.043317 -0.364302 68 1 84
-0.262079 0.598096 -0.009210 68 1 84
-0.447984 -0.028753 -0.096288 48 180 122
0.302601 0.598515 -0.028705 68 1 84
-0.172828 0.062433 -0.219936 70 48 125
0.438011 0.500424 0.094649 68 1 84
-0.437308 -0.278090 -0.109578 70 14 97
0.558985 -0.157931 0.091143 68 1 84
-0.593675 -0.413522 0.095888 68 1 84
-0.545391 -0.295505 0.026588 32 144 140
-0.463003 -0.299729 -0.075355 35 136 141
-0.616016 -0.035996 0.264841 61 75 137
0.137626 -0.527946 -0.204747 68 1 84
-0.100517 -0.240785 -0.343243 67 60 132
0.132458 -0.502609 -0.186341 68 1 84
0.608055 -0.174280 0.304087 68 1 84
0.592331 -0.587201 0.349855 68 1 84
0.354040 0.154049 -0.161777 31 146 140
0.560143 -0.016414 0.122628 44 114 142
-0.575204 0.148723 0.332461 49 101 141
-0.069571 0.026487 -0.276190 68 1 84
-0.059241 0.001428 -0.277345 68 1 84
0.580080 0.149162 0.461173 68 1 84
0.229608 0.511751 -0.158486 68 1 84
0.090146 -0.085525 -0.289830 66 62 133
-0.156156 -0.259144 -0.219084 71 17 99
-0.655327 -0.068388 0.411442 68 1 84
0.140394 -0.173264 -0.211519 30 154 137
-0.067115 -0.163389 -0.426227 68 1 84
0.552735 -0.039529 0.089209 59 81 138
0.268281 -0.395448 -0.146671 71 22 105
0.577120 -0.300848 0.172242 68 1 84
0.039027 -0.277707 -0.301586 66 62 133
-0.127664 0.332417 -0.223923 68 1 84
-0.394495 0.427060 -0.010729 68 1 84
0.563827 0.271192 0.306014 68 1 84
-0.570388 -0.316459 0.054585 71 15 98
-0.513319 0.195097 0.070022 41 121 142
-0.515264 0.309888 0.199105 30 158 136
-0.595592 0.102186 0.510913 68 1 84
0.459172 -0.469314 -0.020328 68 1 84
-0.641677 -0.201473 0.205535 68 1 84
0.619310 -0.300553 0.377917 68 1 84
-0.365304 0.582727 0.199666 68 1 84
0.160065 -0.552527 -0.222506 68 1 84
-0.171216 -0.265969 -0.197121 67 60 132
0.542025 0.209173 0.098963 70 14 97
0.368388 0.291441 -0.126896 63 71 136
-0.197375 0.227275 -0.199268 68 1 84
-0.491459 -0.461085 -0.123724 68 1 84
0.557214 0.291019 0.249181 68 1 84
-0.500332 0.377643 0.291430 35 135 141
-0.135386 -0.431228 -0.171511 68 1 84
0.339188 -0.010451 -0.172920 144 214 67
-0.498387 0.318572 0.123911 39 126 142
-0.010442 -0.043130 -0.356905 68 1 84
-0.594329 -0.115067 0.090481 41 120 142
0.560225 0.284085 0.287821 68 1 84
0.383988 -0.393183 -0.069943 68 1 84
-0.051072 0.605532 -0.203775 68 1 84
-0.382756 0.536687 0.093245 68 1 84
-0.351383 0.560109 0.069492 68 1 84
-0.404203 0.531873 0.297365 39 126 142
-0.362077 0.320047 -0.097837 72 30 112
-0.127952 0.455012 -0.182114 68 1 84
-0.313844 -0.227776 -0.170693 48 104 141
0.633665 -0.502421 0.494527 68 1 84
0.376421 -0.332370 -0.107333 52 95 141
0.262659 -0.219718 -0.171803 32 144 140
-0.678063 -0.379132 0.318184 68 1 84
0.599106 0.003875 0.346571 68 1 84
0.198836 -0.212222 -0.183387 46 178 124
-0.416573 -0.216421 -0.128456 46 108 142
0.584509 -0.386312 0.252414 68 1 84
0.570325 0.241655 0.336488 68 1 84
-0.515451 -0.522166 -0.100441 68 1 84
-0.092632 0.628703 -0.170786 68 1 84
0.444637 -0.176323 -0.091100 34 167 132
0.513774 0.403194 0.185730 68 1 84
0.070077 -0.422107 -0.147286 68 1 84
-0.141288 -0.286309 -0.228340 60 77 138
-0.733972 -0.288165 0.548473 68 1 84
0.507220 0.359284 0.083186 68 1 84
-0.314035 -0.280199 -0.164396 72 28 110
0.522877 -0.114789 0.013275 52 94 141
0.279028 0.191748 -0.191693 47 105 141
-0.383839 0.561813 0.226363 70 12 95
0.373448 0.158492 -0.150611 31 146 140
0.055054 0.303817 -0.284380 68 1 84
0.037483 -0.543016 -0.240912 68 1 84
-0.657071 -0.205287 0.256828 68 1 84
-0.284490 -0.207557 -0.175377 38 127 142
-0.314793 0.619000 0.161648 68 1 84
0.602236 -0.083382 0.310270 68 1 84
0.481857 0.280415 -0.010792 68 1 84
-0.055298 -0.303484 -0.345951 68 1 84
0.325131 0.302817 -0.146289 70 11 94
-0.123463 0.428267 -0.194320 68 1 84
-0.426706 0.419995 0.033580 70 12 95
0.598820 -0.001155 0.491460 68 1 84
-0.556839 0.108108 0.186690 37 171 129
0.502951 0.084183 -0.005650 34 137 141
0.556053 -0.128132 0.083146 71 38 118
-0.276853 0.604882 0.021343 68 1 84
-0.485063 0.202632 0.008096 32 164 133
-0.635258 -0.347868 0.192697 68 1 84
-0.019657 0.318917 -0.278859 68 1 84
-0.594915 0.092246 0.569958 72 32 113
-0.130207 0.394250 -0.204185 68 1 84
-0.523132 -0.159463 -0.041331 61 74 137
0.621333 -0.344731 0.465318 68 1 84
-0.373573 0.548947 0.095912 68 1 84
-0.181830 0.663955 -0.012602 68 1 84
0.107406 -0.368741 -0.151881 71 24 106
0.532482 0.211396 0.072470 68 2 85
0.581821 0.184003 0.337811 68 1 84
0.572990 -0.147469 0.136131 68 1 84
-0.640803 -0.343321 0.209716 68 1 84
0.229853 0.148579 -0.215165 70 14 97
-0.479673 -0.428458 -0.131328 68 1 84
-0.574825 0.152996 0.335673 45 111 142
-0.394344 -0.492597 -0.203468 68 1 84
0.499772 0.062713 -0.010188 47 106 141
0.055742 -0.356318 -0.193642 71 22 105
-0.659801 -0.142950 0.336118 68 1 84
-0.277105 -0.392196 -0.156125 71 43 122
0.623094 -0.360621 0.470908 68 1 84
-0.353196 0.178352 -0.151711 60 78 138
0.092352 0.057259 -0.265825 68 1 84
-0.555214 0.240629 0.358943 32 144 140
0.490810 0.118043 -0.024164 43 115 142
0.462737 -0.151132 -0.071593 46 178 124
-0.697884 -0.250687 0.457991 68 1 84
0.447904 0.479895 0.082880 68 1 84
0.402713 0.021381 -0.128589 253 231 36
-0.024198 -0.346072 -0.321847 68 1 84
0.353506 0.077282 -0.170400 215 226 25
-0.281383 -0.228225 -0.176178 54 91 140
0.576428 -0.439265 0.283414 68 1 84
-0.491623 -0.070642 -0.066320 39 173 128
-0.067518 0.173562 -0.288589 68 1 84
0.433918 -0.144448 -0.098151 75 194 108
0.553001 -0.213044 0.084057 69 6 90
-0.052575 0.641419 -0.183259 68 1 84
-0.067420 0.176842 -0.287172 68 1 84
-0.285186 0.177488 -0.184226 68 1 84
-0.124196 -0.337402 -0.219462 71 17 99
0.612956 -0.072101 0.438882 68 1 84
0.399272 0.534401 0.064679 68 1 84
-0.495228 -0.308518 -0.026945 66 61 132
0.552654 0.072595 0.107211 63 71 136
-0.268968 -0.163667 -0.179922 46 107 142
-0.608726 -0.213616 0.113082 68 1 84
-0.420632 -0.331646 -0.110747 56 87 140
0.422387 0.391590 -0.040528 68 1 84
0.071659 0.668755 -0.161490 68 1 84
0.519357 -0.424361 0.091527 68 1 84
0.525300 0.329509 0.108775 68 1 84
-0.391263 0.490914 0.043853 68 1 84
0.087010 0.086162 -0.278314 68 1 84
0.610242 -0.231772 0.471768 68 1 84
0.296344 -0.486553 -0.197318 68 1 84
0.607665 -0.297536 0.288832 68 1 84
-0.062129 0.642291 -0.178375 68 1 84
0.538111 -0.510502 0.201858 68 1 84
-0.421345 0.512181 0.303438 39 125 142
0.620594 -0.347583 0.337654 68 1 84
-0.537147 0.200682 0.196468 53 93 140
0.141007 -0.339851 -0.162139 70 45 124
0.582417 0.108892 0.485848 68 1 84
-0.200226 0.226399 -0.199756 68 1 84
-0.125410 0.688151 -0.047532 68 1 84
-0.480634 0.399648 0.164889 43 116 142
0.606905 -0.098702 0.326066 68 1 84
0.366110 -0.269088 -0.131999 35 135 141
-0.072281 0.146735 -0.291931 68 1 84
0.109158 0.218288 -0.224214 71 20 102
-0.262413 -0.102010 -0.192689 58 83 139
-0.389346 0.446253 -0.002991 70 11 94
-0.562355 0.082012 0.159630 42 176 126
-0.135700 -0.352908 -0.173728 58 82 139
-0.708922 -0.236170 0.548179 68 1 84
0.579619 0.104007 0.270987 68 1 84
0.599616 -0.110641 0.285928 68 1 84
-0.539032 0.000170 0.021026 56 185 118
0.349204 -0.640011 -0.167805 68 1 84
0.066427 -0.126267 -0.377896 67 58 131
0.087592 -0.373538 -0.152166 68 1 84
-0.547753 0.146363 0.198005 53 183 120
-0.167387 -0.382514 -0.143179 49 100 141
-0.649619 -0.152527 0.261728 68 1 84
0.066883 -0.197656 -0.322138 46 108 142
0.396486 0.199237 -0.126854 50 99 141
-0.319483 0.023013 -0.186093 62 72 136
0.604145 -0.213116 0.537524 68 1 84
-0.259014 -0.056210 -0.200580 43 115 142
-0.259409 0.018513 -0.205220 68 55 129
0.105882 0.518445 -0.225879 68 1 84
0.595216 0.024743 0.490254 68 1 84
0.522100 -0.356075 0.075618 68 1 84
-0.105881 0.139351 -0.269569 68 1 84
-0.475409 -0.032772 -0.072802 40 174 127
0.501042 0.430793 0.206631 68 1 84
-0.267711 0.318291 -0.151590 68 1 84
0.580283 0.180934 0.307857 68 1 84
0.083926 0.686019 -0.134731 68 1 84
-0.482743 0.397818 0.171817 36 132 141
0.597877 -0.466327 0.365803 68 1 84
0.497543 0.422706 0.140130 68 1 84
-0.550165 0.266140 0.394995 54 91 140
0.120073 0.620165 -0.190209 68 1 84
-0.203165 0.523483 -0.116032 68 1 84
0.380565 -0.231035 -0.132852 30 158 136
0.610489 -0.412278 0.380165 68 1 84
0.506423 -0.344983 0.049877 68 1 84
0.528512 0.062396 0.040876 35 137 141
0.577029 -0.046839 0.198204 68 1 84
0.535739 0.133251 0.064162 62 72 136
-0.095319 -0.497536 -0.240323 68 1 84
0.336183 0.370399 -0.119183 68 1 84
0.483425 0.306686 0.001508 71 17 99
0.499491 -0.572713 0.113226 68 1 84
0.109567 0.503321 -0.225175 68 1 84
0.145101 -0.238893 -0.193462 31 150 139
-0.491776 0.391869 0.428742 39 125 142
0.575683 0.048903 0.248007 68 2 85
-0.475740 0.389175 0.124455 41 120 142
-0.525711 -0.445656 -0.068721 68 1 84
0.604048 -0.005216 0.384214 68 1 84
0.516488 0.050286 0.018113 36 134 141
0.582084 -0.209298 0.167844 68 1 84
-0.121978 -0.205092 -0.326507 67 60 132
0.403338 0.374068 -0.070310 68 1 84
-0.150017 -0.468949 -0.192640 68 1 84
-0.225422 0.632686 -0.006582 68 1 84
-0.003367 0.261665 -0.273520 68 1 84
-0.634265 -0.243346 0.174394 68 1 84
-0.133897 0.681863 -0.059310 68 1 84
0.220046 -0.260535 -0.173517 30 151 138
0.585355 -0.429350 0.331898 68 1 84
0.313899 -0.572924 -0.195336 68 1 84
-0.338876 -0.180087 -0.162509 44 114 142
-0.661829 -0.455421 0.282432 68 1 84
-0.300848 -0.432356 -0.172194 68 1 84
0.253640 -0.022347 -0.206375 59 81 138
-0.018806 0.322791 -0.277508 68 1 84
-0.062103 0.261427 -0.249623 68 1 84
0.180025 0.366669 -0.214389 68 1 84
-0.222461 -0.531672 -0.231178 68 1 84
0.590110 0.032719 0.306018 68 1 84
0.582185 0.049419 0.275217 68 1 84
-0.071258 0.695370 -0.102222 68 1 84
0.435097 -0.027458 -0.095264 42 176 126
0.071717 0.406094 -0.239295 68 1 84
0.531023 -0.342518 0.085073 68 1 84
0.484811 -0.288149 -0.006061 68 1 84
-0.671041 -0.314141 0.315593 68 1 84
-0.483895 0.051082 -0.041725 121 209 81
0.580543 0.155715 0.292030 70 9 92
0.618593 -0.330028 0.338943 68 1 84
0.578748 -0.327833 0.187956 68 1 84
-0.507790 0.232200 0.082109 36 170 130
-0.111224 -0.362217 -0.232516 68 1 84
-0.461899 0.451585 0.215056 53 92 140
0.182160 0.529499 -0.195072 68 1 84
0.589903 0.057229 0.313546 68 1 84
0.516335 0.271295 0.050908 69 6 90
-0.532661 -0.536660 -0.069635 68 1 84
0.546988 0.199985 0.111753 68 1 84
-0.054689 -0.369100 -0.304290 68 1 84
-0.575897 0.186942 0.389594 46 108 142
0.085528 0.158214 -0.286029 68 1 84
0.169480 -0.549794 -0.217692 68 1 84
0.561441 0.013674 0.142821 72 33 114
0.489943 0.107861 -0.025895 40 122 142
0.560730 -0.382660 0.165427 68 1 84
-0.113291 -0.100738 -0.385350 68 1 84
0.116190 0.253170 -0.246970 68 1 84
0.566158 -0.001316 0.170537 70 47 124
-0.448589 -0.536513 -0.175565 68 1 84
-0.532322 -0.392473 -0.023500 68 1 84
0.563598 0.046182 0.179560 72 25 107
-0.058327 -0.057741 -0.381449 68 1 84
-0.376126 0.426380 -0.035170 68 1 84
-0.516536 0.344989 0.433158 44 113 142
-0.399887 -0.011655 -0.132919 31 148 139
0.510147 -0.544353 0.128612 68 1 84
-0.443014 0.477403 0.357299 32 143 140
0.339547 0.560664 -0.016319 68 1 84
-0.385571 0.535025 0.096910 68 1 84
-0.079315 -0.065302 -0.338512 68 1 84
0.605659 -0.035987 0.380561 68 1 84
0.528998 -0.370882 0.091282 68 1 84
-0.639473 -0.362894 0.213518 68 1 84
-0.446862 -0.522211 -0.174461 68 1 84
0.236102 -0.299751 -0.167554 61 76 137
-0.392695 0.551023 0.174474 68 1 84
-0.541096 0.217087 0.240910 32 144 140
-0.176703 0.661639 -0.031609 68 1 84
0.134405 -0.548490 -0.225236 68 1 84
0.494074 0.143093 -0.017591 52 95 141
-0.556010 0.109814 0.180647 43 177 125
0.210349 0.438144 -0.174422 68 1 84
-0.021013 -0.011907 -0.289228 68 1 84
0.320896 0.347701 -0.134092 68 1 84
-0.635736 -0.457321 0.226239 68 1 84
0.563417 0.165010 0.178923 69 5 88
0.504112 -0.217682 -0.011183 49 102 141
-0.453104 -0.404260 -0.134520 68 1 84
-0.510552 -0.441956 -0.091390 68 1 84
-0.528605 0.132814 0.070280 31 162 134
-0.482511 -0.282350 -0.055464 61 75 137
-0.106667 -0.072115 -0.296780 68 1 84
-0.121964 0.259837 -0.196662 68 1 84
0.544236 -0.502244 0.219229 68 1 84
-0.233582 0.608773 -0.031462 68 1 84
-0.282893 0.254150 -0.166992 68 1 84
0.000271 -0.606483 -0.262972 68 1 84
0.437614 -0.287775 -0.070022 70 48 125
-0.459044 -0.508764 -0.163420 68 1 84
0.621692 -0.598746 0.463311 68 1 84
-0.545830 0.011972 0.038746 77 194 107
-0.459666 0.447320 0.392544 46 109 142
-0.023309 0.044174 -0.282784 68 1 84
0.425341 0.522666 0.108225 68 1 84
0.244971 0.189280 -0.204088 44 113 142
0.524580 -0.326477 0.070725 68 1 84
0.190668 0.077456 -0.224854 134 212 73
-0.423713 -0.451861 -0.186842 68 1 84
-0.113971 -0.398774 -0.201260 68 1 84
0.614977 -0.169549 0.405352 68 1 84
0.343143 -0.531259 -0.176684 68 1 84
-0.164138 0.278410 -0.173563 68 1 84
0.423900 0.467310 0.017663 68 1 84
-0.507080 0.190087 0.049431 43 177 125
0.555656 0.277798 0.196683 69 5 88
-0.267954 0.571729 -0.031189 68 1 84
0.116036 0.197396 -0.235314 68 1 84
-0.419547 0.293487 -0.051533 65 66 134
0.055872 -0.214579 -0.335448 55 88 140
-0.563732 0.190266 0.541417 38 128 142
0.553071 0.199886 0.133421 68 1 84
0.430425 -0.024161 -0.100265 167 219 51
-0.745074 -0.276296 0.512842 68 1 84
0.187354 0.301124 -0.219638 68 1 84
0.586001 -0.513725 0.315921 68 1 84
0.464201 -0.259803 -0.052737 51 97 141
0.118384 0.334112 -0.259355 68 1 84
0.592161 0.113676 0.398715 68 1 84
-0.477218 0.185265 -0.012302 59 186 117
0.526747 0.376853 0.200903 68 1 84
-0.055763 0.023507 -0.280573 68 1 84
-0.510442 -0.338179 -0.015701 70 11 94
0.580897 0.188163 0.332965 68 1 84
-0.432554 0.001134 -0.106141 34 167 132
-0.567927 0.197084 0.510262 48 104 141
-0.400861 0.055290 -0.130444 37 130 142
-0.026220 -0.165761 -0.433575 68 1 84
0.132287 0.433866 -0.219277 68 1 84
0.304326 0.071125 -0.193190 68 190 112
-0.468308 0.272702 0.009554 48 103 141
-0.144751 0.236666 -0.192244 68 1 84
-0.723444 -0.380342 0.538211 68 1 84
0.550282 -0.308558 0.109551 68 1 84
-0.424640 -0.099820 -0.124362 42 118 142
0.600978 0.049933 0.416107 68 1 84
-0.065673 0.217167 -0.245467 68 1 84
0.142153 0.652506 -0.151449 68 1 84
-0.640103 -0.241105 0.191900 68 1 84
-0.287753 -0.575725 -0.253140 68 1 84
0.524770 0.351091 0.411577 68 1 84
0.442118 -0.222916 -0.089794 36 134 141
-0.447057 -0.542181 -0.177435 68 1 84
0.112302 -0.059545 -0.270227 71 39 119
-0.650066 -0.082390 0.363951 68 1 84
-0.028477 0.335197 -0.271654 68 1 84
-0.516819 0.342538 0.367544 38 127 142
0.227413 0.534200 -0.161089 68 1 84
0.430803 -0.455171 -0.059698 68 1 84
0.520917 0.199596 0.041698 71 42 121
-0.327650 0.535065 -0.000806 68 1 84
0.181010 -0.446474 -0.149738 68 1 84
0.595544 -0.193049 0.502100 68 1 84
0.207261 -0.348041 -0.159439 68 1 84
-0.570271 0.183566 0.518414 52 94 141
0.315755 0.568672 -0.046101 68 1 84
-0.167097 0.670969 -0.023355 68 1 84
-0.432667 0.447178 0.072132 60 78 138
-0.421537 -0.532743 -0.192005 68 1 84
-0.209351 0.652637 0.014566 68 1 84
-0.498269 0.048912 -0.022615 81 196 104
-0.166694 -0.061083 -0.291308 68 1 84
0.474784 0.329746 -0.001882 71 22 105
-0.290171 -0.370774 -0.158953 68 1 84
-0.098931 0.679839 -0.113345 68 1 84
-0.442543 -0.296535 -0.100734 66 61 132
0.050991 0.701795 -0.116303 68 1 84
-0.074940 -0.258248 -0.360419 68 1 84
-0.607280 -0.324178 0.114523 68 1 84
0.412900 0.529701 0.088905 68 1 84
0.590321 -0.430483 0.349257 68 1 84
0.592584 -0.057895 0.278586 68 1 84
-0.008416 -0.538052 -0.255329 68 1 84
0.184536 0.515086 -0.193738 68 1 84
0.592956 -0.185462 0.221598 68 1 84
0.496877 -0.302488 0.021015 71 38 118
-0.052220 0.287749 -0.270517 68 1 84
0.398038 -0.440321 -0.068196 68 1 84
-0.488806 -0.187041 -0.078581 53 93 140
-0.323690 0.449963 -0.069225 68 1 84
0.557277 0.291563 0.344163 68 1 84
0.293986 0.264513 -0.167994 62 73 137
0.007214 -0.056066 -0.313074 68 1 84
-0.352895 0.592843 0.185413 68 1 84
0.040157 0.290561 -0.286689 68 1 84
-0.366903 0.076575 -0.156492 33 142 140
-0.678460 -0.225982 0.330826 68 1 84
-0.292875 0.627552 0.115624 68 1 84
-0.027369 -0.147407 -0.438895 68 1 84
0.428764 0.522444 0.120450 68 1 84
0.460307 -0.165824 -0.075032 129 211 76
0.509958 -0.099424 -0.006702 33 140 141
0.420557 -0.224768 -0.107966 30 160 135
-0.490302 -0.490909 -0.130661 68 1 84
-0.671358 -0.189217 0.395876 68 1 84
-0.653356 -0.259220 0.235244 68 1 84
-0.667679 -0.339642 0.291853 68 1 84
0.618890 -0.326844 0.371042 68 1 84
-0.363146 -0.433626 -0.190849 68 1 84
-0.666551 -0.144915 0.499282 68 1 84
-0.549830 0.219799 0.291291 34 138 141
-0.455810 0.349311 0.031881 38 127 142
0.042551 -0.449592 -0.189244 68 1 84
0.516158 -0.266369 0.032440 68 1 84
0.519638 -0.535595 0.154505 68 1 84
0.450494 0.460259 0.057556 68 1 84
-0.562121 0.163418 0.291440 35 135 141
0.595871 -0.277071 0.244506 68 1 84
-0.564050 0.173156 0.309203 39 124 142
-0.034809 -0.033080 -0.314305 68 1 84
0.615163 -0.369651 0.370634 68 1 84
0.081051 0.162854 -0.286800 68 1 84
-0.114863 0.687054 -0.077324 68 1 84
-0.600568 -0.202638 0.096725 69 6 90
0.572909 -0.305262 0.162193 68 1 84
0.251429 -0.169494 -0.179660 30 159 136
-0.340975 -0.120008 -0.161560 38 128 142
0.114352 0.461779 -0.222914 68 1 84
-0.475868 0.336592 0.066842 33 140 141
0.124038 0.621524 -0.187722 68 1 84
0.613582 -0.248754 0.448435 68 1 84
-0.580709 -0.323177 0.068505 72 33 114
-0.594671 0.018593 0.252344 43 116 142
-0.296037 -0.230484 -0.174264 45 111 142
0.546747 -0.465208 0.187405 68 1 84
-0.282441 0.630183 0.098494 68 1 84
0.005825 -0.051369 -0.352196 68 1 84
0.012784 0.145464 -0.305571 68 1 84
0.505715 -0.283382 0.023978 68 1 84
0.447173 -0.547285 -0.060815 68 1 84
-0.628970 -0.509794 0.200539 68 1 84
0.520689 0.349275 0.114909 68 1 84
-0.092054 0.452192 -0.201043 68 1 84
0.181828 -0.216894 -0.187201 31 147 139
-0.635023 -0.021470 0.381817 68 1 84
0.461216 -0.575359 -0.021835 68 1 84
-0.651901 -0.063614 0.448339 68 1 84
0.627299 -0.476972 0.440931 68 1 84
0.467729 -0.559247 -0.009844 68 1 84
-0.192064 -0.374765 -0.142328 57 85 139
-0.411523 0.033084 -0.122188 31 148 139
-0.368621 -0.406084 -0.154489 68 1 84
-0.019663 -0.226721 -0.397404 61 76 137
-0.658507 -0.325459 0.259493 68 1 84
-0.185628 -0.507585 -0.213374 68 1 84
-0.636871 -0.187677 0.193845 68 3 87
0.118139 0.386435 -0.240873 68 1 84
-0.106092 0.038006 -0.251306 68 1 84
-0.614674 -0.210248 0.126160 68 1 84
-0.188044 -0.213197 -0.204169 55 89 140
0.605630 -0.229900 0.537676 68 1 84
0.158653 -0.632229 -0.258337 68 1 84
-0.291601 -0.438029 -0.179149 68 1 84
-0.268347 0.259336 -0.171443 68 1 84
-0.166686 -0.039879 -0.237699 31 149 139
0.457803 -0.442026 -0.010190 68 1 84
0.204302 0.181584 -0.216523 36 134 141
-0.433172 0.449673 0.076276 62 72 136
0.033379 0.071841 -0.294097 68 1 84
0.206023 0.205426 -0.200046 34 137 141
-0.557654 -0.058955 0.024552 91 200 98
-0.097746 -0.169341 -0.401316 68 1 84
-0.119803 0.504603 -0.179657 68 1 84
0.475110 -0.551497 0.014007 68 1 84
0.351023 -0.590018 -0.176599 68 1 84
-0.162473 0.526369 -0.145805 68 1 84
0.548621 0.258293 0.475430 68 1 84
0.093841 -0.072939 -0.272568 64 68 135
0.546733 0.109813 0.090894 44 113 142
-0.454746 0.465980 0.269049 44 114 142
-0.151551 0.604196 -0.132206 68 1 84
-0.078069 0.229524 -0.226925 68 1 84
-0.536225 0.292645 0.349750 38 128 142
0.078237 -0.347885 -0.172228 61 74 137
0.066137 -0.486493 -0.193116 68 1 84
0.341612 0.587301 0.057847 68 1 84
0.495907 -0.173731 -0.032608 71 192 110
0.242820 -0.339993 -0.158474 70 9 92
0.086668 0.099003 -0.281791 68 1 84
0.586088 -0.294296 0.198828 68 1 84
-0.643424 -0.263408 0.202483 68 1 84
-0.051094 -0.046157 -0.305870 68 1 84
0.596049 -0.547920 0.342449 68 1 84
0.607006 -0.237562 0.524071 68 1 84
-0.341190 -0.358507 -0.157598 62 72 136
-0.322664 0.247481 -0.148000 71 39 119
-0.167388 0.659947 -0.054101 68 1 84
0.533683 0.245216 0.084879 68 1 84
-0.186681 -0.329836 -0.161084 59 80 138
0.165478 0.370052 -0.222902 68 1 84
0.579897 0.126883 0.276043 68 1 84
0.502564 0.087248 -0.006315 35 136 141
0.192801 -0.184586 -0.190970 44 177 125
0.306799 0.176234 -0.180392 39 126 142
0.070384 -0.174222 -0.361997 53 92 140
-0.035601 -0.123252 -0.441510 68 1 84
0.426368 -0.598345 -0.092019 68 1 84
0.349896 0.286223 -0.139187 71 20 102
0.082110 0.082679 -0.280238 68 1 84
0.131126 -0.084796 -0.289260 34 137 141
0.544864 0.329853 0.324711 68 1 84
-0.005867 -0.594159 -0.265487 68 1 84
0.079125 0.438570 -0.230677 68 1 84
-0.459300 -0.386418 -0.097257 68 1 84
-0.443645 -0.468543 -0.173124 68 1 84
-0.425314 -0.200695 -0.124880 65 66 134
-0.233182 0.379494 -0.143608 68 1 84
-0.102570 -0.146151 -0.405617 68 1 84
-0.564947 0.210745 0.502639 36 133 141
-0.474348 0.353636 0.077134 46 108 142
-0.594123 0.045179 0.295194 49 101 141
-0.483087 0.408447 0.219028 35 135 141
-0.158452 -0.277696 -0.204655 69 50 127
0.387425 0.478317 -0.022253 68 1 84
0.610952 -0.062063 0.471992 68 1 84
0.373683 -0.400910 -0.076250 71 15 98
0.608652 -0.176370 0.309995 68 1 84
-0.024573 -0.068901 -0.407812 68 1 84
0.568202 0.246745 0.361952 68 1 84
-0.432387 0.499175 0.207255 47 105 141
-0.282576 0.593953 0.012465 68 1 84
-0.481614 0.409161 0.419642 48 104 141
0.570160 0.004260 0.202184 68 1 84
0.056643 0.640703 -0.187545 68 1 84
-0.554434 -0.488350 -0.017083 68 1 84
-0.398045 0.427254 -0.005470 70 12 95
-0.291864 0.626678 0.102480 68 1 84
-0.266680 0.169489 -0.192554 68 1 84
-0.295439 0.275681 -0.155212 68 1 84
0.300040 -0.524641 -0.195553 68 1 84
0.305107 0.107142 -0.189917 34 167 132
0.442214 -0.481254 -0.056098 68 1 84
-0.060476 0.641657 -0.179591 68 1 84
-0.366533 -0.038097 -0.153719 37 131 141
0.456499 0.367314 -0.010629 68 1 84
-0.668214 -0.292533 0.302127 68 1 84
0.555078 0.302934 0.298730 68 1 84
0.350404 -0.012227 -0.165585 112 206 86
0.624873 -0.380372 0.471727 68 1 84
0.419119 0.218202 -0.103991 49 100 141
-0.444672 -0.183886 -0.115222 51 96 141
0.619271 -0.326697 0.408735 68 1 84
-0.437257 -0.396778 -0.123274 68 1 84
-0.493538 -0.159088 -0.077172 59 81 138
0.055181 0.580056 -0.219897 68 1 84
0.486458 0.123475 -0.030409 47 105 141
-0.307324 -0.440098 -0.189302 68 1 84
0.207548 -0.246104 -0.176428 38 129 142
-0.004225 0.588657 -0.218617 68 1 84
0.527469 -0.176086 0.020007 71 43 122
0.033707 0.569269 -0.223893 68 1 84
-0.441703 0.259379 -0.037535 35 136 141
0.257335 -0.181822 -0.176822 146 215 65
0.610468 -0.086762 0.380387 68 1 84
-0.635151 -0.333717 0.187234 68 1 84
0.597316 0.045817 0.366147 68 1 84
0.532299 0.102331 0.051734 56 87 140
0.536932 -0.566718 0.226476 68 1 84
0.084716 -0.202841 -0.256946 39 126 142
-0.347013 -0.266898 -0.156991 68 1 84
-0.199020 -0.231804 -0.191864 56 86 139
0.595777 -0.272890 0.243598 68 1 84
-0.355411 -0.523805 -0.214294 68 1 84
0.476268 -0.351751 0.016489 68 1 84
0.532373 0.325492 0.432861 68 1 84
-0.702521 -0.472871 0.421755 68 1 84
0.049573 0.695705 -0.130181 68 1 84
0.461469 0.047791 -0.066627 35 168 131
0.043481 -0.099911 -0.385777 68 1 84
-0.558902 -0.074031 0.021829 38 172 129
-0.542384 -0.523776 -0.051845 68 1 84
0.529528 0.353379 0.372770 68 1 84
0.443965 0.447995 0.030929 68 1 84
-0.123922 0.617350 -0.152770 68 1 84
0.242544 0.158900 -0.209696 58 83 139
0.010306 0.098697 -0.293104 68 1 84
0.121075 0.606500 -0.198410 68 1 84
0.619232 -0.320247 0.401603 68 1 84
0.365176 0.563731 0.047060 68 1 84
-0.021420 0.592074 -0.215636 68 1 84
-0.251807 0.222294 -0.189263 68 1 84
-0.197858 -0.019547 -0.203202 89 199 100
-0.017706 0.703768 -0.108443 68 1 84
0.041002 -0.318809 -0.269471 69 50 127
0.592532 -0.128465 0.237721 68 1 84
-0.559478 -0.394481 0.026045 68 1 84
0.555196 0.245876 0.161214 68 1 84
-0.149647 -0.125695 -0.243327 36 134 141
-0.351620 -0.249602 -0.156610 63 69 135
0.404429 0.506710 0.030730 68 1 84
0.407786 -0.468512 -0.102912 68 1 84
0.083166 0.694098 -0.118853 68 1 84
0.029033 -0.058215 -0.272750 70 47 124
0.140170 0.665068 -0.137362 68 1 84
0.534563 0.347217 0.356542 68 1 84
-0.264782 -0.333165 -0.164320 70 12 95
-0.092251 -0.069871 -0.342359 68 1 84
-0.153344 -0.291504 -0.200939 65 65 134
0.562227 0.264992 0.381258 68 1 84
0.384253 -0.466636 -0.126403 68 1 84
0.554467 0.072125 0.116647 54 91 140
0.050057 0.469381 -0.231080 68 1 84
-0.481148 0.404135 0.446471 32 165 133
0.248227 0.137844 -0.208087 72 32 113
0.290986 0.463594 -0.119042 68 1 84
-0.599798 0.006152 0.255731 40 123 142
0.174591 0.381345 -0.213725 68 1 84
0.614785 -0.201940 0.403559 68 1 84
0.591079 0.033928 0.515513 68 1 84
0.014717 0.474553 -0.229279 68 1 84
-0.579512 0.167895 0.379318 46 107 142
0.082766 -0.107676 -0.352269 72 25 107
-0.130518 0.506112 -0.172590 68 1 84
-0.081454 0.396362 -0.228402 68 1 84
-0.387936 -0.579683 -0.212484 68 1 84
0.239110 0.322314 -0.181334 68 1 84
0.448337 0.151518 -0.082582 46 109 142
-0.305072 0.545504 -0.016271 68 1 84
0.342676 -0.446948 -0.104056 71 21 103
-0.624125 -0.139729 0.174526 61 74 137
-0.532099 0.295577 0.316055 30 155 137
0.562474 -0.201421 0.106306 68 1 84
-0.466645 -0.410188 -0.132299 68 1 84
-0.602157 -0.026077 0.204874 46 107 142
-0.300159 -0.117796 -0.175964 32 165 133
0.491924 0.172166 -0.018186 45 110 142
-0.148230 0.241503 -0.185313 68 1 84
-0.535939 0.279009 0.304688 30 152 138
-0.677938 -0.269351 0.366652 68 1 84
-0.527938 0.300477 0.287200 37 131 141
-0.533993 -0.370702 -0.005377 68 1 84
0.226808 -0.367742 -0.155061 69 8 91
0.299808 0.048991 -0.196401 54 184 119
0.401577 -0.381257 -0.055474 68 1 84
-0.548103 -0.387393 0.009223 68 1 84
-0.630240 -0.336984 0.172837 68 1 84
-0.624843 -0.184378 0.156465 71 38 118
0.618866 -0.268683 0.335158 68 1 84
-0.521264 -0.466906 -0.083693 68 1 84
-0.026859 -0.036133 -0.333490 68 1 84
0.133014 -0.170135 -0.214543 32 165 133
-0.177252 0.417626 -0.168048 68 1 84
-0.080638 -0.038822 -0.267306 72 26 108
-0.678585 -0.226069 0.460630 68 1 84
0.601646 -0.128817 0.290086 68 1 84
-0.343116 -0.404528 -0.158332 68 1 84
-0.191497 -0.216578 -0.200798 55 89 140
-0.322531 -0.099966 -0.169469 37 171 129
-0.177936 0.580613 -0.115738 68 1 84
-0.369677 -0.437694 -0.206585 68 1 84
0.280200 0.436487 -0.131860 68 1 84
-0.698053 -0.451217 0.401504 68 1 84
0.378018 0.568229 0.106490 68 1 84
-0.666705 -0.144736 0.542472 68 1 84
0.591657 0.107750 0.440457 68 1 84
-0.016777 -0.150696 -0.437579 68 1 84
-0.641819 -0.102278 0.292156 68 1 84
-0.037520 -0.288522 -0.357350 68 1 84
-0.444842 -0.421438 -0.159777 68 1 84
0.609421 -0.256493 0.519374 68 1 84
-0.177973 0.092838 -0.225842 68 1 84
0.005928 0.196371 -0.290785 68 1 84
0.002121 -0.348431 -0.305280 68 1 84
-0.362797 -0.316376 -0.151399 65 66 134
0.300778 -0.592662 -0.203979 68 1 84
-0.715625 -0.377256 0.479953 68 1 84
-0.676134 -0.439914 0.310506 68 1 84
-0.119457 -0.198958 -0.343537 70 12 95
0.192456 0.647639 -0.123497 68 1 84
0.471609 -0.355957 0.013534 68 1 84
-0.437659 0.493866 0.247360 44 114 142
-0.293203 0.087009 -0.195784 64 68 135
-0.225825 0.646202 0.030899 68 1 84
0.564454 -0.015433 0.146060 72 34 115
0.597255 -0.039537 0.315251 68 1 84
-0.005910 0.615615 -0.208199 68 1 84
0.420444 0.069424 -0.115590 64 189 114
0.440784 0.301687 -0.058355 72 26 108
-0.690824 -0.461776 0.348101 68 1 84
0.333637 0.117436 -0.177213 39 126 142
-0.480100 -0.338265 -0.046927 68 1 84
0.238630 -0.147290 -0.187867 30 152 138
-0.139387 -0.531958 -0.238527 68 1 84
-0.257124 -0.142790 -0.186807 70 48 125
-0.146842 -0.377639 -0.153163 71 39 119
0.422977 0.404478 -0.032531 68 1 84
-0.697067 -0.471451 0.411040 68 1 84
-0.020499 0.236241 -0.257267 68 1 84
0.354923 0.390982 -0.099487 68 1 84
0.158164 0.498252 -0.207761 68 1 84
0.301420 -0.023828 -0.190507 44 177 125
-0.160633 -0.101141 -0.238121 42 118 142
-0.624136 -0.107796 0.205043 44 113 142
-0.188377 0.376700 -0.169744 68 1 84
-0.502611 -0.333847 -0.022520 68 1 84
-0.379007 0.277695 -0.098887 44 112 142
0.519210 0.368851 0.391280 68 1 84
0.009648 -0.016739 -0.285127 68 1 84
-0.070153 -0.268273 -0.358403 68 1 84
0.390645 -0.202126 -0.131420 31 146 140
-0.223218 0.206758 -0.203462 68 1 84
-0.340500 -0.442761 -0.213568 68 1 84
0.092654 -0.498549 -0.190984 68 1 84
-0.659359 -0.137571 0.427596 68 1 84
0.435331 -0.076959 -0.092705 87 198 101
-0.487206 0.053286 -0.036620 75 194 108
-0.295948 0.466383 -0.079001 68 1 84
-0.291478 -0.251333 -0.174141 54 90 140
0.280621 -0.579997 -0.207579 68 1 84
0.571973 0.230500 0.292647 68 1 84
0.592388 0.108396 0.431801 68 1 84
0.388318 -0.209072 -0.131950 33 141 140
0.054158 0.109942 -0.299652 68 1 84
0.369328 0.201844 -0.144505 44 112 142
0.010961 0.456856 -0.228967 68 1 84
0.064924 0.227421 -0.251631 68 1 84
0.575771 -0.258206 0.155359 68 1 84
-0.271927 -0.460703 -0.211462 68 1 84
-0.562255 0.236583 0.403803 46 107 142
-0.301985 -0.262205 -0.170597 70 45 124
-0.627603 -0.162422 0.173696 66 64 133
-0.091534 -0.305007 -0.318864 68 1 84
-0.582692 -0.105996 0.064266 35 137 141
-0.670009 -0.173138 0.358197 68 1 84
-0.668507 -0.169918 0.329247 68 1 84
0.266767 -0.192496 -0.173860 51 182 121
0.088207 -0.476912 -0.173976 68 1 84
0.011430 -0.275835 -0.343236 66 61 132
0.171814 0.578843 -0.188624 68 1 84
-0.140532 0.263892 -0.183172 71 18 101
0.592665 -0.230292 0.218131 68 1 84
0.456856 -0.146437 -0.077131 48 180 122
0.622009 -0.354428 0.460121 68 1 84
0.020406 0.654009 -0.181235 68 1 84
0.018579 -0.402485 -0.236115 68 1 84
-0.635931 -0.315179 0.184454 68 1 84
-0.201021 -0.525365 -0.227204 68 1 84
0.584783 0.161512 0.377795 68 1 84
-0.594578 0.129442 0.478757 68 1 84
0.146070 -0.304037 -0.172583 60 78 138
0.156493 -0.110092 -0.207707 131 211 75
-0.302952 0.479098 -0.066697 68 1 84
-0.448456 0.456468 0.137489 56 86 139
0.029299 -0.171644 -0.412408 58 83 139
-0.593746 0.134281 0.415512 61 76 137
0.087869 -0.167345 -0.310500 57 84 139
-0.693600 -0.472227 0.365353 68 1 84
-0.350128 0.222465 -0.140569 71 42 121
-0.678734 -0.224024 0.472794 68 1 84
-0.039253 0.434503 -0.223316 68 1 84
0.043150 0.454471 -0.231378 68 1 84
-0.414945 -0.091611 -0.128462 57 185 118
-0.122026 0.342491 -0.226632 68 1 84
-0.350659 0.000409 -0.167389 63 71 136
0.487224 -0.134482 -0.043304 62 188 115
0.612262 -0.279075 0.529449 68 1 84
0.556909 0.290748 0.242076 68 1 84
0.549370 -0.395281 0.142731 68 1 84
0.342958 -0.190392 -0.153755 121 209 81
0.579249 0.064602 0.264922 68 1 84
-0.546272 0.082562 0.084295 36 133 141
0.486083 -0.417191 0.037681 68 1 84
-0.615680 0.053591 0.399139 69 8 91
-0.511038 0.250030 0.109134 31 162 134
-0.074704 -0.184059 -0.410634 68 1 84
0.127688 -0.296288 -0.178095 51 96 141
-0.248160 -0.270890 -0.175451 56 86 139
-0.455537 0.456362 0.177310 44 112 142
-0.336607 -0.275381 -0.159709 68 1 84
0.486684 0.455072 0.211705 68 1 84
-0.304002 -0.064862 -0.182279 35 136 141
-0.703133 -0.408593 0.420671 68 1 84
-0.616321 -0.521652 0.165513 68 1 84
0.214571 0.626746 -0.131057 68 1 84
-0.107856 0.590121 -0.178382 68 1 84
0.617996 -0.311472 0.507952 68 1 84
-0.468356 0.350723 0.059314 30 152 138
0.613185 -0.189355 0.441735 68 1 84
0.601633 -0.593281 0.375470 68 1 84
-0.166131 0.198814 -0.224693 68 1 84
0.122401 0.651944 -0.162408 68 1 84
0.059015 0.569337 -0.222694 68 1 84
0.128975 -0.116152 -0.294734 52 94 141
0.620712 -0.336560 0.482069 68 1 84
0.222766 0.647456 -0.086514 68 1 84
0.553737 0.269090 0.171306 68 3 87
-0.423139 -0.387352 -0.108018 71 44 123
-0.617325 0.060002 0.473511 69 8 91
0.393239 -0.065895 -0.129388 100 203 93
-0.352020 0.527600 0.023021 68 1 84
0.548605 0.322912 0.252873 68 1 84
-0.566698 0.077772 0.197287 30 160 135
0.240073 0.072315 -0.208543 40 123 142
-0.604448 -0.115846 0.118678 30 155 137
0.583757 -0.372621 0.237810 68 1 84
-0.547579 -0.396255 0.004223 68 1 84
0.144971 0.629527 -0.172168 68 1 84
-0.133210 -0.193254 -0.277873 71 39 119
0.347037 -0.244206 -0.146711 34 167 132
-0.183352 0.355145 -0.174997 68 1 84
-0.036136 0.301224 -0.278997 68 1 84
-0.471103 -0.369278 -0.072256 70 9 92
-0.061873 -0.275653 -0.358448 68 1 84
-0.567413 0.205678 0.499348 41 120 142
0.021576 -0.113270 -0.418443 66 64 133
0.362974 -0.485089 -0.158381 68 1 84
0.316253 -0.330901 -0.140314 39 126 142
0.322670 -0.406499 -0.125216 72 32 113
-0.520398 -0.064647 -0.033060 68 190 112
-0.140962 0.235684 -0.194786 68 1 84
-0.418882 0.517346 0.295008 34 138 141
-0.354762 -0.114952 -0.157200 39 124 142
-0.499975 -0.040020 -0.049170 50 98 141
-0.125472 -0.474115 -0.212615 68 1 84
0.024854 0.400570 -0.240695 68 1 84
0.058672 -0.206559 -0.342303 39 126 142
-0.616322 -0.068641 0.216187 47 105 141
-0.120459 -0.378267 -0.190544 68 1 84
0.157902 -0.360796 -0.155523 70 9 92
0.544875 -0.142988 0.054911 71 44 123
-0.150613 0.678637 -0.026496 68 1 84
-0.661129 -0.266914 0.260885 68 1 84
-0.366424 0.542064 0.067474 68 1 84
-0.043174 0.159191 -0.301797 68 1 84
0.333101 0.580745 0.006045 68 1 84
0.029371 -0.438153 -0.207387 68 1 84
-0.446801 0.339488 0.010030 36 134 141
-0.418464 0.280989 -0.057860 62 73 137
-0.347405 0.117306 -0.167437 55 88 140
-0.728684 -0.255643 0.489712 68 1 84
0.604952 -0.015905 0.466798 68 1 84
-0.556208 -0.376394 0.027128 68 1 84
0.538983 0.326329 0.389673 68 1 84
0.619854 -0.332617 0.456703 68 1 84
0.584114 -0.297483 0.192457 68 1 84
0.368780 -0.641553 -0.149587 68 1 84
-0.641185 -0.110425 0.272957 68 1 84
0.217322 0.631033 -0.123348 68 1 84
0.345524 0.379928 -0.110365 68 1 84
-0.113171 -0.191151 -0.366839 68 1 84
-0.142147 -0.084939 -0.340672 68 1 84
0.202103 0.565112 -0.175740 68 1 84
0.080752 -0.092767 -0.310812 68 1 84
0.568992 0.069971 0.214540 68 1 84
-0.343159 0.147164 -0.164879 56 86 139
0.254834 -0.343588 -0.155630 67 60 132
0.253102 0.624161 -0.086222 68 1 84
0.609851 -0.257153 0.499597 68 1 84
-0.625802 -0.164562 0.166431 62 72 136
0.281402 0.192265 -0.190582 57 85 139
-0.180312 0.299531 -0.171523 68 1 84
0.357955 -0.026630 -0.159019 96 201 96
-0.742652 -0.270291 0.513996 68 1 84
0.475306 -0.334799 0.008627 68 1 84
0.535276 0.264340 0.096692 68 1 84
0.567003 -0.416348 0.214129 68 1 84
-0.157355 -0.288258 -0.197384 54 91 140
-0.587166 0.157631 0.476875 67 60 132
0.587198 -0.098415 0.219272 68 1 84
0.093146 -0.023735 -0.246131 55 89 140
-0.612332 0.037229 0.358422 71 39 119
-0.629442 -0.029898 0.343886 68 1 84
0.096687 0.041445 -0.255769 68 1 84
0.291818 -0.083277 -0.184673 215 226 25
-0.441580 -0.021620 -0.100701 48 180 122
0.037375 0.621432 -0.204480 68 1 84
-0.641605 -0.430193 0.241856 68 1 84
-0.654771 -0.106050 0.363687 68 1 84
0.500757 0.432187 0.232724 68 1 84
0.135986 -0.081133 -0.277672 38 128 142
0.258927 0.636775 -0.028469 68 1 84
0.107484 0.229061 -0.229619 68 1 84
0.467128 0.296260 -0.027320 68 1 84
0.390307 0.531049 0.039235 68 1 84
0.512017 -0.332165 0.052933 68 1 84
-0.498366 0.092846 -0.007675 30 153 138
0.110396 -0.579744 -0.250655 68 1 84
0.524206 0.385668 0.232587 68 1 84
-0.648910 -0.244471 0.221826 68 1 84
-0.189772 0.537392 -0.121104 68 1 84
