ply
format ascii 1.0
element vertex 1252
property float x
property float y
property float z
property uchar red
property uchar green
property uchar blue
end_header
0.390094 0.374757 -0.013055 68 1 84
0.377991 -0.494001 -0.225708 68 1 84
0.498496 0.288455 0.191215 68 1 84
-0.443569 -0.485277 -0.200901 69 54 129
0.083878 0.506353 -0.218344 68 1 84
-0.478454 0.316435 0.022746 69 6 90
-0.222657 0.276223 -0.143173 68 1 84
0.156451 -0.513229 -0.306221 68 1 84
0.241814 -0.436388 -0.247097 68 1 84
-0.687296 -0.556486 0.296491 73 193 109
-0.291361 -0.525098 -0.306882 68 1 84
-0.478953 0.408992 0.137329 68 1 84
-0.333403 -0.373289 -0.269003 68 1 84
-0.650715 -0.438068 0.192876 34 138 141
-0.458155 0.012141 -0.158252 67 59 131
0.628448 -0.373781 0.370438 139 213 70
-0.585485 -0.465173 0.039792 60 77 138
0.304672 0.002401 -0.221995 62 72 136
-0.170415 -0.002501 -0.237661 46 108 142
-0.644266 -0.093844 0.268850 32 143 140
0.619701 -0.132553 0.470355 39 173 128
-0.677720 -0.447187 0.270850 42 176 126
0.548248 0.033232 0.039946 33 140 141
-0.634321 -0.001067 0.400467 45 111 142
0.614174 -0.477947 0.378187 186 222 39
-0.553240 -0.128676 -0.046820 63 71 136
0.614269 -0.511373 0.424571 241 229 28
-0.594305 0.194647 0.246855 69 50 127
-0.580102 -0.026645 0.032012 70 45 124
0.010399 0.405955 -0.214549 71 22 105
-0.348236 0.504016 0.021969 68 1 84
-0.331184 0.370093 -0.095445 68 1 84
-0.470256 0.020832 -0.143303 51 96 141
0.549109 0.132820 0.175506 69 50 127
-0.610424 0.044240 0.222137 61 76 137
0.582414 -0.233429 0.064706 30 154 137
-0.629499 0.026964 0.400026 34 138 141
0.109892 0.063431 -0.263016 66 62 133
-0.569948 0.324720 0.338280 68 1 84
-0.529734 0.144544 0.021610 30 152 138
0.044862 -0.152569 -0.391113 103 204 92
-0.290588 0.056891 -0.245824 87 198 101
-0.668856 -0.275196 0.213428 32 165 133
-0.277292 -0.355502 -0.249616 68 1 84
0.358143 0.535035 0.141821 68 1 84
-0.540956 -0.115202 -0.068997 66 62 133
-0.695036 -0.533732 0.324893 81 196 104
0.059509 -0.353447 -0.267287 68 1 84
0.477872 0.289445 0.068939 68 1 84
0.606203 -0.202123 0.112757 37 171 129
-0.586198 -0.170668 0.015299 46 109 142
0.093246 0.030212 -0.287067 60 77 138
-0.623038 -0.104687 0.135857 45 110 142
-0.269677 0.332196 -0.128501 68 1 84
0.209556 -0.388310 -0.234083 68 1 84
-0.660522 -0.160228 0.281127 30 160 135
-0.289815 0.308558 -0.142031 68 1 84
0.628298 -0.160931 0.422565 89 199 100
0.374225 0.174974 -0.153354 68 1 84
0.622677 -0.236121 0.510723 40 122 142
0.106711 0.167610 -0.280753 30 155 137
0.547578 -0.137048 -0.021458 31 150 139
-0.010072 0.391317 -0.212138 68 1 84
0.527850 0.198691 0.432649 70 47 124
0.632324 -0.310916 0.405004 205 224 29
0.021682 -0.132837 -0.409459 38 172 129
-0.302614 0.542836 0.026730 68 1 84
-0.294609 -0.096581 -0.232501 38 128 142
-0.549661 0.016721 -0.020273 46 107 142
0.614509 -0.511361 0.469367 165 218 53
0.513710 0.262158 0.255502 68 1 84
-0.705204 -0.578464 0.392260 39 173 128
-0.467876 0.080463 -0.127488 67 60 132
-0.396791 0.168019 -0.158845 71 18 101
0.587213 -0.038594 0.169482 46 107 142
-0.657239 -0.126048 0.372569 30 158 136
-0.046502 -0.140191 -0.340234 56 87 140
0.613291 -0.169627 0.147295 79 195 105
-0.650186 -0.101752 0.314264 33 140 141
-0.635737 -0.082541 0.226393 43 115 142
0.567542 -0.059165 0.034681 31 147 139
0.560312 0.145749 0.300931 68 1 84
-0.108577 -0.291775 -0.189038 68 1 84
0.094215 -0.198738 -0.306150 50 98 141
0.566586 0.059739 0.498672 49 100 141
0.637788 -0.198463 0.328487 68 190 112
0.504074 -0.504508 -0.056906 54 90 140
-0.460950 0.470241 0.197136 68 1 84
-0.187186 0.154346 -0.224469 44 114 142
0.615167 -0.487810 0.416161 246 230 31
-0.585602 0.108852 0.164342 30 153 138
-0.552701 0.311253 0.205203 71 17 99
0.057158 0.373780 -0.209019 68 1 84
-0.624610 0.047664 0.323500 46 109 142
0.422792 0.406399 0.074040 68 1 84
-0.233564 0.586676 0.038261 68 1 84
-0.449976 -0.045101 -0.171547 50 99 141
-0.648681 -0.373887 0.167331 30 151 138
0.429531 0.379626 0.056744 68 1 84
-0.527476 0.228117 0.071926 71 17 99
0.506305 0.254157 0.443252 68 1 84
0.549224 -0.376628 0.041363 40 122 142
0.164067 0.279592 -0.210432 71 15 98
-0.541427 -0.464480 -0.047509 56 86 139
0.594023 -0.353421 0.104772 31 161 135
-0.265917 0.187155 -0.202173 53 92 140
-0.634266 -0.024745 0.303538 44 112 142
0.454330 -0.256051 -0.073634 40 123 142
0.284307 0.126899 -0.199436 69 53 128
0.481459 0.016984 -0.102090 62 73 137
-0.623349 0.034990 0.443746 53 93 140
-0.098843 -0.202433 -0.237416 70 9 92
0.294574 -0.101110 -0.211010 64 68 135
-0.164349 -0.425604 -0.265803 68 1 84
0.609433 -0.518107 0.326309 173 220 48
-0.455881 -0.420924 -0.187471 71 44 123
-0.672245 -0.224239 0.410067 75 194 108
-0.405291 -0.342285 -0.191807 70 11 94
-0.634935 -0.544197 0.150037 30 154 137
-0.035619 -0.302912 -0.263807 68 1 84
0.482366 0.186047 -0.011439 68 1 84
0.336560 -0.012509 -0.213513 69 54 129
0.375294 0.205919 -0.136252 68 1 84
-0.551839 -0.443340 -0.026784 69 54 129
-0.682376 -0.322586 0.287199 59 186 117
0.019738 0.214463 -0.265238 58 83 139
-0.058297 0.427853 -0.216566 70 12 95
0.611047 -0.060344 0.253548 31 149 139
-0.069544 0.354135 -0.214643 71 43 122
0.096271 -0.258247 -0.254795 71 18 101
0.619507 -0.409443 0.296832 136 213 71
-0.491648 0.080240 -0.095516 71 21 103
0.004904 -0.287785 -0.306086 69 5 88
-0.556322 0.343227 0.394691 68 1 84
0.398418 0.301637 -0.063724 68 1 84
-0.588228 0.272997 0.320906 71 43 122
0.402240 -0.091571 -0.171885 56 87 140
-0.125797 0.363678 -0.180570 68 1 84
-0.611382 0.147427 0.393597 67 60 132
0.614199 -0.396980 0.169163 36 170 130
0.624606 -0.105595 0.389150 44 177 125
0.265584 0.032961 -0.220729 60 77 138
-0.699493 -0.453180 0.364966 75 194 108
0.567214 0.059030 0.497306 52 95 141
-0.558879 -0.519472 -0.016643 30 157 136
-0.691040 -0.369796 0.352197 96 201 96
-0.529763 0.152515 0.026485 33 142 140
0.281999 0.472269 -0.043678 68 1 84
-0.461985 0.029492 -0.150401 61 75 137
0.244782 0.204349 -0.192312 71 40 120
-0.461663 0.091674 -0.130542 63 71 136
-0.580799 0.152603 0.173718 45 111 142
-0.401695 -0.320393 -0.150237 68 1 84
-0.446401 0.431971 0.084311 68 1 84
0.593390 0.034547 0.424368 44 113 142
-0.064069 -0.148519 -0.299831 59 81 138
0.464297 0.375783 0.236215 68 1 84
0.625814 -0.261913 0.469493 87 198 101
0.418021 0.088839 -0.155822 71 21 103
0.504801 0.280345 0.238245 68 1 84
0.442930 -0.396308 -0.131704 71 22 105
0.221610 -0.269736 -0.205702 72 30 112
0.284253 -0.136631 -0.198203 57 85 139
-0.091148 -0.093250 -0.274433 40 122 142
-0.080922 0.581156 -0.167874 68 1 84
0.428139 0.443573 0.192741 68 1 84
0.136890 -0.006967 -0.339993 41 120 142
0.561776 -0.329884 0.056419 42 119 142
-0.645834 -0.079011 0.320660 54 90 140
0.548734 0.147094 0.193752 71 21 103
0.395115 0.359774 -0.020868 68 1 84
0.606486 -0.002863 0.326423 41 121 142
0.174938 -0.188835 -0.217963 68 3 87
0.305289 0.479129 -0.013975 68 1 84
-0.599626 0.124983 0.223404 53 93 140
-0.213934 0.540270 -0.073463 68 1 84
-0.048177 0.003130 -0.375416 37 171 129
-0.072566 0.099072 -0.261797 35 136 141
-0.150612 0.595961 -0.072951 68 1 84
0.076731 0.417660 -0.209754 68 1 84
-0.535664 0.220827 0.088478 68 1 84
-0.387416 0.107036 -0.192228 44 113 142
0.359108 0.302741 -0.099708 68 1 84
-0.523332 0.343846 0.172558 68 1 84
0.189372 -0.496571 -0.291378 68 1 84
-0.021083 0.017844 -0.365816 53 183 120
-0.270669 0.514219 -0.023470 68 1 84
-0.558288 0.218297 0.144489 72 25 107
-0.328213 0.148895 -0.205362 52 95 141
-0.070245 0.439595 -0.216338 68 1 84
-0.610593 -0.027462 0.158437 58 82 139
-0.226581 -0.326574 -0.219435 68 1 84
0.303311 -0.402419 -0.241045 68 1 84
-0.437499 0.380786 0.009847 68 1 84
0.615727 -0.130950 0.513024 66 190 113
0.448296 0.409620 0.265365 68 1 84
0.623628 -0.071781 0.328001 38 172 129
-0.548032 0.368314 0.295698 68 1 84
0.498754 -0.292461 -0.005720 47 106 141
0.594533 0.063297 0.365890 71 44 123
0.157798 -0.372576 -0.213108 68 1 84
0.616546 -0.381260 0.167322 38 172 129
0.343772 -0.431690 -0.232056 68 1 84
-0.039622 0.314013 -0.262307 52 94 141
0.524987 0.080004 0.006946 67 60 132
-0.195494 -0.385591 -0.262634 68 1 84
-0.123575 -0.443464 -0.281834 68 1 84
0.054485 -0.485381 -0.309892 71 24 106
0.567683 -0.153087 0.019061 33 166 133
-0.607232 0.177911 0.388365 69 52 127
0.307613 0.121704 -0.197670 71 42 121
0.497965 -0.069242 -0.092370 37 130 142
-0.399598 0.514953 0.112139 68 1 84
-0.361483 0.565267 0.128017 68 1 84
-0.401767 -0.344547 -0.197202 72 26 108
0.470993 0.347489 0.393429 68 1 84
-0.337263 0.260456 -0.148752 68 1 84
-0.421630 -0.162634 -0.173619 54 91 140
0.399080 -0.352114 -0.134365 68 55 129
-0.696805 -0.432728 0.358646 71 192 110
0.499506 -0.147668 -0.088122 30 153 138
0.191008 -0.016242 -0.221455 69 54 129
-0.426739 0.146694 -0.143532 66 64 133
0.159283 0.077558 -0.228864 61 76 137
0.089460 -0.100685 -0.394308 62 188 115
-0.125309 -0.357331 -0.206734 68 1 84
-0.690492 -0.320293 0.440968 31 162 134
-0.515452 -0.401536 -0.084575 72 26 108
-0.639799 -0.072172 0.273417 31 146 140
-0.244194 0.563646 0.004391 68 1 84
0.057018 0.415496 -0.211964 68 1 84
0.341962 0.014482 -0.211528 67 60 132
0.481891 0.322820 0.384936 68 1 84
0.565104 0.003513 0.087784 53 92 140
-0.663197 -0.166720 0.301731 31 163 134
0.628749 -0.119844 0.373577 71 192 110
0.198391 0.579601 -0.078499 68 1 84
0.070502 0.105221 -0.285568 43 116 142
0.610875 -0.352385 0.141314 35 169 130
-0.335298 0.511442 0.018729 68 1 84
0.437183 -0.093083 -0.149800 53 93 140
0.110193 -0.117088 -0.324570 40 122 142
0.432402 -0.439685 -0.171116 70 47 124
0.356816 0.537611 0.145894 68 1 84
-0.604160 -0.472612 0.083924 57 85 139
0.618124 -0.158197 0.524568 43 177 125
0.057232 0.323949 -0.256139 68 1 84
0.607559 -0.051969 0.457152 35 169 130
-0.063579 -0.100107 -0.326779 42 119 142
-0.486881 -0.386588 -0.124716 67 60 132
-0.577618 0.118528 0.146037 47 105 141
-0.649563 -0.088622 0.348245 36 132 141
-0.137368 -0.135521 -0.241569 54 91 140
0.255246 -0.019020 -0.227606 58 82 139
0.519222 0.249482 0.270045 68 1 84
-0.413398 0.439644 0.031278 68 1 84
0.187405 -0.393342 -0.228976 68 1 84
-0.342289 -0.527410 -0.281191 68 1 84
0.212438 0.585115 -0.016148 68 1 84
-0.098680 -0.095120 -0.263177 48 104 141
-0.416863 0.386597 -0.013805 68 1 84
-0.475347 0.295830 0.000214 68 1 84
-0.455096 0.106534 -0.132044 69 52 127
-0.428754 0.405851 0.019023 68 1 84
-0.659371 -0.166576 0.254977 32 143 140
0.076393 -0.332744 -0.245197 68 1 84
-0.661980 -0.185027 0.244651 32 145 140
-0.420216 -0.046461 -0.192511 52 94 141
0.524231 -0.234147 -0.015681 38 129 142
0.036647 0.581958 -0.177159 68 1 84
-0.134102 0.278674 -0.205768 57 84 139
-0.163462 -0.490589 -0.318750 71 44 123
0.258522 0.037427 -0.219202 52 94 141
0.146602 -0.386526 -0.220340 68 1 84
0.444371 0.417854 0.267670 68 1 84
0.178658 0.137364 -0.241042 50 99 141
-0.600002 0.211830 0.294389 71 38 118
0.434131 0.275090 -0.032574 68 1 84
0.493780 -0.516231 -0.078309 63 71 136
-0.630708 0.012419 0.332627 44 113 142
0.622954 -0.283284 0.164125 51 182 121
0.449001 -0.405119 -0.129786 71 18 101
-0.611108 0.158618 0.348609 58 82 139
-0.676695 -0.242510 0.311592 31 162 134
-0.178077 0.593724 -0.006440 68 1 84
-0.117840 0.284290 -0.220731 50 98 141
0.423124 0.457771 0.269090 68 1 84
-0.583175 0.288269 0.358341 71 17 99
-0.059989 0.154593 -0.279384 107 205 89
-0.124470 -0.041845 -0.241084 51 96 141
-0.609939 0.099974 0.448836 72 35 116
-0.048267 -0.168993 -0.315818 55 89 140
-0.021884 -0.440157 -0.298487 68 1 84
0.498570 0.273831 0.443651 68 1 84
-0.609759 -0.088511 0.085140 59 81 138
0.587014 0.055882 0.272162 71 38 118
-0.623902 -0.516740 0.126934 36 134 141
-0.497601 0.440597 0.366495 68 1 84
-0.241590 -0.504267 -0.318052 71 20 102
-0.491686 0.450423 0.353243 68 1 84
0.503269 0.280093 0.214055 68 1 84
-0.028800 -0.031447 -0.447565 134 212 73
-0.653567 -0.135560 0.265462 32 143 140
0.214707 0.263901 -0.152346 68 1 84
0.455218 0.229622 -0.030987 68 1 84
0.475918 0.177915 -0.032574 68 1 84
-0.225968 -0.183465 -0.205010 68 1 84
0.582116 0.002670 0.517707 62 73 137
-0.680289 -0.273674 0.427039 32 165 133
0.168915 -0.456686 -0.264979 68 1 84
-0.621377 0.038418 0.454915 66 62 133
0.579948 0.055420 0.238951 71 38 118
-0.239441 -0.313891 -0.219193 68 1 84
0.566746 0.090155 0.459815 66 64 133
-0.648941 -0.081366 0.423562 31 148 139
-0.622515 0.076040 0.373023 44 114 142
-0.638434 -0.085627 0.239178 32 145 140
-0.644024 -0.133182 0.200840 39 125 142
0.622066 -0.176455 0.492260 107 205 89
0.128978 0.313399 -0.233903 66 61 132
0.551269 -0.469123 0.039515 36 133 141
0.626200 -0.165150 0.444973 112 206 86
-0.228094 0.048146 -0.247085 53 183 120
-0.496960 0.353134 0.115710 68 1 84
-0.607279 0.178536 0.319108 67 59 131
-0.184864 -0.523091 -0.328230 55 89 140
-0.294328 0.402618 -0.091251 68 1 84
-0.583295 -0.030430 0.039546 68 57 130
0.494438 0.191773 0.020581 68 1 84
0.113251 -0.056188 -0.397300 43 177 125
-0.120357 0.519816 -0.188485 68 1 84
-0.645125 -0.454863 0.181483 40 123 142
0.545904 0.102185 0.509857 68 1 84
-0.122732 -0.238003 -0.200200 68 1 84
-0.638476 -0.132049 0.174869 38 127 142
0.569062 -0.026063 0.067327 42 118 142
0.368870 0.307783 -0.089587 68 1 84
-0.106803 0.500940 -0.202051 68 1 84
-0.571734 -0.197120 -0.002037 47 106 141
0.526863 0.187317 0.478350 68 1 84
-0.130480 0.205463 -0.230344 35 136 141
0.554060 0.123104 0.187614 70 45 124
-0.183003 0.469184 -0.145535 68 1 84
0.259774 -0.339586 -0.202478 68 1 84
-0.598623 0.207914 0.409053 71 20 102
0.121786 -0.073838 -0.352132 34 139 141
0.620976 -0.080400 0.371834 73 193 109
-0.645463 -0.179711 0.160221 43 115 142
0.427624 -0.064245 -0.159840 55 88 140
0.563367 0.096517 0.462531 67 58 131
0.340540 -0.524516 -0.248091 68 1 84
-0.515635 0.399398 0.235641 68 1 84
-0.110051 -0.228357 -0.211929 68 1 84
-0.607513 0.137353 0.431279 72 26 108
0.633278 -0.275633 0.205159 30 156 137
0.027839 -0.159963 -0.390303 83 197 103
0.422939 0.056136 -0.158899 69 54 129
-0.687868 -0.330615 0.358161 66 190 113
-0.670874 -0.416495 0.244060 41 175 127
-0.661781 -0.154057 0.448783 46 108 142
-0.471638 -0.246080 -0.080602 71 22 105
0.560637 0.084789 0.487513 72 28 110
-0.590810 0.100251 0.177304 31 147 139
-0.596563 0.169425 0.456986 68 1 84
0.613216 -0.462050 0.282594 165 218 53
0.094219 0.345418 -0.222299 68 1 84
0.421864 -0.504221 -0.193835 72 35 116
0.369941 -0.039701 -0.197019 64 68 135
0.378863 -0.319920 -0.129283 63 69 135
0.555424 0.033266 0.073727 37 130 142
-0.482147 0.370031 0.086537 68 1 84
0.138094 -0.398372 -0.226830 68 1 84
0.558406 -0.172711 0.005410 30 159 136
-0.630301 0.026631 0.375449 48 103 141
-0.531763 -0.355743 -0.034804 68 1 84
-0.606911 0.059949 0.217006 66 64 133
0.242623 -0.231517 -0.193083 71 38 118
-0.020823 0.482897 -0.235091 68 1 84
0.216188 0.359148 -0.131358 68 1 84
0.184307 -0.358829 -0.208847 68 1 84
-0.678694 -0.366473 0.265140 81 196 104
-0.392022 -0.009385 -0.211413 54 91 140
-0.678147 -0.323763 0.257216 54 184 119
-0.623457 -0.528181 0.124595 32 143 140
-0.401099 0.035737 -0.200680 52 94 141
0.226500 -0.299405 -0.208026 71 21 103
0.546418 -0.018882 -0.001369 30 155 137
0.515840 0.223775 0.459120 72 35 116
0.387485 0.413552 0.019428 68 1 84
-0.029813 0.007959 -0.422309 77 194 107
0.166181 0.512488 -0.168941 68 1 84
-0.676026 -0.365405 0.252007 35 169 130
-0.479974 -0.437533 -0.157934 67 58 131
-0.035138 0.370487 -0.213806 68 3 87
0.028093 0.269298 -0.283101 42 119 142
0.599503 -0.063773 0.548186 70 12 95
-0.555478 0.207221 0.131793 68 1 84
-0.657839 -0.211636 0.190433 33 142 140
-0.626508 -0.019920 0.252058 54 91 140
-0.259813 0.195895 -0.199756 71 44 123
-0.022107 -0.337481 -0.274783 68 1 84
0.116687 -0.085897 -0.347088 35 136 141
-0.681797 -0.524552 0.279157 75 194 108
0.563679 -0.321692 0.057216 41 120 142
-0.387033 -0.260939 -0.157584 68 1 84
-0.273769 0.536131 0.000910 68 1 84
-0.148511 0.056058 -0.221151 71 38 118
0.213593 -0.528879 -0.298514 68 1 84
0.179095 0.100633 -0.228796 58 82 139
-0.430054 0.473498 0.108736 68 1 84
0.137303 0.082545 -0.243445 63 69 135
0.495100 0.051025 -0.071937 55 88 140
0.084633 -0.219001 -0.308404 42 119 142
0.078589 -0.157226 -0.359381 33 166 133
0.104572 -0.451673 -0.285993 68 1 84
-0.438548 -0.278098 -0.094724 68 1 84
0.374223 0.438833 0.026907 68 1 84
0.475665 0.349500 0.264144 68 1 84
0.227486 0.570230 -0.022554 68 1 84
0.505926 0.258831 0.431343 68 1 84
0.223936 0.382223 -0.118560 68 1 84
-0.017245 0.614222 -0.114337 68 1 84
0.502385 0.284392 0.290642 68 1 84
0.493577 -0.495794 -0.082545 61 76 137
0.182058 -0.208406 -0.203532 68 1 84
0.180386 0.140650 -0.240923 46 107 142
0.370167 0.530775 0.177444 68 1 84
0.127065 0.536406 -0.186812 68 1 84
-0.661411 -0.151469 0.348181 42 176 126
0.624214 -0.241000 0.484685 56 185 118
-0.603087 -0.403425 0.071741 67 60 132
0.116795 0.610292 -0.102998 68 1 84
0.267665 -0.459723 -0.252981 68 1 84
0.535199 0.133392 0.111997 68 1 84
-0.625220 -0.045144 0.214301 58 82 139
-0.010467 0.139661 -0.289615 50 181 122
0.206455 0.346850 -0.144188 68 1 84
0.515024 0.226339 0.457958 72 32 113
0.448097 -0.345422 -0.053211 63 71 136
0.202983 0.596190 0.001001 68 1 84
-0.363536 0.459628 -0.008286 68 1 84
0.141115 -0.054100 -0.315055 54 91 140
0.377243 0.466114 0.059708 68 1 84
-0.553648 0.353615 0.376896 68 1 84
0.466777 0.045767 -0.115423 67 58 131
0.486821 0.311758 0.394135 68 1 84
-0.462991 -0.223243 -0.105386 69 54 129
0.029346 0.097148 -0.291049 39 125 142
0.530491 -0.109135 -0.050041 30 159 136
0.085533 0.114029 -0.280747 39 125 142
-0.207813 0.164519 -0.219099 33 166 133
0.487101 0.259202 0.061913 68 1 84
0.261951 0.494605 -0.055392 68 1 84
0.493522 -0.122063 -0.098258 30 158 136
0.615189 -0.486089 0.413257 238 229 27
-0.051090 -0.118143 -0.350670 40 122 142
0.614965 -0.501109 0.449695 223 227 24
-0.526504 0.220756 0.065372 68 55 129
-0.563782 -0.429493 -0.004044 66 64 133
-0.165017 -0.427248 -0.267020 68 1 84
0.627768 -0.353099 0.412479 167 219 51
-0.178979 0.470484 -0.148952 68 1 84
-0.589256 0.217284 0.444000 68 1 84
0.205417 0.177384 -0.225461 37 131 141
-0.293983 -0.259236 -0.220596 68 1 84
-0.226427 0.410623 -0.117573 68 1 84
0.400579 -0.324010 -0.099690 69 54 129
-0.199850 0.165618 -0.219935 32 144 140
0.076022 0.004873 -0.351424 39 124 142
-0.188488 0.336510 -0.147623 68 1 84
-0.670667 -0.213354 0.441637 41 175 127
0.638806 -0.233789 0.355229 38 172 129
-0.677165 -0.244219 0.325531 61 187 116
0.422359 -0.494637 -0.193303 72 28 110
-0.285045 -0.353959 -0.253732 68 1 84
-0.433762 0.006857 -0.181641 67 58 131
0.080548 -0.002686 -0.431385 103 204 92
0.520420 0.229377 0.180760 70 11 94
0.627057 -0.330464 0.438980 181 221 43
0.606400 -0.576827 0.322246 151 216 62
0.454687 0.120730 -0.105518 71 37 117
0.209379 0.262137 -0.156414 68 1 84
0.119624 -0.157753 -0.283284 52 95 141
0.611832 -0.280285 0.129085 44 177 125
-0.044709 0.544207 -0.212405 68 1 84
-0.137491 -0.017794 -0.229858 68 57 130
-0.614022 -0.067306 0.128049 55 89 140
0.267619 0.516663 -0.026569 68 1 84
-0.459121 0.433968 0.121826 68 1 84
-0.613159 -0.524088 0.100176 32 144 140
0.296750 0.111502 -0.201881 66 62 133
0.245667 0.253356 -0.138023 68 1 84
-0.052516 0.545994 -0.209474 68 1 84
0.473435 0.353216 0.222537 68 1 84
-0.193785 -0.058384 -0.249932 31 162 134
-0.479878 0.480218 0.274359 68 1 84
0.571871 -0.014259 0.104357 36 133 141
0.520638 -0.320896 0.017407 47 105 141
-0.647586 -0.352984 0.151596 33 140 141
-0.532011 -0.093302 -0.084368 66 62 133
0.569476 0.056336 0.197867 64 67 135
-0.101110 -0.040965 -0.300282 30 156 137
-0.654217 -0.338999 0.166365 51 182 121
-0.593714 -0.234237 0.036182 38 129 142
-0.122157 0.204925 -0.235406 36 133 141
0.336313 -0.291771 -0.183646 72 34 115
0.392028 -0.345309 -0.128480 71 42 121
-0.632600 -0.036432 0.272916 51 96 141
0.517466 0.146377 0.046197 68 1 84
-0.496257 0.405978 0.192567 68 1 84
-0.120623 -0.352288 -0.202286 68 1 84
0.614543 -0.073559 0.436756 35 169 130
-0.391655 0.554432 0.171717 68 1 84
0.476170 -0.318938 -0.015167 52 95 141
-0.671734 -0.220339 0.451455 47 179 123
0.509569 -0.412483 -0.031605 61 75 137
-0.702609 -0.524609 0.360260 56 185 118
-0.611638 -0.115938 0.078339 47 105 141
0.262034 0.264651 -0.132208 68 1 84
-0.676740 -0.252868 0.446825 37 171 129
-0.406550 0.369691 -0.037518 68 1 84
-0.510536 0.025818 -0.088097 54 91 140
-0.636989 -0.168794 0.136985 37 131 141
-0.304902 -0.357874 -0.277159 71 18 101
0.582737 -0.429373 0.099510 30 157 136
-0.271691 -0.015259 -0.253383 56 185 118
0.238758 -0.064979 -0.230005 52 95 141
-0.022251 -0.216457 -0.326868 69 50 127
-0.554412 -0.457015 -0.023106 59 81 138
0.027329 -0.165889 -0.386521 30 158 136
0.368342 -0.204672 -0.149128 42 118 142
-0.542876 0.142102 0.068354 32 144 140
0.167135 0.183084 -0.249144 63 69 135
-0.068879 0.032711 -0.265786 40 122 142
0.100356 0.205008 -0.258941 44 112 142
-0.105607 0.139663 -0.256720 35 168 131
0.120081 0.051688 -0.257404 66 62 133
0.053141 0.614534 -0.109077 68 1 84
-0.045211 -0.064218 -0.422599 46 178 124
-0.446462 0.279149 -0.049145 71 40 120
0.395357 -0.099428 -0.174321 58 82 139
0.392039 0.505470 0.224878 68 1 84
-0.039442 0.394506 -0.210506 68 1 84
-0.058907 0.306799 -0.259196 50 99 141
0.372087 0.280757 -0.102600 68 1 84
-0.609277 0.162676 0.392488 66 61 132
-0.435129 -0.307777 -0.100868 70 11 94
-0.344179 -0.160012 -0.199740 61 76 137
-0.383749 0.231229 -0.134397 68 1 84
-0.147511 0.242642 -0.186380 59 81 138
0.580127 -0.487732 0.120275 30 151 138
-0.263389 -0.188670 -0.200556 68 1 84
-0.239475 0.586412 0.042888 68 1 84
-0.436411 -0.443053 -0.215859 69 52 127
0.187029 -0.518304 -0.301069 68 1 84
0.585602 -0.345701 0.088858 31 163 134
-0.222253 -0.093712 -0.242799 35 136 141
0.389998 -0.126472 -0.171634 49 100 141
0.013143 0.037220 -0.418823 50 181 122
0.632277 -0.370694 0.341740 149 215 63
-0.626551 -0.103350 0.151694 38 127 142
-0.565485 0.330535 0.373850 68 1 84
0.400127 0.442467 0.071304 68 1 84
0.269961 -0.411127 -0.243191 68 1 84
-0.665540 -0.176982 0.419192 31 162 134
-0.222580 0.347778 -0.129996 68 1 84
0.442924 0.385624 0.102191 68 1 84
-0.598418 -0.443156 0.068164 48 104 141
-0.537511 0.165536 0.064517 40 122 142
0.590148 0.030317 0.259049 58 83 139
0.125888 0.015135 -0.290034 60 78 138
0.485227 0.311866 0.149075 68 1 84
0.158347 -0.034495 -0.293329 53 93 140
0.442412 0.051225 -0.141600 67 59 131
0.343298 0.357185 -0.070653 68 1 84
-0.617968 -0.335184 0.096257 45 111 142
0.580022 0.033740 0.221466 71 44 123
-0.470615 0.292388 -0.009558 68 1 84
0.451167 0.372246 0.108342 68 1 84
0.613699 -0.101555 0.481068 32 164 133
-0.411390 -0.318761 -0.136793 68 1 84
-0.251119 0.240083 -0.174942 72 26 108
0.441785 -0.399129 -0.135773 71 21 103
0.622271 -0.188331 0.497689 89 199 100
0.586459 -0.266952 0.078062 31 147 139
-0.616545 -0.216079 0.069725 32 145 140
0.324202 -0.119836 -0.194309 65 66 134
0.556558 -0.522668 0.064069 30 153 138
0.192624 0.352428 -0.152571 68 1 84
0.358716 0.531727 0.135276 68 1 84
-0.424050 0.390470 -0.001650 68 1 84
-0.579329 0.246357 0.224645 70 14 97
-0.193255 0.587189 -0.005682 68 1 84
0.032277 0.102303 -0.288044 40 122 142
0.284181 0.419197 -0.068277 68 1 84
0.015955 -0.486947 -0.310830 72 32 113
-0.540770 -0.425049 -0.043885 70 48 125
-0.025790 0.279033 -0.281130 44 112 142
-0.105393 0.276810 -0.234259 33 142 140
-0.493978 0.448435 0.348329 68 1 84
-0.525588 0.398080 0.387543 68 1 84
-0.662330 -0.157592 0.414238 32 165 133
0.134716 -0.514890 -0.309243 68 1 84
0.179141 0.111708 -0.232806 53 93 140
0.226529 -0.310570 -0.206319 68 1 84
-0.492299 0.257146 0.006405 71 44 123
0.597821 0.048456 0.361677 67 59 131
-0.146140 -0.405393 -0.249303 68 1 84
-0.379994 0.102835 -0.198446 31 148 139
-0.687948 -0.408176 0.315564 71 192 110
0.596461 -0.234398 0.090606 30 159 136
0.080837 0.457756 -0.222622 68 1 84
0.591264 -0.200112 0.075432 30 160 135
-0.038659 -0.158031 -0.341813 47 105 141
-0.057888 0.391989 -0.206910 70 49 126
-0.600828 -0.538658 0.067267 36 132 141
0.262596 0.500727 -0.049832 68 1 84
0.205191 0.251043 -0.157697 68 1 84
0.384215 0.449093 0.050938 68 1 84
-0.432794 -0.345755 -0.162680 68 1 84
-0.341168 -0.308781 -0.193279 68 1 84
0.491186 0.295740 0.433761 68 1 84
-0.022106 0.335519 -0.242517 71 43 122
0.096083 0.135706 -0.281265 32 143 140
-0.361971 0.416014 -0.042854 68 1 84
0.554891 0.160175 0.312533 68 1 84
0.637771 -0.223539 0.238390 53 183 120
-0.674483 -0.236136 0.283242 30 157 136
0.462749 0.216263 -0.026870 68 1 84
0.173051 0.280226 -0.200182 71 17 99
0.103482 0.590849 -0.147261 68 1 84
0.110111 -0.508401 -0.310844 68 1 84
-0.008674 -0.044414 -0.456983 109 206 88
-0.058858 -0.340781 -0.221545 68 1 84
-0.618537 0.049419 0.271118 38 129 142
0.164126 0.196849 -0.243554 65 65 134
-0.600263 -0.432001 0.070896 52 95 141
0.379150 -0.256269 -0.138218 46 109 142
0.259663 -0.077650 -0.225842 57 84 139
0.467565 -0.052173 -0.125708 44 112 142
-0.609506 -0.002594 0.180921 56 87 140
-0.442669 0.405614 0.042321 68 1 84
-0.229331 -0.174438 -0.205996 68 1 84
-0.439181 0.474050 0.132514 68 1 84
0.617717 -0.155548 0.526748 34 167 132
-0.572170 -0.378919 0.016384 72 30 112
-0.459802 0.200610 -0.076464 69 5 88
0.478792 0.067630 -0.092273 72 25 107
0.181727 0.131301 -0.237667 50 99 141
0.439216 0.064724 -0.142200 69 53 128
-0.413384 -0.032578 -0.197749 55 88 140
0.421979 0.461055 0.253927 68 1 84
-0.004701 0.068972 -0.308889 40 122 142
0.144083 0.217608 -0.228860 69 52 127
-0.323339 0.361137 -0.104624 68 1 84
0.546383 0.178784 0.343201 68 1 84
0.558711 -0.523596 0.070557 30 155 137
0.464154 0.182545 -0.051897 68 1 84
0.079475 -0.270974 -0.273760 71 20 102
-0.666564 -0.275549 0.203101 30 158 136
0.111085 -0.250223 -0.238796 71 22 105
-0.057091 -0.335512 -0.223104 68 1 84
0.267660 -0.521663 -0.281264 68 1 84
0.066017 0.250412 -0.268208 52 95 141
-0.686614 -0.536119 0.294631 68 190 112
0.597355 -0.579896 0.227168 59 186 117
-0.661423 -0.150162 0.472450 52 95 141
-0.038743 0.420377 -0.217917 71 43 122
-0.444680 -0.323316 -0.102693 68 1 84
0.426868 -0.326768 -0.067021 63 69 135
0.607702 -0.479836 0.247941 59 186 117
-0.502925 -0.368210 -0.083176 71 24 106
0.349357 -0.012492 -0.208786 62 73 137
0.426504 0.188771 -0.102202 68 1 84
0.323582 -0.523710 -0.257113 68 1 84
-0.204066 -0.265342 -0.222046 69 5 88
-0.441159 0.450814 0.100551 68 1 84
-0.029774 -0.086770 -0.423397 35 168 131
-0.252141 -0.311607 -0.219522 68 1 84
0.540075 -0.305040 0.030270 42 118 142
-0.476505 -0.179626 -0.124381 58 82 139
0.481503 0.315518 0.132753 68 1 84
-0.009916 0.412680 -0.216914 72 26 108
0.544834 0.118958 0.492986 68 1 84
-0.316612 0.586921 0.126685 68 1 84
0.589974 0.037905 0.438529 45 110 142
0.554005 0.158078 0.256155 68 1 84
0.616753 -0.089718 0.441102 32 144 140
0.611486 -0.526456 0.365201 183 221 41
0.138492 0.564130 -0.159127 68 1 84
-0.635292 -0.021259 0.492062 71 38 118
0.383750 0.374541 -0.021266 68 1 84
-0.364289 0.211292 -0.157898 68 1 84
0.285198 -0.414516 -0.242241 68 1 84
-0.523812 0.410480 0.298734 68 1 84
0.426847 -0.413313 -0.163838 68 3 87
-0.113051 0.531035 -0.189202 68 1 84
-0.467129 -0.138718 -0.149265 48 104 141
0.055399 0.615120 -0.105196 68 1 84
-0.434485 -0.255712 -0.111028 72 28 110
0.191919 -0.423473 -0.239647 68 1 84
0.304635 0.038440 -0.218202 59 80 138
-0.216361 0.453165 -0.117409 68 1 84
-0.597180 0.226997 0.388241 71 20 102
0.532659 0.182731 0.162407 68 1 84
0.485159 -0.153296 -0.102769 33 167 132
-0.637554 -0.036187 0.317833 46 108 142
-0.021976 0.565829 -0.197317 68 1 84
-0.468632 0.497063 0.279131 68 1 84
-0.414434 -0.042486 -0.196424 60 78 138
-0.073890 0.196400 -0.266339 43 177 125
0.189240 -0.249198 -0.197974 68 1 84
-0.336919 -0.095031 -0.224986 46 109 142
0.492818 0.297695 0.359612 68 1 84
-0.040199 0.003848 -0.304731 39 126 142
0.482509 0.097413 -0.072992 67 58 131
-0.027094 -0.164419 -0.354737 56 86 139
-0.280192 -0.031805 -0.250301 79 195 105
-0.543364 0.083905 0.021955 40 123 142
-0.332691 0.517109 0.022937 68 1 84
0.332333 0.493866 0.028314 68 1 84
-0.047618 0.431486 -0.220630 72 26 108
0.320922 -0.524400 -0.258542 68 1 84
0.633647 -0.255949 0.205590 36 170 130
0.445480 0.099220 -0.126067 72 25 107
0.396884 0.083385 -0.173940 70 49 126
0.624714 -0.107025 0.390440 39 173 128
-0.661158 -0.222308 0.199306 31 149 139
-0.675750 -0.240178 0.369674 68 190 112
-0.596942 -0.204806 0.038088 36 133 141
0.063836 0.024272 -0.327320 35 136 141
0.127888 0.592490 -0.132084 68 1 84
0.075210 0.199805 -0.269470 38 128 142
-0.434694 -0.378333 -0.187510 72 34 115
-0.059075 0.448457 -0.222997 68 1 84
0.572927 -0.467927 0.089006 36 134 141
-0.251450 0.047720 -0.249775 87 198 101
0.388540 0.169443 -0.146993 68 1 84
0.262599 -0.158222 -0.194608 62 73 137
0.531831 0.187868 0.430065 68 1 84
0.436436 0.425387 0.185868 68 1 84
-0.375581 -0.013521 -0.220577 64 67 135
-0.100629 0.234139 -0.223316 50 99 141
0.248494 -0.003240 -0.225537 61 75 137
-0.529648 -0.332047 -0.025656 72 29 111
-0.192461 0.010691 -0.244536 34 137 141
-0.051565 0.000094 -0.332043 31 161 135
-0.677632 -0.260619 0.412491 30 154 137
0.181547 -0.446556 -0.253293 68 1 84
-0.627136 -0.177158 0.095615 41 121 142
0.115583 0.263517 -0.250697 69 54 129
-0.487153 0.457968 0.344494 68 1 84
0.392631 0.380024 -0.004721 68 1 84
-0.064184 0.567511 -0.189105 68 1 84
0.450298 0.403155 0.213319 68 1 84
0.293218 0.255526 -0.144713 68 1 84
-0.298366 0.180626 -0.198174 44 112 142
0.015072 0.071662 -0.315352 32 145 140
0.588911 -0.035921 0.183691 38 127 142
-0.549430 -0.134402 -0.051557 63 71 136
-0.537816 0.386633 0.294328 68 1 84
0.371948 0.058667 -0.194269 69 54 129
-0.221449 0.308631 -0.137064 68 1 84
0.296691 0.576712 0.124128 68 1 84
-0.586227 -0.129320 0.010979 57 85 139
0.146777 -0.373053 -0.211536 68 1 84
0.337123 0.389135 -0.051376 68 1 84
-0.544283 0.340087 0.217403 68 1 84
-0.582927 -0.092672 0.004914 58 82 139
-0.008777 -0.331352 -0.282890 68 1 84
-0.005112 -0.474680 -0.309937 63 69 135
-0.458297 0.508798 0.267268 68 1 84
-0.524843 -0.419839 -0.072132 66 61 132
-0.130940 -0.205116 -0.211661 68 1 84
0.050370 0.174808 -0.290284 33 166 133
0.099923 0.571404 -0.173579 68 1 84
0.149413 0.258091 -0.217467 71 38 118
-0.587674 -0.143390 0.014472 52 95 141
0.133379 -0.193852 -0.253572 71 21 103
0.294875 -0.432014 -0.241371 68 1 84
-0.579316 0.177466 0.181778 56 86 139
0.605830 -0.060884 0.479717 30 151 138
0.514457 -0.287408 0.004529 48 104 141
-0.330287 -0.415506 -0.268662 68 1 84
-0.064606 0.446817 -0.220655 68 1 84
0.526351 -0.194352 -0.037962 30 152 138
0.472641 0.217571 -0.006698 68 1 84
0.565370 -0.003996 0.077291 41 120 142
0.011490 0.276111 -0.284384 38 129 142
-0.505806 0.369462 0.164189 68 1 84
0.472982 0.355891 0.260940 68 1 84
0.008873 0.596679 -0.161895 68 1 84
0.117053 0.296481 -0.253800 65 65 134
0.637623 -0.333578 0.351333 124 210 79
-0.658510 -0.132744 0.476672 44 113 142
0.596697 -0.333474 0.106027 32 165 133
0.490813 -0.084951 -0.101436 46 109 142
0.273271 0.497645 -0.036241 68 1 84
-0.168588 0.201466 -0.210667 42 117 142
-0.522181 0.154459 0.007347 40 122 142
-0.216546 0.589631 0.029754 68 1 84
0.171787 0.275294 -0.201934 70 11 94
0.228860 0.324038 -0.135242 68 1 84
-0.669493 -0.197502 0.356759 57 185 118
0.039449 0.382316 -0.208009 68 1 84
-0.262525 -0.459307 -0.295283 68 1 84
-0.380330 0.141115 -0.184418 52 94 141
0.516048 -0.027687 -0.061064 39 126 142
-0.089233 0.317227 -0.229373 52 95 141
0.620688 -0.086046 0.395561 39 173 128
0.368689 0.486179 0.071246 68 1 84
-0.572361 0.216911 0.183897 66 62 133
-0.616654 -0.088772 0.123049 53 92 140
-0.587902 -0.010597 0.076293 69 54 129
-0.614652 -0.015448 0.192212 66 64 133
-0.583365 0.246056 0.240155 68 1 84
-0.670892 -0.214071 0.406580 48 180 122
-0.346467 0.091196 -0.220418 41 121 142
0.491097 -0.251982 -0.041819 42 119 142
-0.068699 -0.060995 -0.369189 48 180 122
-0.073168 0.614598 -0.090941 68 1 84
0.434410 -0.511955 -0.180275 67 58 131
0.611790 -0.470253 0.263099 68 190 112
0.038034 0.441191 -0.225052 68 1 84
0.149370 0.406746 -0.175795 68 1 84
-0.428377 -0.043781 -0.187450 54 91 140
0.626358 -0.259109 0.464101 149 215 63
-0.598896 0.158233 0.456581 68 1 84
-0.607203 -0.014594 0.156462 50 99 141
-0.000187 -0.208127 -0.350698 57 85 139
0.509557 0.196470 0.068486 68 1 84
0.107319 -0.254378 -0.240461 71 15 98
-0.664954 -0.171568 0.368495 44 177 125
-0.118057 -0.199719 -0.222860 68 1 84
0.061033 0.610079 -0.124025 68 1 84
-0.399908 0.367590 -0.045459 68 1 84
0.401060 0.051741 -0.177033 67 58 131
-0.314341 -0.450507 -0.284081 68 1 84
0.235380 0.346411 -0.122432 68 1 84
0.553553 -0.154760 -0.007877 30 156 137
-0.558663 0.048248 0.033788 42 117 142
0.525007 0.105856 0.031225 68 57 130
0.619956 -0.066214 0.351669 30 151 138
0.175783 0.598739 -0.062582 68 1 84
0.454573 0.392221 0.202724 68 1 84
-0.085185 0.370516 -0.200912 68 1 84
0.381330 -0.197941 -0.147117 39 124 142
-0.440824 0.505880 0.195592 68 1 84
-0.567041 0.330091 0.358452 68 1 84
0.466644 -0.077987 -0.126443 52 94 141
0.610965 -0.476943 0.271245 96 201 96
-0.655817 -0.225241 0.172499 33 142 140
-0.568202 0.327323 0.359052 68 1 84
-0.043714 -0.268697 -0.264136 68 1 84
-0.565498 0.190415 0.149793 70 48 125
0.352612 -0.127256 -0.184322 61 76 137
0.638258 -0.241884 0.314600 98 202 95
-0.270592 -0.113564 -0.230509 49 102 141
0.508271 -0.419931 -0.039362 59 80 138
-0.035892 0.004841 -0.317750 31 150 139
-0.610271 -0.196838 0.058745 39 125 142
-0.117213 -0.115685 -0.250501 56 87 140
0.113645 -0.213152 -0.266422 69 50 127
0.608656 -0.027737 0.285898 51 96 141
0.452381 -0.247591 -0.081009 33 140 141
0.378873 -0.068315 -0.188244 61 76 137
-0.597609 -0.353965 0.056918 71 20 102
0.058542 -0.261784 -0.312189 44 113 142
0.498026 -0.209128 -0.067298 30 153 138
0.061661 0.306686 -0.271841 49 101 141
0.605252 -0.016227 0.421384 39 125 142
-0.568726 0.327260 0.351255 68 1 84
0.028926 0.578712 -0.182879 68 1 84
-0.633460 -0.013964 0.496229 70 9 92
0.119854 0.579378 -0.154724 68 1 84
-0.101243 -0.182106 -0.245400 71 18 101
0.027430 -0.379284 -0.281334 70 12 95
0.384627 0.374560 -0.020182 68 1 84
-0.295156 0.180661 -0.198819 42 119 142
-0.043458 -0.342229 -0.253607 68 1 84
-0.697491 -0.389257 0.400886 112 206 86
0.585877 -0.289601 0.080205 31 149 139
0.341638 -0.074396 -0.202270 62 72 136
-0.617053 -0.246307 0.072393 44 114 142
0.210724 -0.183558 -0.202350 72 30 112
-0.571701 -0.395849 0.012980 72 32 113
-0.574915 0.286296 0.250343 68 1 84
-0.530628 0.004105 -0.064840 42 117 142
-0.396144 -0.485504 -0.248851 69 6 90
-0.262204 -0.412679 -0.279130 68 1 84
0.547110 0.052391 0.057281 38 129 142
0.510404 0.241043 0.133680 68 1 84
-0.474654 0.026549 -0.136676 49 100 141
0.030095 0.047825 -0.399711 39 173 128
0.479629 -0.400047 -0.074482 72 33 114
0.405842 0.465697 0.129063 68 1 84
-0.056166 -0.032272 -0.415676 94 201 97
-0.003585 0.035004 -0.404920 68 190 112
-0.600367 0.200515 0.408500 72 33 114
0.258998 0.223570 -0.173963 69 8 91
0.052772 0.379880 -0.207500 68 1 84
-0.242794 -0.170278 -0.205730 68 1 84
0.266298 -0.389425 -0.240645 68 1 84
-0.667568 -0.288575 0.206062 31 147 139
-0.020214 0.043876 -0.309299 52 95 141
0.441243 -0.505862 -0.173120 66 61 132
0.587492 0.003957 0.489117 38 128 142
0.493076 -0.277653 -0.019432 52 94 141
-0.679168 -0.258782 0.326843 50 181 122
-0.337840 0.271572 -0.144563 68 1 84
0.646354 -0.331398 0.316346 134 212 73
-0.668793 -0.256125 0.219629 32 164 133
0.254376 0.585462 0.059788 68 1 84
0.570588 -0.023559 0.077279 42 119 142
-0.628025 -0.504533 0.137500 49 101 141
0.619875 -0.142981 0.199819 85 198 102
0.220460 -0.025049 -0.226216 66 64 133
-0.308530 -0.194955 -0.192339 68 1 84
0.136712 0.466466 -0.196010 68 1 84
-0.535449 -0.188590 -0.051644 62 73 137
0.607492 -0.002636 0.357163 31 148 139
0.459869 0.381356 0.291270 68 1 84
0.637841 -0.309242 0.361856 112 206 86
0.312524 -0.212105 -0.172066 60 78 138
0.503132 0.122268 -0.016827 72 28 110
0.588843 -0.163217 0.068096 30 157 136
-0.032092 -0.401972 -0.278440 68 1 84
0.318080 0.373261 -0.072088 68 1 84
0.176537 -0.497349 -0.295335 68 1 84
0.495659 -0.217885 -0.064071 32 144 140
0.486518 0.295429 0.113066 68 1 84
0.386997 0.368622 -0.022874 68 1 84
-0.691378 -0.363460 0.361711 79 195 105
0.449903 0.108951 -0.116944 71 20 102
-0.212278 0.218527 -0.188358 63 71 136
-0.375758 -0.105051 -0.210529 53 92 140
0.045428 0.584545 -0.172817 68 1 84
0.503673 0.194155 0.047384 68 1 84
0.425070 0.453676 0.215424 68 1 84
-0.621879 -0.164922 0.086008 40 123 142
0.617260 -0.187894 0.157038 69 191 111
-0.675842 -0.383128 0.255492 57 185 118
-0.391013 -0.296023 -0.145965 68 1 84
-0.685833 -0.309301 0.376308 57 185 118
-0.593060 -0.420155 0.051150 57 84 139
-0.152066 -0.494446 -0.320638 71 17 99
0.608112 -0.022700 0.294396 35 136 141
0.469954 0.318294 0.084952 68 1 84
0.329595 -0.449681 -0.239002 68 1 84
-0.557313 0.300282 0.205690 69 8 91
-0.607289 0.142299 0.277756 54 90 140
-0.183981 -0.257083 -0.214496 71 15 98
0.537500 0.201703 0.234866 68 1 84
-0.186867 -0.096861 -0.244033 30 152 138
-0.574900 0.009461 0.049912 57 85 139
0.335574 0.556513 0.184445 68 1 84
-0.211369 -0.180361 -0.206689 69 5 88
0.110988 0.520356 -0.203219 68 1 84
0.507683 0.216977 0.083223 68 1 84
-0.624505 0.053258 0.332872 55 89 140
0.619586 -0.210802 0.159862 31 163 134
0.565856 0.004941 0.096715 44 113 142
0.084479 0.151264 -0.287230 32 165 133
0.529637 0.187862 0.449822 68 1 84
-0.269208 0.223370 -0.183051 71 44 123
-0.685297 -0.351373 0.306797 69 191 111
0.140891 -0.447496 -0.265326 68 1 84
0.139863 -0.027219 -0.341762 43 116 142
0.593448 -0.522780 0.188500 37 171 129
-0.521182 0.187486 0.025285 66 64 133
-0.391095 0.150098 -0.172225 68 57 130
-0.618317 0.098969 0.338656 58 82 139
0.320166 0.199543 -0.167257 68 1 84
0.507641 0.266667 0.343021 68 1 84
0.029988 0.530859 -0.218565 68 1 84
-0.472693 0.095345 -0.114920 69 50 127
0.419035 0.378501 0.034526 68 1 84
-0.642797 -0.069091 0.308262 49 100 141
-0.068361 0.280646 -0.263349 44 114 142
0.116144 -0.059319 -0.390509 51 182 121
0.427301 0.369537 0.040691 68 1 84
0.246634 0.236882 -0.154534 71 18 101
0.261863 -0.202371 -0.186715 69 54 129
0.615288 -0.324512 0.145741 54 184 119
-0.075176 -0.033028 -0.373116 68 190 112
0.581969 0.045458 0.463087 38 129 142
0.224839 0.367162 -0.122069 68 1 84
-0.574869 -0.429358 0.016126 63 69 135
-0.702775 -0.539517 0.361118 75 194 108
0.171097 0.000240 -0.233037 58 82 139
-0.236797 -0.383369 -0.275589 68 1 84
-0.600607 0.205648 0.291682 72 34 115
-0.537096 -0.053335 -0.072567 56 86 139
-0.047475 0.055226 -0.272186 49 101 141
0.592378 -0.131108 0.082677 31 146 140
-0.618521 -0.091803 0.128137 51 96 141
0.568160 0.020984 0.150653 54 91 140
-0.706218 -0.581044 0.404527 77 194 107
-0.685562 -0.439281 0.301334 100 203 93
0.249538 0.558967 0.001737 68 1 84
0.626944 -0.289160 0.180754 54 184 119
-0.478947 0.344993 0.051019 68 1 84
-0.569632 -0.432891 0.006235 65 65 134
0.548114 0.052996 0.062971 42 118 142
-0.598965 0.187360 0.263495 69 53 128
-0.678886 -0.266510 0.399863 54 184 119
-0.694625 -0.357476 0.419147 62 188 115
0.407164 0.302626 -0.051658 68 1 84
0.293400 0.136178 -0.196043 64 67 135
-0.234593 -0.225838 -0.212278 68 1 84
0.378454 0.464457 0.059618 68 1 84
-0.184270 0.280505 -0.159311 68 1 84
0.307421 0.351711 -0.087745 68 1 84
-0.506082 0.303332 0.077402 68 1 84
0.235423 0.133654 -0.211281 71 44 123
0.567537 -0.198255 0.029500 32 143 140
-0.583544 0.175853 0.193814 56 87 140
-0.149953 0.595475 -0.077777 68 1 84
0.021813 -0.215685 -0.353946 53 93 140
-0.654996 -0.114323 0.438626 48 104 141
-0.499767 -0.351068 -0.071696 68 1 84
-0.554929 -0.239366 -0.009908 58 83 139
0.427537 -0.069941 -0.159241 58 83 139
-0.600494 -0.157314 0.040238 47 106 141
-0.303984 0.377218 -0.101133 68 1 84
0.057660 -0.498803 -0.310626 72 28 110
0.565958 -0.260680 0.046447 38 129 142
-0.296667 -0.374870 -0.282123 68 1 84
0.620869 -0.403738 0.486267 83 197 103
-0.517545 0.420031 0.323509 68 1 84
-0.033085 0.615161 -0.104809 68 1 84
-0.655577 -0.117276 0.416836 40 123 142
0.563579 -0.563350 0.081801 33 140 141
0.627126 -0.235925 0.455296 151 216 62
0.105305 -0.279166 -0.218155 68 1 84
0.539551 0.098779 0.087065 72 34 115
-0.134805 0.307875 -0.195352 50 99 141
-0.054255 -0.298389 -0.231424 68 1 84
0.471031 -0.439418 -0.123996 69 50 127
0.282239 -0.374500 -0.222107 68 1 84
-0.032823 -0.000265 -0.428144 124 210 79
0.619016 -0.423255 0.473155 167 219 51
0.015571 0.244964 -0.268707 58 83 139
0.188980 -0.210547 -0.200990 70 12 95
-0.343770 0.202391 -0.172228 66 61 132
0.255072 0.063048 -0.212652 63 71 136
-0.276728 0.467617 -0.062685 68 1 84
0.146226 0.423100 -0.181013 68 1 84
-0.340206 0.322426 -0.119650 68 1 84
0.635044 -0.359497 0.341749 199 224 31
0.367541 0.161633 -0.163365 69 5 88
-0.631725 -0.021668 0.286261 53 92 140
0.582955 0.044922 0.459810 41 121 142
0.098778 -0.136446 -0.335334 34 139 141
0.234077 0.513452 -0.091353 68 1 84
0.578717 -0.080443 0.059209 32 165 133
0.164302 0.560311 -0.144550 68 1 84
-0.093508 -0.072630 -0.283435 40 123 142
0.552160 0.108986 0.164571 67 60 132
-0.148620 0.584259 -0.113340 68 1 84
0.009748 0.363617 -0.217617 68 1 84
0.413056 0.270998 -0.065368 68 1 84
-0.454010 -0.034037 -0.167619 59 80 138
-0.268988 0.214168 -0.188740 72 28 110
-0.387599 0.066020 -0.203482 44 114 142
0.041994 -0.270274 -0.316031 55 88 140
0.388860 -0.003879 -0.189051 61 74 137
0.611579 -0.419337 0.176134 30 156 137
-0.606355 -0.416195 0.083379 56 86 139
-0.230888 0.578302 0.011232 68 1 84
-0.687480 -0.335342 0.342313 68 190 112
0.491972 0.066402 -0.070562 67 58 131
-0.549505 0.360971 0.377678 68 1 84
0.618900 -0.122273 0.218695 30 160 135
-0.387271 0.434402 -0.007121 68 1 84
0.626225 -0.309219 0.457493 149 215 63
-0.545956 -0.152949 -0.051534 55 88 140
-0.302560 -0.407004 -0.274671 68 1 84
0.546250 -0.058384 -0.016366 30 152 138
0.632035 -0.123544 0.309212 83 197 103
-0.380832 -0.480381 -0.259104 68 1 84
0.614471 -0.452021 0.329865 173 220 48
-0.273204 0.492644 -0.044793 68 1 84
-0.259881 0.207292 -0.194549 66 61 132
-0.526408 0.366957 0.211251 68 1 84
0.632725 -0.142740 0.292343 43 177 125
0.146193 -0.059318 -0.296396 49 101 141
0.470172 0.244973 0.008508 68 1 84
-0.664014 -0.216006 0.219787 30 151 138
0.523747 -0.001762 -0.040133 42 119 142
0.629156 -0.146779 0.250969 54 184 119
0.346507 -0.369084 -0.216186 66 61 132
-0.242302 0.154658 -0.218276 38 127 142
0.102708 -0.062796 -0.408705 105 204 91
-0.321210 0.490179 -0.013502 68 1 84
-0.195187 -0.016877 -0.249699 31 150 139
-0.281824 -0.436809 -0.282973 68 1 84
-0.262192 -0.364011 -0.269703 68 1 84
-0.003548 0.578162 -0.183972 68 1 84
-0.680006 -0.548901 0.273047 91 200 98
0.558172 0.090535 0.175940 72 34 115
-0.084787 -0.192622 -0.255778 72 30 112
-0.481981 -0.141624 -0.135151 55 88 140
-0.379284 0.237044 -0.134408 68 1 84
-0.492283 0.049464 -0.106548 64 67 135
-0.048760 -0.246025 -0.270068 68 1 84
-0.548499 -0.259066 -0.010083 48 103 141
0.618151 -0.149219 0.509617 37 171 129
0.206290 0.196835 -0.216420 48 103 141
0.580103 -0.059064 0.080438 31 148 139
0.070485 -0.095362 -0.416252 94 201 97
0.321007 0.210462 -0.162435 68 1 84
0.581000 -0.501962 0.129669 31 148 139
0.637848 -0.219917 0.365168 157 217 58
-0.263495 -0.264633 -0.225085 68 1 84
0.585616 -0.022275 0.186430 39 126 142
-0.585418 -0.424686 0.035781 60 78 138
-0.280964 -0.149904 -0.211384 70 11 94
0.634369 -0.185318 0.387454 44 177 125
0.272672 0.298708 -0.117307 68 1 84
0.538823 -0.276364 0.022221 43 115 142
-0.214150 0.584524 0.007622 68 1 84
0.551535 -0.321636 0.044093 42 117 142
-0.610940 -0.072439 0.101921 51 97 141
-0.298914 -0.087500 -0.234123 36 132 141
-0.000476 0.529129 -0.222626 68 1 84
0.450849 -0.314833 -0.038699 52 95 141
0.617032 -0.443439 0.373576 194 223 34
0.568144 -0.164328 0.021808 30 158 136
0.576356 -0.031717 0.099805 33 142 140
0.532310 0.208856 0.213268 69 52 127
-0.676227 -0.250135 0.401017 50 181 122
-0.241479 0.314853 -0.132837 68 1 84
-0.603065 0.145390 0.251728 53 93 140
-0.521399 0.349430 0.177025 68 1 84
0.350358 -0.030363 -0.206701 56 87 140
-0.103757 0.001696 -0.291856 47 179 123
-0.232696 0.237255 -0.174081 68 1 84
-0.629686 0.019063 0.333334 47 106 141
-0.480469 0.309416 0.020847 58 83 139
0.599780 -0.094601 0.144668 31 146 140
0.592883 0.055456 0.399080 61 74 137
0.362365 0.408307 -0.014466 68 1 84
0.518921 0.221589 0.437395 70 45 124
-0.164353 -0.255451 -0.206939 68 1 84
0.204219 -0.498060 -0.287455 68 1 84
-0.304694 0.318366 -0.135643 68 1 84
-0.543621 0.156676 0.080777 42 119 142
0.589499 -0.563686 0.169160 34 167 132
0.071856 -0.343966 -0.253629 68 1 84
-0.679739 -0.437845 0.277875 75 194 108
-0.097174 -0.239759 -0.215231 68 1 84
0.596685 -0.497876 0.206399 59 186 117
0.125272 -0.058488 -0.365507 30 160 135
-0.628305 0.021083 0.424673 41 121 142
0.364026 -0.164619 -0.166608 57 85 139
-0.076800 -0.292523 -0.201594 68 1 84
0.627028 -0.115045 0.278153 44 177 125
0.599558 -0.050178 0.504951 52 94 141
-0.390360 0.077069 -0.198986 40 122 142
-0.695416 -0.565926 0.326446 83 197 103
-0.602503 -0.401995 0.070010 66 61 132
0.520684 0.127738 0.038402 70 11 94
-0.652691 -0.569176 0.195635 35 169 130
0.615357 -0.491855 0.468782 194 223 34
0.409817 0.463437 0.298850 68 1 84
0.624000 -0.131100 0.237211 37 171 129
0.509131 0.261370 0.367132 68 1 84
-0.625926 -0.547173 0.128375 30 159 136
0.184731 -0.060073 -0.234420 71 42 121
-0.701701 -0.574002 0.359101 68 190 112
0.541858 0.125437 0.134408 72 28 110
-0.404344 0.545076 0.213921 68 1 84
0.442387 -0.100232 -0.145184 51 96 141
-0.036780 0.469022 -0.232630 70 9 92
0.630510 -0.121894 0.362633 119 208 82
0.495237 -0.190044 -0.080525 31 149 139
-0.160527 -0.348674 -0.208817 68 1 84
-0.031744 0.097647 -0.284385 83 197 103
-0.103103 0.156681 -0.260145 31 162 134
0.119954 -0.030062 -0.393288 32 165 133
-0.669667 -0.483083 0.244469 39 173 128
-0.113835 -0.421743 -0.258411 68 1 84
-0.632681 -0.214307 0.100654 33 140 141
0.584055 0.040997 0.242717 70 45 124
-0.034597 0.592987 -0.163728 68 1 84
-0.503833 -0.167514 -0.102664 58 82 139
-0.706150 -0.573537 0.402170 75 194 108
0.505192 0.280273 0.248186 68 1 84
0.637905 -0.215542 0.362516 116 208 84
-0.180005 -0.315682 -0.208924 68 1 84
-0.610500 -0.354848 0.083445 56 86 139
-0.328100 -0.159918 -0.201543 67 58 131
0.315282 0.051732 -0.214269 67 60 132
0.174016 -0.022671 -0.234541 55 89 140
-0.682360 -0.313800 0.289907 36 170 130
0.370250 0.071531 -0.192464 67 59 131
0.304725 0.442496 -0.040732 68 1 84
-0.596771 -0.127913 0.033158 53 92 140
-0.416147 -0.293213 -0.119814 68 1 84
-0.265254 0.208843 -0.192438 70 12 95
0.280315 0.447744 -0.058267 68 1 84
0.617612 -0.449622 0.419701 210 225 27
0.011075 0.069010 -0.320064 30 153 138
0.066103 0.294530 -0.277064 46 107 142
0.074544 -0.265521 -0.288061 72 34 115
0.227237 -0.248899 -0.199723 70 14 97
-0.421401 0.179099 -0.131835 71 44 123
-0.499661 0.376540 0.155832 68 1 84
-0.354852 -0.303036 -0.178807 68 1 84
-0.124456 -0.016621 -0.234575 67 59 131
0.521179 0.239959 0.298853 68 1 84
0.059235 -0.408722 -0.275213 68 1 84
0.332875 0.542580 0.099974 68 1 84
0.575704 -0.568299 0.115379 35 136 141
0.322188 -0.211666 -0.167842 61 75 137
0.417769 -0.469602 -0.193705 69 6 90
0.199279 0.149135 -0.231195 54 91 140
-0.640065 -0.082378 0.256606 30 159 136
-0.481353 -0.227042 -0.086261 69 50 127
0.518186 -0.533349 -0.027578 51 96 141
0.597802 -0.047738 0.513908 58 82 139
-0.027389 -0.148040 -0.368478 49 102 141
-0.350336 -0.237444 -0.183633 68 2 85
-0.145816 0.208244 -0.217662 42 119 142
0.336095 0.013877 -0.213241 65 66 134
-0.390655 -0.448534 -0.251513 69 5 88
0.534865 -0.376396 0.023286 48 104 141
0.622993 -0.124418 0.431384 33 167 132
0.620804 -0.087579 0.397274 37 171 129
0.441877 -0.380741 -0.116876 72 28 110
0.216033 0.506542 -0.121271 68 1 84
0.556249 -0.401831 0.049103 42 117 142
-0.033468 0.321462 -0.256974 51 97 141
0.395913 -0.469225 -0.210186 68 3 87
0.324683 -0.273243 -0.187952 70 47 124
0.387261 0.193618 -0.134658 68 1 84
0.609110 -0.578586 0.420032 191 223 36
0.432613 -0.467442 -0.180571 72 26 108
0.567530 -0.106461 0.019584 31 148 139
0.574564 -0.556118 0.115059 31 146 140
-0.082522 -0.141514 -0.275384 49 100 141
-0.695130 -0.408913 0.360184 131 211 75
-0.595120 0.247464 0.334262 71 21 103
-0.665358 -0.204950 0.241896 30 158 136
-0.202498 0.581480 -0.007779 68 1 84
-0.316824 0.588524 0.133643 68 1 84
-0.646572 -0.236203 0.134471 30 151 138
-0.666700 -0.246406 0.212919 30 158 136
-0.480503 0.392943 0.115943 68 1 84
-0.549086 0.359655 0.268286 68 1 84
0.119371 0.474950 -0.207319 68 1 84
