ply
format ascii 1.0
element vertex 1278
property float x
property float y
property float z
property uchar red
property uchar green
property uchar blue
end_header
-0.129692 -0.169975 -0.283864 68 1 84
-0.288716 0.293134 -0.131319 68 57 130
-0.546894 0.046820 0.093701 68 1 84
0.584553 -0.195287 0.306289 68 1 84
0.581720 -0.103959 0.310336 68 1 84
0.554031 0.052291 0.196704 68 1 84
-0.405753 0.349456 0.084417 68 1 84
-0.423010 -0.244252 -0.109573 68 1 84
-0.410388 0.408015 0.170346 68 1 84
-0.122894 -0.363856 -0.242279 41 120 142
0.126127 0.075682 -0.259740 68 1 84
-0.102671 -0.140380 -0.359755 68 1 84
0.527678 -0.347355 0.101519 68 1 84
0.301970 -0.329289 -0.160123 71 21 103
-0.146147 -0.014846 -0.331255 68 1 84
-0.003901 0.027437 -0.458288 68 1 84
-0.458743 0.389469 0.298075 68 1 84
0.376378 -0.151360 -0.142337 68 1 84
-0.201889 0.154835 -0.230009 68 3 87
0.264704 0.052316 -0.189919 68 1 84
-0.135876 0.201052 -0.269001 69 8 91
-0.158203 -0.011647 -0.235450 68 1 84
0.521684 -0.261724 0.057829 72 26 108
0.083789 0.658641 0.004930 68 1 84
0.200598 -0.006145 -0.209645 68 1 84
-0.649608 -0.191334 0.480212 68 1 84
0.461733 -0.423177 -0.024752 54 91 140
-0.455705 0.343207 0.156150 68 1 84
-0.079069 -0.260774 -0.345665 69 52 127
-0.689145 -0.468055 0.374386 68 1 84
0.559146 -0.440305 0.235941 68 1 84
-0.245928 0.542112 0.097233 69 54 129
0.195375 -0.338655 -0.177861 70 48 125
-0.325442 0.291255 -0.091440 71 20 102
-0.642102 -0.486190 0.206470 68 1 84
-0.645303 -0.132107 0.413086 68 1 84
-0.635860 -0.277242 0.216600 68 1 84
0.303324 0.030767 -0.173241 68 1 84
-0.608691 -0.323172 0.152985 68 1 84
0.584795 -0.214722 0.300100 68 1 84
0.368678 0.472078 0.199413 68 1 84
0.579372 -0.310958 0.251202 68 1 84
0.529055 0.128380 0.160049 68 1 84
0.284307 0.171723 -0.186119 72 30 112
0.393161 -0.524297 -0.159556 114 207 85
0.353617 -0.484163 -0.192001 44 177 125
-0.029716 -0.303658 -0.348284 71 42 121
-0.250747 0.097329 -0.196253 68 1 84
0.568133 0.012117 0.475617 68 1 84
0.592363 -0.413748 0.327399 68 1 84
0.053506 -0.034197 -0.460947 68 1 84
-0.580814 0.043789 0.199387 68 1 84
0.077128 -0.114182 -0.360125 71 15 98
0.315559 0.515108 0.064471 72 32 113
0.276283 0.565582 0.008479 53 92 140
0.370235 0.471635 0.208047 68 1 84
0.542625 0.077283 0.169741 68 1 84
-0.242496 -0.298956 -0.178011 64 67 135
-0.358731 0.151373 -0.117977 68 1 84
-0.306910 0.006130 -0.176580 68 1 84
-0.213314 0.089010 -0.212084 68 1 84
-0.441742 0.001955 -0.092813 68 1 84
0.018670 0.036102 -0.386295 68 1 84
-0.571864 -0.481265 0.036411 70 47 124
-0.234853 0.544040 0.071639 61 76 137
0.065839 -0.068657 -0.426106 68 1 84
-0.689545 -0.438757 0.385748 68 1 84
0.146256 0.596301 -0.094353 56 87 140
-0.557316 -0.407006 -0.008567 68 1 84
-0.031017 -0.052106 -0.499393 68 1 84
-0.522536 0.244089 0.476316 68 1 84
-0.577359 0.124582 0.432281 68 1 84
-0.481329 -0.185901 -0.065427 68 1 84
-0.547177 0.087877 0.126453 68 1 84
0.014103 0.573320 -0.140652 56 87 140
0.518760 -0.029823 0.064537 68 1 84
-0.090681 -0.324645 -0.299135 65 66 134
0.411606 0.427579 0.249492 68 1 84
0.552338 -0.073523 0.177801 68 1 84
0.442795 -0.386015 -0.032187 48 104 141
-0.089962 0.515990 -0.107071 63 71 136
0.589456 -0.572842 0.362046 68 1 84
0.168792 0.399113 -0.185116 63 71 136
0.208971 -0.439638 -0.229109 32 144 140
0.559574 -0.582668 0.255386 39 126 142
0.003969 -0.012569 -0.494715 68 1 84
-0.249807 0.434815 -0.054874 71 43 122
0.198665 -0.461237 -0.243143 38 127 142
-0.490086 0.117571 0.031736 68 1 84
-0.234612 -0.429766 -0.269307 36 133 141
0.262350 0.129875 -0.198789 68 1 84
0.554819 0.069208 0.202264 68 1 84
-0.602984 -0.405437 0.141162 68 1 84
0.560247 0.020105 0.506785 68 1 84
0.463915 0.075699 0.006250 68 1 84
-0.145845 -0.050047 -0.278125 68 1 84
-0.335984 0.486742 0.189782 68 1 84
-0.126903 -0.174123 -0.287787 68 1 84
0.284190 -0.428145 -0.217444 33 141 140
-0.484687 -0.151423 -0.071837 68 1 84
-0.703746 -0.424689 0.452949 68 1 84
0.176132 0.600397 -0.069300 61 76 137
-0.360028 0.205089 -0.094835 68 1 84
0.530064 -0.405243 0.137491 69 52 127
0.319673 -0.099686 -0.170465 68 1 84
-0.332178 0.410033 0.041322 68 1 84
0.593594 -0.359841 0.444221 68 1 84
0.390406 -0.051213 -0.124262 68 1 84
-0.507670 0.070078 0.025313 68 1 84
-0.648611 -0.182786 0.512179 68 1 84
-0.386097 0.152735 -0.085721 68 1 84
-0.428708 -0.481833 -0.226238 37 131 141
-0.427921 0.417094 0.331791 68 1 84
0.075496 0.551110 -0.148055 49 100 141
0.421253 -0.444091 -0.099160 43 116 142
0.548460 -0.119656 0.144013 68 1 84
0.232589 -0.024241 -0.201621 68 1 84
-0.344875 -0.197290 -0.161507 68 1 84
0.540847 0.211602 0.315556 68 1 84
-0.002315 -0.176679 -0.427144 70 9 92
0.394935 0.185372 -0.051952 68 1 84
0.553913 -0.575626 0.242328 31 149 139
-0.517623 -0.472767 -0.131087 46 107 142
0.136408 0.627996 -0.057184 56 87 140
0.026594 0.292430 -0.275792 72 30 112
0.060687 -0.214038 -0.320983 59 81 138
0.427592 0.398408 0.319690 68 1 84
-0.482325 0.074227 -0.009807 68 1 84
0.366379 0.472966 0.188480 68 1 84
0.538981 -0.083731 0.113850 68 1 84
0.488975 -0.424951 0.031642 47 105 141
-0.077265 0.467913 -0.139229 54 91 140
-0.707624 -0.496304 0.430847 68 1 84
-0.600912 0.066126 0.304672 68 1 84
-0.071776 0.066640 -0.317767 68 1 84
-0.549419 -0.355318 -0.016318 68 1 84
0.586315 -0.572434 0.304739 64 67 135
0.531920 -0.085007 0.080000 68 1 84
-0.394243 -0.068830 -0.142046 68 1 84
0.270920 -0.500183 -0.252157 31 148 139
-0.338540 -0.445414 -0.255777 50 99 141
0.023999 0.207964 -0.310507 68 1 84
-0.685010 -0.312116 0.422916 68 1 84
-0.579476 -0.485589 0.057544 72 34 115
-0.679235 -0.377725 0.367245 68 1 84
-0.573205 0.164100 0.399933 68 1 84
-0.515714 0.286430 0.423858 68 1 84
-0.508334 0.290628 0.200923 68 1 84
0.547718 0.182080 0.278601 68 1 84
-0.183076 0.598938 0.103135 71 37 117
-0.397328 0.005091 -0.127565 68 1 84
0.587425 -0.090294 0.498450 68 1 84
0.341129 0.426074 0.031332 69 54 129
-0.082697 -0.026183 -0.440929 68 1 84
-0.150870 0.178775 -0.262179 68 1 84
0.111965 0.029781 -0.256439 69 8 91
0.182243 -0.436568 -0.223882 37 131 141
0.064375 0.580682 -0.138478 48 103 141
0.181015 -0.142891 -0.212751 68 3 87
-0.571806 -0.033563 0.083772 68 1 84
0.416466 -0.440149 -0.102996 40 123 142
0.097806 -0.268208 -0.210036 46 108 142
-0.270879 0.378988 -0.086646 70 48 125
0.543543 -0.171288 0.101278 68 1 84
0.142743 0.426155 -0.169206 64 68 135
-0.182602 -0.007120 -0.221117 68 1 84
-0.599187 0.026853 0.258633 68 1 84
-0.309783 0.504389 0.169029 68 1 84
-0.600822 -0.113067 0.134684 68 1 84
0.166491 0.088282 -0.240423 68 1 84
-0.084394 0.272561 -0.242724 67 59 131
-0.257841 0.440908 -0.036947 72 33 114
-0.013458 0.197718 -0.312687 72 28 110
-0.416878 0.168856 -0.035331 68 1 84
-0.451056 -0.355798 -0.149546 62 72 136
-0.209582 0.325401 -0.155714 71 38 118
0.184148 0.634817 0.000835 68 1 84
-0.609218 -0.465305 0.139282 68 1 84
0.388291 0.423069 0.142036 68 1 84
-0.135786 0.149238 -0.267558 68 1 84
-0.300551 0.069932 -0.175902 68 1 84
-0.232224 -0.438452 -0.283723 31 161 135
-0.010963 0.204904 -0.311261 71 21 103
0.392300 -0.459655 -0.143865 33 167 132
-0.400378 -0.177570 -0.135000 68 1 84
-0.541157 -0.330664 -0.012564 68 1 84
0.411546 0.320415 0.063452 68 1 84
0.127405 0.170147 -0.281394 68 1 84
0.576196 0.048562 0.319461 68 1 84
-0.261062 0.296176 -0.154122 67 58 131
0.328545 0.000308 -0.160638 68 1 84
-0.378813 0.460158 0.295397 68 1 84
0.506522 -0.414756 0.075921 62 73 137
-0.344670 0.484819 0.224358 68 1 84
0.005480 0.038593 -0.410998 68 1 84
-0.258212 0.354839 -0.114955 70 48 125
0.485646 -0.139737 -0.036314 68 1 84
-0.282189 0.393432 -0.061815 70 47 124
-0.250030 -0.299001 -0.178773 67 60 132
-0.183659 0.392833 -0.146457 72 34 115
-0.071512 0.214473 -0.297844 67 58 131
0.355180 0.383901 0.018273 68 1 84
0.226213 0.229393 -0.194953 72 25 107
0.573576 0.078257 0.336304 68 1 84
0.496550 -0.001305 0.024391 68 1 84
-0.045411 -0.226773 -0.391673 69 50 127
-0.423695 -0.133423 -0.129546 68 1 84
-0.182441 0.464550 -0.080460 64 67 135
-0.492870 0.292170 0.166840 68 1 84
-0.375690 -0.176299 -0.149736 68 1 84
-0.431268 -0.388131 -0.189073 53 92 140
0.565689 -0.422615 0.243296 68 1 84
0.351272 0.396622 0.023215 72 32 113
-0.292601 0.407607 -0.029576 72 34 115
-0.601378 0.027687 0.268614 68 1 84
0.072299 0.245896 -0.266256 71 40 120
-0.633206 -0.116846 0.276026 68 1 84
-0.135898 0.057832 -0.245249 68 1 84
0.433404 0.132483 -0.012625 68 1 84
0.163788 0.325024 -0.237514 60 78 138
-0.131509 0.591096 -0.044323 63 71 136
-0.511655 0.173818 0.105241 68 1 84
0.021089 -0.094531 -0.474593 68 1 84
-0.197245 -0.398264 -0.231673 30 156 137
0.125284 -0.428708 -0.219391 83 197 103
-0.388504 0.053709 -0.119096 68 1 84
0.447762 -0.515381 -0.059889 35 136 141
-0.628453 -0.472573 0.179971 68 1 84
0.576358 -0.123885 0.270672 68 1 84
0.461210 0.301183 0.164509 68 1 84
-0.414851 0.350315 0.098559 68 1 84
0.510183 -0.259548 0.036255 71 18 101
0.485496 -0.132855 -0.036215 68 1 84
0.450126 0.195294 0.043201 68 1 84
-0.649856 -0.176088 0.429603 68 1 84
-0.056352 0.517989 -0.125538 59 80 138
-0.586032 0.073459 0.493742 68 1 84
0.250879 0.145815 -0.211222 68 1 84
0.091782 -0.088302 -0.357512 68 1 84
0.127716 0.374373 -0.228061 63 71 136
-0.683209 -0.488960 0.339974 68 1 84
-0.037535 -0.203756 -0.409740 72 34 115
-0.578933 0.155178 0.381424 68 1 84
-0.083445 -0.300507 -0.320781 72 29 111
0.136047 0.350584 -0.241112 51 96 141
-0.026510 0.638493 -0.070737 61 76 137
0.195345 0.384582 -0.179026 61 76 137
0.031679 -0.022342 -0.486219 68 1 84
0.550316 -0.040813 0.173742 68 1 84
0.185627 -0.220959 -0.197119 68 1 84
0.451341 0.343823 0.205414 68 1 84
0.503326 -0.051288 0.013377 68 1 84
0.049826 -0.376271 -0.226198 175 220 46
-0.272611 0.105088 -0.186958 68 1 84
0.173993 -0.435236 -0.221926 35 136 141
0.526699 0.208447 0.221833 68 1 84
-0.477072 -0.136745 -0.082875 68 1 84
-0.667385 -0.281515 0.326558 68 1 84
-0.318476 0.092433 -0.163645 68 1 84
0.213177 -0.219680 -0.191870 68 1 84
-0.484376 0.349967 0.375470 68 1 84
0.416631 0.300931 0.053632 71 20 102
0.250057 -0.446559 -0.231890 46 108 142
-0.635718 -0.076793 0.355528 68 1 84
-0.389995 0.021394 -0.128304 68 1 84
-0.040188 -0.089663 -0.485973 68 1 84
-0.084715 -0.087171 -0.443146 68 1 84
-0.470125 0.349477 0.194097 68 1 84
0.157099 -0.276948 -0.184592 53 93 140
0.157256 -0.124101 -0.223407 67 58 131
0.077243 -0.290812 -0.212020 30 155 137
0.059506 0.091339 -0.320362 68 1 84
-0.298332 0.149044 -0.168416 68 1 84
0.229711 -0.306925 -0.182064 71 18 101
-0.196740 -0.473009 -0.316402 33 167 132
-0.237989 -0.199673 -0.192603 70 14 97
-0.093411 -0.132759 -0.394509 68 1 84
0.583147 -0.088222 0.464133 68 1 84
0.403934 0.432547 0.227402 68 1 84
-0.696305 -0.355249 0.492542 68 1 84
-0.163978 0.339914 -0.186764 72 28 110
-0.059736 -0.269596 -0.358702 72 29 111
-0.527085 0.267724 0.222486 68 1 84
-0.209738 0.221734 -0.227147 68 1 84
0.003450 0.041149 -0.404230 68 1 84
-0.548124 0.004639 0.051511 68 1 84
0.282473 0.554228 0.010321 59 81 138
-0.096707 0.649311 0.004384 72 26 108
-0.009338 0.640664 -0.072324 62 73 137
-0.557036 -0.403048 -0.011343 68 1 84
0.523006 0.116097 0.139154 68 1 84
0.248236 0.387160 -0.123273 69 54 129
-0.322412 0.263443 -0.111749 71 38 118
0.452825 0.120438 0.010652 68 1 84
0.412803 0.163997 -0.030931 68 1 84
0.087612 0.370338 -0.247356 61 75 137
0.489904 -0.492565 0.071152 47 105 141
0.312810 0.367767 -0.069718 70 14 97
-0.574267 -0.422026 0.060960 71 38 118
0.589407 -0.315524 0.392572 68 1 84
0.417489 0.278275 0.034193 71 15 98
0.264018 0.491748 -0.049724 49 100 141
0.568805 0.062389 0.429203 68 1 84
0.506621 -0.030456 0.030949 68 1 84
-0.209865 0.538768 0.010036 54 91 140
0.423860 -0.220322 -0.089578 68 1 84
0.591766 -0.192911 0.530475 68 1 84
0.100122 0.039084 -0.272178 71 20 102
0.275094 0.291625 -0.141458 66 62 133
0.078643 -0.100197 -0.372360 68 1 84
0.593794 -0.436123 0.394870 68 1 84
-0.061276 -0.415468 -0.306685 35 135 141
0.578136 -0.018947 0.407578 68 1 84
-0.161537 0.108773 -0.240773 68 1 84
0.415526 0.415950 0.228675 68 1 84
0.315197 -0.517841 -0.233124 114 207 85
0.557027 -0.094911 0.193150 68 1 84
-0.044415 0.326070 -0.274441 69 53 128
-0.564452 0.193238 0.265911 68 1 84
0.086076 -0.176566 -0.292446 63 69 135
0.076875 -0.288922 -0.214560 30 153 138
0.000288 -0.081740 -0.490534 68 1 84
0.412273 0.422090 0.287140 68 1 84
-0.113820 0.045934 -0.289809 68 1 84
0.581074 -0.086482 0.451567 68 1 84
0.291444 0.506968 -0.008770 56 86 139
-0.316871 0.437114 0.053083 70 14 97
0.512540 0.190935 0.165770 68 1 84
0.095623 -0.442131 -0.267673 157 217 58
-0.488904 0.083042 0.005125 68 1 84
0.548530 -0.252088 0.129276 68 1 84
0.479978 -0.086986 -0.037144 68 1 84
0.164048 0.434540 -0.151254 64 67 135
-0.657878 -0.226818 0.311568 68 1 84
0.053334 -0.215997 -0.333542 60 77 138
0.361265 -0.575739 -0.192999 121 209 81
0.226669 -0.029181 -0.203043 68 1 84
0.597086 -0.421599 0.422322 68 1 84
-0.674340 -0.398887 0.336433 68 1 84
0.117821 -0.131488 -0.254592 67 58 131
-0.532407 -0.472157 -0.101958 59 81 138
-0.611320 -0.361264 0.162226 68 1 84
-0.213007 -0.404988 -0.236853 31 148 139
0.449574 0.296055 0.129258 68 1 84
-0.390648 0.048301 -0.119121 68 1 84
-0.123568 -0.250569 -0.258245 71 38 118
0.074782 0.059454 -0.303690 71 15 98
-0.157510 -0.161442 -0.246391 68 2 85
-0.281397 0.201253 -0.174287 68 1 84
0.065977 -0.143738 -0.359648 68 1 84
-0.654093 -0.199869 0.438961 68 1 84
0.517308 0.212588 0.198107 68 1 84
-0.638242 -0.382693 0.230632 68 1 84
-0.457119 0.373425 0.408815 68 1 84
-0.005570 -0.424916 -0.307522 87 198 101
-0.465849 0.368189 0.389863 68 1 84
0.294608 0.536434 0.023780 61 76 137
-0.345162 0.226403 -0.103770 71 15 98
-0.591348 -0.160540 0.089801 68 1 84
0.179729 -0.081525 -0.214667 72 28 110
0.549568 0.162352 0.463482 68 1 84
0.127969 -0.291940 -0.182766 43 116 142
0.485775 0.067301 0.038740 68 1 84
0.502842 0.291711 0.366336 68 1 84
0.410437 0.326456 0.068164 68 1 84
0.500856 0.294818 0.337657 68 1 84
0.553349 -0.534247 0.241700 59 80 138
-0.030588 0.424087 -0.203328 61 75 137
-0.599985 0.051590 0.443193 68 1 84
-0.488896 -0.274772 -0.044216 69 5 88
0.405902 0.188670 -0.032781 68 1 84
0.025244 0.432109 -0.197919 54 91 140
-0.620929 -0.264078 0.179304 68 1 84
0.559286 -0.240146 0.163703 68 1 84
0.106461 0.295618 -0.270739 64 67 135
-0.596776 0.083740 0.302107 68 1 84
0.557872 -0.571488 0.249442 42 119 142
-0.530010 -0.036918 -0.009455 68 1 84
-0.018747 0.032263 -0.434528 68 1 84
0.586937 -0.254160 0.302314 68 1 84
0.285265 0.026220 -0.182015 68 1 84
-0.436684 0.404324 0.364762 68 1 84
-0.602909 0.076222 0.380251 68 1 84
0.582934 -0.303530 0.432013 68 1 84
-0.309881 0.414227 0.010207 68 1 84
-0.050422 0.502586 -0.132677 57 85 139
-0.680810 -0.290093 0.412777 68 1 84
-0.056538 -0.235231 -0.380238 70 49 126
0.072252 -0.183172 -0.315893 69 54 129
0.317600 0.133317 -0.156764 68 1 84
-0.582875 0.130015 0.404081 68 1 84
0.378223 -0.470930 -0.163173 34 167 132
-0.514946 0.239342 0.508968 68 1 84
-0.606148 0.065028 0.377519 68 1 84
0.583949 -0.083606 0.347841 68 1 84
-0.559510 0.148282 0.198505 68 1 84
0.279872 0.339379 -0.122955 69 50 127
-0.211084 0.263708 -0.202689 70 9 92
0.142911 -0.146597 -0.231015 64 67 135
-0.028890 0.001249 -0.481445 68 1 84
-0.693808 -0.486639 0.383858 68 1 84
0.111507 0.161364 -0.290433 68 1 84
-0.091623 0.037647 -0.308466 68 1 84
-0.612389 -0.440026 0.156526 68 1 84
-0.582302 0.121979 0.417044 68 1 84
-0.692467 -0.348832 0.440144 68 1 84
-0.445801 0.387289 0.209055 68 1 84
0.092689 0.306735 -0.276464 63 71 136
-0.577126 -0.290409 0.068475 68 1 84
0.431125 0.098862 -0.029766 68 1 84
-0.339359 -0.335418 -0.165058 56 87 140
-0.603153 -0.048084 0.210339 68 1 84
0.095701 -0.083587 -0.355026 68 1 84
0.521532 -0.583133 0.174803 36 134 141
-0.269525 -0.053678 -0.188418 68 1 84
0.211848 0.468188 -0.101024 49 100 141
-0.394762 -0.026098 -0.135432 68 1 84
0.050961 0.081569 -0.326788 68 1 84
-0.711163 -0.499575 0.461841 68 1 84
0.040824 0.040440 -0.346226 68 1 84
0.517757 -0.421859 0.112388 63 71 136
-0.270974 -0.457326 -0.286978 30 155 137
-0.006449 0.312443 -0.281206 70 47 124
0.510696 -0.324990 0.059725 65 65 134
0.197153 -0.224592 -0.193607 68 1 84
-0.032009 0.456588 -0.165236 48 104 141
-0.069727 -0.488682 -0.321923 33 141 140
0.536979 0.213812 0.281266 68 1 84
-0.302991 -0.018307 -0.177817 68 1 84
-0.598538 -0.041819 0.196891 68 1 84
-0.487847 0.130546 0.036791 68 1 84
-0.314978 -0.251463 -0.177560 72 30 112
-0.690919 -0.317823 0.497842 68 1 84
0.567158 0.071954 0.433771 68 1 84
-0.655811 -0.198139 0.418893 68 1 84
-0.061097 0.024927 -0.348079 68 1 84
-0.129003 -0.220140 -0.267106 69 6 90
0.538505 -0.553636 0.208505 41 120 142
0.548282 0.096792 0.510310 68 1 84
-0.579011 0.033728 0.186558 68 1 84
0.452377 -0.462797 -0.057916 42 117 142
-0.384384 0.456320 0.270881 68 1 84
-0.031861 -0.484735 -0.322774 30 157 136
-0.366445 0.448949 0.163179 68 1 84
-0.212139 0.229252 -0.223085 68 1 84
0.303228 0.169762 -0.167337 70 11 94
0.118248 0.369355 -0.236207 52 95 141
-0.567266 -0.067638 0.046841 68 1 84
-0.057357 0.008410 -0.370511 68 1 84
0.126465 0.275945 -0.254310 63 71 136
-0.401228 -0.140722 -0.142596 68 1 84
-0.607695 -0.167371 0.138941 68 1 84
0.294361 -0.262526 -0.159737 71 39 119
0.372865 0.212525 -0.077494 70 11 94
0.374303 0.426702 0.108071 68 1 84
0.405692 0.092148 -0.068571 68 1 84
0.335954 0.244742 -0.113878 71 20 102
0.062535 0.062919 -0.318286 68 2 85
-0.062635 0.415258 -0.205511 69 53 128
0.146521 -0.423074 -0.209108 38 172 129
-0.424999 0.150265 -0.035496 68 1 84
0.494728 -0.424519 0.046127 54 90 140
0.514584 -0.284293 0.052614 72 32 113
-0.154277 -0.114477 -0.252025 68 1 84
-0.037796 0.357520 -0.263844 69 54 129
0.358822 0.406556 0.050003 71 37 117
0.597987 -0.379243 0.503300 68 1 84
0.334956 -0.168866 -0.164648 68 1 84
-0.504510 -0.424544 -0.146865 53 93 140
0.281027 -0.418902 -0.214288 38 129 142
0.571266 -0.182918 0.233276 68 1 84
0.445712 0.250832 0.071720 68 1 84
0.474294 0.334334 0.298957 68 1 84
-0.148688 -0.404910 -0.276233 37 171 129
-0.290144 0.366108 -0.078773 72 35 116
0.439986 0.381748 0.333194 68 1 84
0.579823 -0.259103 0.481408 68 1 84
0.291922 0.114439 -0.175647 68 1 84
0.382038 -0.468474 -0.158210 44 177 125
-0.531566 0.266389 0.402729 68 1 84
-0.314070 0.306287 -0.096446 71 15 98
-0.109643 -0.090555 -0.383972 68 1 84
-0.020231 0.204664 -0.311427 72 34 115
-0.066692 0.658318 0.000570 68 1 84
-0.645433 -0.132142 0.341238 68 1 84
0.580977 -0.021886 0.385139 68 1 84
0.057274 -0.172142 -0.354229 72 32 113
0.170218 -0.304999 -0.181889 68 57 130
-0.579849 -0.445006 0.075696 71 21 103
0.492360 0.307309 0.313508 68 1 84
-0.090355 0.483524 -0.121374 65 65 134
-0.121727 0.170646 -0.278867 68 1 84
-0.143346 0.425495 -0.151916 67 60 132
0.538391 -0.473505 0.195923 61 75 137
0.233614 -0.178863 -0.195982 68 1 84
0.270356 0.429662 -0.068883 55 88 140
-0.657548 -0.219022 0.471232 68 1 84
-0.024133 0.472990 -0.156275 55 88 140
-0.476810 0.360190 0.239480 68 1 84
0.204314 -0.330591 -0.181183 70 45 124
0.122997 -0.044699 -0.332040 72 32 113
0.557591 -0.117152 0.191201 68 1 84
-0.131778 -0.140536 -0.286232 68 1 84
-0.230844 0.562333 0.127568 71 39 119
0.471517 -0.287238 -0.004837 72 26 108
-0.695594 -0.342606 0.465436 68 1 84
0.189946 0.315726 -0.219561 66 62 133
-0.400438 0.294913 0.028049 68 1 84
0.308592 0.125223 -0.164153 68 1 84
0.339163 -0.341078 -0.128290 59 80 138
-0.132562 -0.338079 -0.202867 49 101 141
0.360554 0.395438 0.042054 72 32 113
0.156231 0.618742 -0.060041 57 84 139
0.258631 -0.139391 -0.191583 68 1 84
0.374718 -0.320111 -0.095273 46 107 142
-0.614772 -0.116186 0.192264 68 1 84
-0.082947 0.265331 -0.249034 66 62 133
-0.503617 0.326533 0.255593 68 1 84
0.063997 0.155300 -0.312824 68 1 84
-0.263625 0.391201 -0.083236 69 53 128
0.255181 0.548381 -0.041822 46 108 142
0.443007 -0.373639 -0.025921 57 85 139
0.373115 -0.372240 -0.096637 43 116 142
-0.637441 -0.422251 0.215153 68 1 84
-0.085293 -0.061915 -0.448147 68 1 84
-0.259353 0.293121 -0.157612 69 54 129
-0.610260 -0.377728 0.160577 68 1 84
0.478424 0.326247 0.382634 68 1 84
-0.488270 0.346560 0.247795 68 1 84
-0.485811 -0.332511 -0.090666 71 18 101
0.029283 -0.248510 -0.357569 44 112 142
0.168617 0.139516 -0.258531 68 1 84
0.507033 0.224786 0.184652 68 1 84
-0.388385 0.191454 -0.063064 68 1 84
0.047828 0.201292 -0.309135 70 48 125
-0.666920 -0.417665 0.297785 68 1 84
0.431126 0.293292 0.081001 68 1 84
-0.448481 0.174052 0.009202 68 1 84
0.050246 -0.012649 -0.458075 68 1 84
0.579190 -0.257396 0.243247 68 1 84
0.068597 -0.275026 -0.246305 33 140 141
0.359233 0.282922 -0.070047 68 1 84
-0.285508 0.491548 0.081253 69 54 129
0.590263 -0.317468 0.370722 68 1 84
-0.478022 -0.070541 -0.081259 68 1 84
0.526568 0.222115 0.241079 68 1 84
0.306646 -0.216230 -0.169821 68 1 84
-0.462781 0.385088 0.303172 68 1 84
0.587225 -0.288533 0.307014 68 1 84
-0.043657 -0.379872 -0.309493 42 118 142
-0.309184 0.295151 -0.108828 71 39 119
-0.071697 0.014679 -0.335126 68 1 84
0.329509 0.452426 0.026932 55 88 140
0.342192 0.310398 -0.076319 68 1 84
-0.241870 0.168393 -0.207267 68 1 84
0.033016 -0.351662 -0.264463 210 225 27
0.414729 0.144141 -0.035568 68 1 84
0.090452 0.643581 -0.050613 62 73 137
-0.259952 -0.263552 -0.185364 70 48 125
-0.308373 0.120002 -0.166456 68 1 84
-0.407179 -0.246123 -0.124904 68 1 84
-0.255296 0.360158 -0.113624 70 45 124
0.476252 0.014105 -0.004146 68 1 84
-0.354293 0.458091 0.156327 68 1 84
0.575455 0.061577 0.336973 68 1 84
0.023469 0.493255 -0.159348 62 73 137
0.419326 -0.468783 -0.116876 40 122 142
-0.636157 -0.301934 0.219005 68 1 84
0.230227 -0.291939 -0.180478 72 28 110
0.447809 0.186492 0.034922 68 1 84
0.487543 -0.337270 0.029299 71 37 117
0.328225 0.035008 -0.157858 68 1 84
0.457143 -0.121937 -0.072049 68 1 84
-0.454107 0.032777 -0.066503 68 1 84
0.570128 0.080589 0.288201 68 1 84
-0.072258 0.623902 -0.066093 53 93 140
0.572989 0.077219 0.315504 68 1 84
-0.522237 -0.238940 -0.005617 68 1 84
0.058930 -0.015909 -0.359658 68 1 84
-0.343353 -0.113166 -0.167166 68 1 84
-0.676705 -0.304931 0.374240 68 1 84
0.041686 0.443055 -0.185822 61 75 137
-0.505233 0.297343 0.438710 68 1 84
0.319303 -0.575144 -0.231574 141 214 68
0.171818 0.022051 -0.219404 68 1 84
-0.037737 0.038606 -0.377541 68 1 84
-0.569412 -0.029515 0.079391 68 1 84
0.445372 0.123105 0.000667 68 1 84
0.449676 -0.388951 -0.025074 54 90 140
-0.112230 -0.261618 -0.275367 69 53 128
-0.635302 -0.050683 0.464775 68 1 84
-0.005406 0.034059 -0.446016 68 1 84
-0.399146 -0.003370 -0.128167 68 1 84
-0.337197 -0.115824 -0.169198 68 1 84
0.595113 -0.591640 0.427338 68 1 84
-0.528553 0.290919 0.298176 68 1 84
0.050313 -0.072685 -0.454837 68 1 84
-0.482556 -0.259133 -0.048225 71 21 103
0.213723 0.183180 -0.230066 71 15 98
-0.643445 -0.123587 0.338764 68 1 84
-0.533541 -0.234061 0.006055 68 1 84
-0.261913 0.280661 -0.164698 69 52 127
-0.513553 -0.476284 -0.137941 48 104 141
0.090842 0.302947 -0.275967 64 68 135
-0.162480 0.540890 -0.042586 53 93 140
0.168669 0.442635 -0.142115 69 53 128
0.378987 0.399993 0.084809 68 1 84
0.386644 0.424844 0.140274 68 1 84
0.537005 -0.113913 0.086735 68 1 84
0.082657 0.658704 0.003164 68 1 84
-0.019312 0.490170 -0.150906 66 64 133
-0.606638 -0.247505 0.138244 68 1 84
-0.602342 0.073323 0.392890 68 1 84
0.551156 0.103695 0.206291 68 1 84
0.499607 0.215688 0.159019 68 1 84
0.194558 -0.491438 -0.272800 54 184 119
-0.344293 0.261368 -0.083900 68 3 87
-0.368702 0.119774 -0.116505 68 1 84
0.274986 0.579475 0.077405 71 17 99
-0.107534 0.376244 -0.217449 66 64 133
0.257024 0.073865 -0.193656 68 1 84
0.250269 -0.276561 -0.175348 70 9 92
0.580678 -0.523689 0.302071 69 8 91
0.579576 0.010388 0.360439 68 1 84
-0.452983 0.103945 -0.027021 68 1 84
-0.073805 0.562418 -0.104092 61 74 137
0.299189 -0.062486 -0.178704 68 1 84
-0.346171 0.398376 0.048533 68 1 84
-0.058093 0.546279 -0.118435 66 64 133
-0.581298 0.082318 0.227295 68 1 84
-0.674534 -0.260092 0.434977 68 1 84
0.159448 0.175283 -0.263431 68 1 84
-0.054390 -0.243216 -0.377226 69 52 127
0.578820 -0.272155 0.240603 68 1 84
-0.088680 0.653281 0.016460 68 1 84
0.580237 -0.176264 0.280863 68 1 84
-0.593920 -0.202832 0.099861 68 1 84
0.372197 -0.350220 -0.091252 54 90 140
0.539831 0.193777 0.483237 68 1 84
-0.045411 -0.010260 -0.481831 68 1 84
-0.504747 0.296375 0.442498 68 1 84
0.330291 0.503385 0.109782 68 1 84
-0.657482 -0.234364 0.303441 68 1 84
-0.126039 -0.351973 -0.218880 41 121 142
0.533844 -0.030000 0.115397 68 1 84
-0.525505 -0.069628 -0.025940 68 1 84
0.414899 -0.149210 -0.113834 68 1 84
-0.540036 -0.054498 0.000264 68 1 84
0.210734 -0.434075 -0.226312 35 136 141
0.589988 -0.313154 0.369043 68 1 84
-0.011106 0.315034 -0.281905 70 48 125
-0.637214 -0.075303 0.376321 68 1 84
-0.102757 0.590623 -0.070218 62 73 137
-0.358276 0.475049 0.287052 68 1 84
-0.453565 -0.264870 -0.077567 71 15 98
-0.657664 -0.205421 0.417556 68 1 84
-0.059466 0.440239 -0.176504 60 78 138
0.446561 0.376167 0.283841 68 1 84
0.524101 -0.005497 0.093408 68 1 84
0.580894 -0.059452 0.317371 68 1 84
-0.668938 -0.422670 0.304952 68 1 84
0.232747 -0.320326 -0.181563 71 24 106
0.172219 0.612326 -0.057926 63 71 136
-0.452352 0.393670 0.262405 68 1 84
0.330456 0.365397 -0.047507 68 1 84
0.554039 0.171677 0.374639 68 1 84
-0.432379 -0.413914 -0.201557 51 97 141
-0.063236 -0.398445 -0.304442 42 118 142
0.190648 0.147072 -0.248372 68 1 84
0.485801 -0.000166 0.004973 68 1 84
0.570236 0.079737 0.403008 68 1 84
-0.122651 -0.296206 -0.224746 56 87 140
-0.419643 -0.487972 -0.233016 35 136 141
0.433220 -0.453726 -0.087271 48 104 141
-0.561126 -0.425101 0.015461 71 37 117
0.029446 -0.315364 -0.296644 57 185 118
0.202407 0.249090 -0.196222 71 37 117
-0.378999 0.460495 0.278673 68 1 84
0.115970 0.462355 -0.155666 63 69 135
0.393652 0.402728 0.123466 68 1 84
0.517729 0.261406 0.414033 68 1 84
-0.155604 -0.027380 -0.241959 68 1 84
-0.346650 0.121684 -0.137446 68 1 84
-0.597001 -0.089024 0.137012 68 1 84
0.428779 0.347013 0.139693 68 1 84
0.567235 -0.335083 0.212535 68 1 84
-0.527711 0.053752 0.050585 68 1 84
0.315618 -0.335367 -0.149838 66 61 132
-0.507112 0.013557 -0.016973 68 1 84
-0.667694 -0.242604 0.448825 68 1 84
0.585432 -0.333026 0.473797 68 1 84
-0.567302 0.195863 0.294296 68 1 84
0.310056 -0.005299 -0.171613 68 1 84
0.519331 -0.426118 0.118921 60 77 138
-0.615804 -0.248029 0.163056 68 1 84
-0.553527 0.225470 0.382009 68 1 84
-0.211480 0.499852 -0.025744 66 62 133
-0.495236 0.345344 0.296187 68 1 84
-0.367187 0.465241 0.217029 68 1 84
-0.119912 0.415211 -0.178424 71 39 119
-0.122950 -0.182314 -0.292758 68 1 84
0.550188 -0.221393 0.130930 68 1 84
-0.611945 0.018336 0.445103 68 1 84
-0.256665 0.545781 0.197458 68 1 84
0.553381 0.103205 0.213627 68 1 84
0.249216 -0.005897 -0.196249 68 1 84
0.500811 0.045395 0.058016 68 1 84
0.500818 0.156212 0.116281 68 1 84
-0.636231 -0.392987 0.224920 68 1 84
0.013168 -0.405606 -0.296103 100 203 93
-0.612211 -0.225647 0.151325 68 1 84
-0.119808 -0.307941 -0.225055 54 90 140
-0.340557 -0.371148 -0.220448 45 111 142
0.277381 0.293571 -0.139077 71 42 121
0.123408 0.294186 -0.263150 63 69 135
-0.309970 0.248359 -0.132432 72 29 111
-0.346864 -0.344652 -0.178036 61 76 137
0.544736 0.091484 0.526660 68 1 84
-0.118250 -0.087528 -0.355658 68 1 84
0.551014 -0.106586 0.162805 68 1 84
-0.578650 0.133769 0.260227 68 1 84
0.440802 -0.305773 -0.031588 67 59 131
0.573704 -0.091694 0.262236 68 1 84
-0.231781 0.543736 0.063011 61 75 137
0.369416 0.090361 -0.116070 70 11 94
0.310025 0.079121 -0.166512 68 1 84
0.213007 0.621260 -0.003039 70 47 124
0.197869 -0.529774 -0.293153 81 196 104
-0.582550 -0.474737 0.070393 71 38 118
0.484725 0.248737 0.158606 68 1 84
-0.436907 0.036560 -0.081901 68 1 84
-0.166495 -0.271846 -0.192170 53 92 140
0.557509 0.162323 0.340120 68 1 84
0.536346 0.209230 0.464827 68 1 84
-0.023078 0.528571 -0.141605 54 91 140
-0.164252 -0.273412 -0.192831 56 86 139
0.010337 0.303412 -0.279280 71 38 118
-0.188515 0.581444 0.035741 63 71 136
0.230953 -0.271013 -0.180139 69 5 88
0.298877 0.185905 -0.170886 72 26 108
-0.134791 -0.165234 -0.276723 68 1 84
0.324825 -0.307219 -0.141808 72 25 107
-0.249113 0.464487 -0.018218 72 32 113
-0.395681 0.315684 0.037504 68 1 84
-0.327478 -0.155390 -0.174312 68 1 84
0.526100 0.236598 0.449745 68 1 84
0.259807 0.594707 0.068475 70 12 95
0.508141 -0.393254 0.071451 60 78 138
0.589464 -0.115845 0.477261 68 1 84
-0.686350 -0.301678 0.456507 68 1 84
0.552044 -0.124980 0.162308 68 1 84
0.470747 -0.251602 -0.022127 68 1 84
0.385131 -0.068467 -0.131185 68 1 84
0.582294 -0.103037 0.445951 68 1 84
-0.160841 -0.264756 -0.195640 62 73 137
0.323333 -0.153680 -0.169649 68 1 84
-0.427962 0.416274 0.338901 68 1 84
0.028574 -0.272680 -0.339727 40 122 142
-0.589240 -0.049501 0.145763 68 1 84
0.203519 0.618002 -0.024110 69 50 127
0.570077 0.079572 0.286494 68 1 84
-0.043431 -0.006982 -0.480656 68 1 84
-0.342563 0.487298 0.242730 68 1 84
-0.154051 -0.425546 -0.297986 79 195 105
0.004615 -0.174073 -0.425599 69 5 88
0.374104 -0.212623 -0.134245 68 1 84
-0.043277 0.032054 -0.376310 68 1 84
0.283673 -0.402510 -0.184675 58 82 139
-0.375777 0.358041 0.047900 68 1 84
-0.166517 0.583286 -0.007197 61 76 137
-0.614196 -0.056220 0.253540 68 1 84
-0.126123 0.532111 -0.077198 71 44 123
-0.632924 -0.053128 0.447091 68 1 84
0.584189 -0.085443 0.350615 68 1 84
0.577739 -0.061102 0.522222 68 1 84
-0.440186 0.202661 0.017770 68 1 84
0.101797 0.654029 -0.005356 71 21 103
0.098185 -0.175752 -0.271903 62 72 136
0.470992 0.047811 0.004049 68 1 84
-0.177936 0.523962 -0.038043 58 82 139
-0.269533 -0.359929 -0.203082 40 122 142
-0.530631 0.072984 0.075570 68 1 84
0.506410 0.182424 0.145280 68 1 84
0.311564 -0.330344 -0.153172 71 40 120
-0.394308 -0.009837 -0.132703 68 1 84
0.446842 0.157492 0.019239 68 1 84
-0.468151 -0.468166 -0.193687 37 130 142
-0.207074 0.053324 -0.211690 68 1 84
0.571010 -0.360301 0.235716 68 1 84
0.053593 -0.423619 -0.279384 159 217 56
0.010854 -0.067188 -0.492148 68 1 84
-0.668670 -0.254172 0.364109 68 1 84
-0.502185 0.293996 0.456224 68 1 84
0.510204 0.088045 0.098066 68 1 84
-0.277133 0.284321 -0.148244 68 57 130
0.464369 -0.190571 -0.056988 68 1 84
0.063029 0.363926 -0.259726 61 74 137
-0.149225 -0.083763 -0.258342 68 1 84
0.439317 -0.177245 -0.088067 68 1 84
0.493110 0.262916 0.195009 68 1 84
-0.557517 0.191068 0.231434 68 1 84
0.260675 0.509610 -0.049016 43 116 142
0.021721 0.382684 -0.248526 68 57 130
0.364154 -0.202587 -0.143875 68 1 84
0.499961 0.030409 0.048488 68 1 84
0.440944 -0.249003 -0.057635 72 29 111
0.115461 0.619829 -0.084530 54 90 140
0.367498 -0.076408 -0.144198 68 1 84
0.256002 0.326618 -0.151440 69 53 128
-0.127431 0.566988 -0.062156 66 64 133
0.257641 -0.435156 -0.227327 46 109 142
0.587929 -0.332346 0.322937 68 1 84
0.558365 0.125534 0.256275 68 1 84
0.242228 -0.556662 -0.279236 30 153 138
0.311594 -0.310813 -0.152349 72 29 111
-0.656944 -0.219496 0.486826 68 1 84
0.512323 -0.415957 0.093903 66 61 132
-0.476738 0.251356 0.104500 68 1 84
-0.151920 0.590834 -0.020663 65 66 134
0.538655 -0.563492 0.209253 43 115 142
0.510002 0.060203 0.084114 68 1 84
0.457022 -0.044876 -0.054475 68 1 84
-0.127246 0.354961 -0.216353 70 49 126
0.581017 -0.012821 0.361230 68 1 84
-0.372578 -0.509737 -0.264350 46 108 142
-0.074729 -0.098965 -0.453022 68 1 84
-0.067733 -0.005646 -0.440990 68 1 84
-0.443519 0.404344 0.317133 68 1 84
-0.115744 0.642280 0.021772 71 24 106
0.474593 -0.430395 -0.002822 60 77 138
0.153683 0.327626 -0.243625 65 66 134
0.587112 -0.243926 0.309694 68 1 84
-0.369088 -0.096266 -0.157091 68 1 84
-0.512740 -0.009942 -0.022122 68 1 84
-0.379750 -0.362525 -0.205553 54 90 140
0.087155 0.056169 -0.288042 68 1 84
-0.007432 0.356148 -0.270325 64 68 135
-0.647087 -0.175566 0.493769 68 1 84
0.590534 -0.200313 0.522372 68 1 84
-0.254975 0.533589 0.099335 65 65 134
0.584471 -0.430145 0.296733 68 1 84
0.588146 -0.271070 0.319464 68 1 84
-0.610422 -0.486449 0.133199 68 1 84
0.286249 0.545812 0.010770 56 87 140
0.161150 -0.380953 -0.171428 30 156 137
0.529320 -0.396332 0.130985 72 33 114
0.587684 -0.587545 0.331397 65 65 134
-0.220360 -0.446602 -0.299110 53 183 120
-0.694586 -0.410427 0.416223 68 1 84
0.473794 0.327463 0.260154 68 1 84
0.360569 0.385645 0.030937 68 1 84
0.508953 0.025547 0.066002 68 1 84
0.030173 0.485908 -0.162077 61 74 137
-0.129050 -0.421148 -0.300507 81 196 104
0.027655 0.418272 -0.213123 67 59 131
0.211164 0.215944 -0.213764 71 38 118
0.331231 0.159906 -0.141361 71 38 118
0.401038 -0.082760 -0.120286 68 1 84
-0.385692 0.416916 0.139482 68 1 84
0.588776 -0.585987 0.368158 71 22 105
-0.328182 0.347371 -0.044212 70 48 125
-0.450703 0.171140 0.010206 68 1 84
0.121633 -0.340645 -0.165999 43 115 142
-0.027348 -0.362204 -0.312511 42 118 142
0.238113 0.299123 -0.174631 69 52 127
0.582688 -0.064339 0.338434 68 1 84
0.580060 -0.225743 0.440077 68 1 84
-0.146159 -0.031617 -0.288843 68 1 84
0.334999 0.502030 0.131077 69 5 88
0.069770 0.497705 -0.158079 61 75 137
-0.379629 -0.212206 -0.140891 68 1 84
-0.568920 -0.379146 0.032718 68 1 84
0.548400 0.015767 0.172484 68 1 84
-0.191421 -0.332967 -0.171375 46 107 142
-0.570223 -0.034748 0.076722 68 1 84
-0.518799 0.279368 0.426961 68 1 84
-0.259205 0.070440 -0.194211 68 1 84
0.251875 0.540844 -0.048671 52 95 141
-0.342507 0.160343 -0.132429 68 1 84
0.173468 -0.123851 -0.216363 56 86 139
-0.637291 -0.077084 0.371312 68 1 84
-0.627684 -0.015083 0.470641 68 1 84
0.595055 -0.400480 0.411538 68 1 84
0.587084 -0.186198 0.337611 68 1 84
-0.652612 -0.445570 0.239250 68 1 84
-0.389601 -0.209189 -0.134690 68 1 84
0.588481 -0.251790 0.372062 68 1 84
-0.580504 -0.405250 0.079425 70 11 94
-0.152755 -0.370728 -0.207795 42 117 142
0.541763 -0.225139 0.101822 68 1 84
0.104581 -0.031923 -0.361688 68 1 84
0.554575 0.167755 0.384240 68 1 84
-0.581284 0.145122 0.387738 68 1 84
0.291878 0.504968 -0.009056 55 89 140
-0.139966 0.628750 0.036039 71 18 101
0.303254 0.101332 -0.168927 68 1 84
-0.645569 -0.150179 0.430738 68 1 84
0.328499 -0.356671 -0.134227 50 99 141
0.220152 0.350935 -0.179375 64 67 135
-0.515792 -0.376204 -0.095987 61 75 137
0.344904 0.495719 0.203834 68 1 84
-0.639042 -0.095210 0.353065 68 1 84
-0.349251 -0.455789 -0.258700 39 125 142
-0.043915 -0.336535 -0.324663 56 87 140
-0.146479 -0.370781 -0.212298 38 127 142
0.507257 -0.259186 0.031567 68 1 84
-0.661771 -0.232411 0.524904 68 1 84
-0.150963 -0.462307 -0.319353 30 157 136
0.488755 -0.247806 -0.000126 68 1 84
0.593291 -0.411145 0.338612 68 1 84
-0.471353 -0.449844 -0.185784 39 125 142
0.595349 -0.156101 0.509648 68 1 84
-0.355884 0.471452 0.200553 68 1 84
-0.471147 0.357322 0.406461 68 1 84
-0.555708 0.186770 0.443285 68 1 84
0.572823 -0.165485 0.246067 68 1 84
0.399260 0.408037 0.148522 68 1 84
0.365620 0.218393 -0.086218 70 11 94
0.057002 0.153770 -0.313324 68 1 84
-0.238045 -0.229025 -0.188405 67 60 132
-0.206059 0.571358 0.059635 57 84 139
0.145046 -0.167133 -0.226370 64 68 135
0.559196 0.129169 0.266929 68 1 84
-0.130263 0.421460 -0.165513 72 33 114
0.587261 -0.608059 0.363207 72 28 110
-0.390249 -0.102167 -0.148146 68 1 84
0.081887 -0.450808 -0.292050 75 194 108
-0.206863 0.025834 -0.211652 68 1 84
0.296859 0.287677 -0.128875 70 45 124
-0.056295 0.593822 -0.099677 66 64 133
0.501438 0.232282 0.179785 68 1 84
-0.610249 -0.128117 0.164418 68 1 84
0.487825 -0.458050 0.040120 47 105 141
0.425904 0.153611 -0.014845 68 1 84
-0.523928 -0.095559 -0.031727 68 1 84
0.357576 0.080734 -0.130097 68 1 84
0.444831 -0.055409 -0.072694 68 1 84
0.046550 0.140976 -0.316081 68 1 84
0.148003 -0.440739 -0.229594 61 187 116
0.591066 -0.145968 0.470948 68 1 84
-0.146622 0.111152 -0.250858 68 1 84
0.409333 0.260796 0.005386 68 1 84
-0.052460 -0.253428 -0.372247 66 64 133
-0.145851 -0.005273 -0.266821 68 1 84
0.589264 -0.483051 0.386455 68 1 84
-0.532702 -0.077995 -0.017005 68 1 84
-0.604270 0.030336 0.284470 68 1 84
-0.534590 0.237967 0.206846 68 1 84
0.550649 -0.074767 0.170777 68 1 84
0.473353 0.274426 0.161120 68 1 84
0.056590 -0.298290 -0.240563 32 145 140
-0.639547 -0.363954 0.233563 68 1 84
-0.148932 0.272581 -0.212994 71 22 105
-0.641751 -0.151611 0.279302 68 1 84
0.463087 0.008870 -0.024703 68 1 84
-0.404961 0.139290 -0.067611 68 1 84
0.538679 -0.098496 0.104032 68 1 84
-0.086670 0.355287 -0.243754 69 53 128
0.042279 -0.165920 -0.389353 71 42 121
-0.606449 -0.434466 0.144720 68 1 84
-0.067814 -0.332306 -0.318019 64 68 135
0.210181 0.103720 -0.223204 68 1 84
0.410580 0.243013 -0.001449 68 1 84
-0.348757 -0.431892 -0.244727 54 90 140
0.020413 0.083438 -0.335500 68 1 84
-0.345829 0.388510 0.035638 68 1 84
-0.532344 0.237839 0.454601 68 1 84
-0.258567 0.153690 -0.194173 68 1 84
0.099383 0.255383 -0.254291 72 32 113
0.446269 -0.030680 -0.061943 68 1 84
0.576097 0.056101 0.342739 68 1 84
-0.013754 0.652791 -0.046323 70 45 124
0.320494 -0.450019 -0.203840 40 122 142
0.327397 0.410863 -0.008117 64 67 135
0.453831 0.269163 0.109169 68 1 84
-0.409996 0.327581 0.068615 68 1 84
0.590933 -0.489458 0.402446 68 1 84
-0.085803 -0.447958 -0.314004 46 178 124
-0.407378 0.383677 0.128009 68 1 84
-0.327574 -0.392290 -0.229412 40 123 142
-0.245474 0.553538 0.173534 68 1 84
-0.127731 -0.321524 -0.207509 51 97 141
-0.459224 0.339978 0.158199 68 1 84
0.587696 -0.547051 0.372990 68 1 84
-0.701123 -0.383244 0.491244 68 1 84
-0.561384 -0.009246 0.075096 68 1 84
-0.546641 0.226816 0.417603 68 1 84
-0.479525 0.089432 -0.003536 68 1 84
-0.261298 -0.205656 -0.188302 68 1 84
-0.582165 -0.276560 0.078446 68 1 84
0.056978 -0.414677 -0.263650 173 220 48
0.583807 -0.251955 0.273864 68 1 84
0.382979 0.070247 -0.103686 68 1 84
-0.021117 -0.418967 -0.307912 43 177 125
0.226167 0.554119 -0.065689 57 84 139
0.558068 -0.019900 0.201010 68 1 84
0.418661 -0.517133 -0.126131 30 157 136
-0.087734 0.588620 -0.082304 62 73 137
0.375324 0.203592 -0.076909 68 1 84
-0.413855 -0.161776 -0.130972 68 1 84
-0.642353 -0.211076 0.242826 68 1 84
0.556894 0.143507 0.421615 68 1 84
0.550749 -0.337137 0.160805 70 9 92
0.596247 -0.540191 0.436748 68 1 84
-0.184255 0.598314 0.086965 71 24 106
0.052701 0.326118 -0.281939 71 44 123
-0.615536 0.019180 0.343037 68 1 84
-0.363826 0.013246 -0.147169 68 1 84
-0.338807 0.489262 0.222851 68 1 84
0.148419 -0.111108 -0.228287 71 40 120
0.567627 0.107101 0.308000 68 1 84
0.553320 0.056061 0.195347 68 1 84
0.091027 -0.501607 -0.317196 114 207 85
0.129102 0.598242 -0.103416 50 98 141
-0.128670 -0.247524 -0.249793 72 29 111
-0.468680 0.252945 0.093534 68 1 84
-0.677675 -0.466376 0.325204 68 1 84
-0.690537 -0.435930 0.390077 68 1 84
0.510056 0.070190 0.088971 68 1 84
-0.456211 -0.396785 -0.172984 65 66 134
-0.585773 -0.025766 0.158988 68 1 84
-0.607238 -0.105784 0.168322 68 1 84
-0.031054 -0.267551 -0.371464 63 69 135
0.100396 -0.411667 -0.205491 87 198 101
0.399965 0.136723 -0.063424 68 1 84
0.504142 -0.501600 0.115489 33 142 140
0.443244 0.012990 -0.048488 68 1 84
-0.435655 0.231438 0.032000 68 1 84
0.573572 0.076242 0.359626 68 1 84
-0.355820 -0.266320 -0.168151 71 18 101
-0.209825 0.571373 0.071848 65 66 134
0.315920 -0.034216 -0.170662 68 1 84
0.123685 -0.335182 -0.168202 34 137 141
-0.605049 0.004401 0.266800 68 1 84
-0.410080 -0.014955 -0.123368 68 1 84
0.532530 -0.536006 0.195184 42 119 142
0.263927 0.155376 -0.202924 68 1 84
-0.338939 -0.078561 -0.165563 68 1 84
0.358147 -0.030515 -0.144797 68 1 84
-0.233588 0.528242 0.040345 55 88 140
0.486067 -0.260010 0.001344 68 1 84
0.474950 -0.360742 0.015159 71 15 98
-0.461485 -0.517639 -0.198712 48 104 141
-0.546405 -0.209438 0.017656 68 1 84
-0.164415 0.108300 -0.238895 68 1 84
0.309038 -0.081495 -0.174652 68 1 84
-0.644142 -0.107188 0.489295 68 1 84
0.595861 -0.590352 0.450317 68 1 84
0.295950 0.548415 0.128487 68 1 84
0.283800 0.530882 -0.008729 50 98 141
0.581372 -0.264282 0.424312 68 1 84
-0.674408 -0.262390 0.469540 68 1 84
0.592972 -0.357955 0.387555 68 1 84
-0.708100 -0.503988 0.430222 68 1 84
0.403224 0.291822 0.014955 68 1 84
-0.632588 -0.057938 0.358759 68 1 84
0.453387 -0.555597 -0.025865 253 231 36
-0.636013 -0.077058 0.435090 68 1 84
0.457687 0.357239 0.353819 68 1 84
0.551895 -0.106316 0.167141 68 1 84
0.025078 0.594432 -0.131685 54 90 140
-0.115322 0.127301 -0.277556 68 1 84
-0.476508 -0.373538 -0.139113 55 89 140
0.482541 -0.582221 0.076272 131 211 75
-0.669847 -0.419662 0.309714 68 1 84
-0.202313 -0.407643 -0.244786 30 156 137
-0.232326 0.380948 -0.116232 69 53 128
0.187082 -0.478768 -0.262518 30 152 138
-0.063498 0.090526 -0.320549 68 1 84
-0.394475 0.447362 0.255425 68 1 84
-0.528511 0.280109 0.379901 68 1 84
0.157383 0.267954 -0.234094 68 55 129
0.528875 -0.022631 0.100882 68 1 84
-0.298600 -0.345682 -0.183839 43 116 142
-0.264394 -0.140455 -0.191415 68 1 84
-0.056900 -0.044671 -0.486513 68 1 84
0.130240 0.607128 -0.092983 54 91 140
0.103962 0.620945 -0.088881 59 81 138
-0.418611 -0.238972 -0.112887 68 1 84
0.587095 -0.271747 0.387200 68 1 84
0.326241 0.227567 -0.130766 71 22 105
-0.491849 -0.011790 -0.048555 68 1 84
-0.224056 -0.072403 -0.204250 68 1 84
-0.079812 -0.000233 -0.354205 68 1 84
0.193791 -0.210762 -0.197778 68 1 84
0.580473 -0.256724 0.485484 68 1 84
-0.140378 0.566529 -0.050299 66 62 133
0.291058 0.019543 -0.179744 68 1 84
0.111537 -0.009258 -0.325459 71 15 98
0.549870 0.182581 0.380465 68 1 84
-0.358951 -0.078247 -0.158648 68 1 84
-0.550624 0.243085 0.331504 68 1 84
-0.017198 -0.112436 -0.477899 68 1 84
-0.615650 0.027418 0.362559 68 1 84
0.557345 -0.065778 0.197474 68 1 84
0.436663 -0.564814 -0.071184 210 225 27
0.136432 0.544082 -0.132835 48 103 141
0.231380 0.338082 -0.173539 69 53 128
0.004113 -0.140630 -0.452510 68 1 84
0.331072 0.122700 -0.147378 69 8 91
0.542104 -0.196559 0.098348 68 1 84
-0.039136 0.053302 -0.361326 68 1 84
-0.588497 -0.321428 0.096935 68 1 84
0.532510 0.197428 0.228750 68 1 84
0.437640 0.386796 0.319443 68 1 84
-0.396239 -0.321566 -0.148190 71 38 118
-0.137727 -0.108550 -0.279674 68 1 84
-0.392586 0.321990 0.038409 68 1 84
0.417513 -0.441762 -0.102663 39 125 142
-0.112963 0.459542 -0.130669 66 64 133
0.248283 -0.149435 -0.194220 68 1 84
0.110599 0.568239 -0.133938 47 105 141
0.311532 -0.007792 -0.171029 68 1 84
0.580280 -0.233640 0.460506 68 1 84
0.353913 0.132161 -0.125678 68 1 84
0.261732 -0.150485 -0.190816 68 1 84
-0.193272 0.347056 -0.158798 71 15 98
0.008128 -0.279877 -0.354068 48 104 141
0.118413 -0.206919 -0.236033 71 42 121
0.146499 0.639302 -0.025210 67 58 131
0.411472 -0.429517 -0.102757 44 113 142
0.320774 0.200905 -0.144853 71 42 121
0.127931 -0.047095 -0.280791 71 20 102
0.314767 -0.174864 -0.173437 68 1 84
-0.531655 0.170831 0.142766 68 1 84
0.025817 0.512930 -0.155914 63 69 135
-0.054131 0.656290 -0.023680 71 40 120
-0.204263 0.517082 -0.018291 61 75 137
-0.111830 -0.426596 -0.305672 46 178 124
-0.244170 0.554063 0.186768 68 1 84
-0.575362 -0.058077 0.073034 68 1 84
-0.190767 0.456075 -0.083168 49 101 141
-0.478291 0.357118 0.235259 68 1 84
-0.514773 0.294901 0.226320 68 1 84
0.428041 0.088233 -0.038169 68 1 84
0.002554 -0.092986 -0.484490 68 1 84
0.269878 0.100480 -0.188020 68 1 84
0.453681 0.368123 0.314540 68 1 84
0.093180 0.649516 -0.028436 68 57 130
0.587749 -0.175732 0.356417 68 1 84
-0.511490 0.297129 0.219494 68 1 84
-0.620266 -0.252131 0.175922 68 1 84
-0.210797 0.407805 -0.114879 71 39 119
0.594779 -0.175746 0.484143 68 1 84
0.505908 -0.395067 0.066275 60 78 138
-0.099643 0.449479 -0.150646 54 91 140
-0.155654 0.355064 -0.190595 71 39 119
-0.642118 -0.106148 0.476826 68 1 84
-0.155339 -0.424051 -0.296299 85 198 102
-0.135320 0.572656 -0.052141 71 39 119
0.483447 0.292191 0.212800 68 1 84
0.209633 0.190365 -0.229951 70 11 94
0.089178 -0.147181 -0.302881 71 39 119
-0.696167 -0.347267 0.483681 68 1 84
-0.348134 0.340020 -0.017186 71 21 103
0.589070 -0.301476 0.346570 68 1 84
-0.625955 -0.062058 0.307361 68 1 84
0.518605 0.055145 0.100933 68 1 84
0.149285 0.030289 -0.229640 71 21 103
0.583176 -0.295574 0.423424 68 1 84
0.390489 0.076065 -0.093580 68 1 84
-0.065588 -0.134842 -0.437761 68 1 84
0.536106 0.093550 0.159598 68 1 84
-0.420671 -0.466157 -0.228723 35 135 141
-0.682026 -0.284985 0.500100 68 1 84
0.583771 -0.127751 0.322027 68 1 84
0.284216 0.535160 -0.004655 49 101 141
-0.327676 -0.357173 -0.208550 52 94 141
0.320261 -0.340841 -0.145393 61 75 137
-0.497066 0.292273 0.478347 68 1 84
0.337349 0.350384 -0.051465 68 1 84
-0.084379 0.041228 -0.312169 68 1 84
-0.102248 -0.253894 -0.306352 71 17 99
0.569368 -0.138614 0.237305 68 1 84
0.300179 -0.364704 -0.154274 58 83 139
-0.531256 -0.327963 -0.025501 68 1 84
0.332907 -0.331276 -0.136624 71 44 123
0.496009 -0.476207 0.078995 36 132 141
0.582435 -0.323307 0.513908 68 1 84
0.111137 0.609847 -0.099626 53 93 140
-0.451973 -0.349269 -0.142983 56 87 140
-0.394937 0.282389 0.010716 68 1 84
0.574144 0.072153 0.359501 68 1 84
-0.302306 -0.403030 -0.235143 39 126 142
0.349570 -0.184009 -0.156169 68 1 84
0.108188 0.278206 -0.261062 62 73 137
-0.647856 -0.416934 0.242060 68 1 84
-0.688760 -0.308818 0.467065 68 1 84
0.588275 -0.200668 0.351564 68 1 84
0.382580 0.172168 -0.076991 68 1 84
-0.538262 0.268288 0.281980 68 1 84
-0.090028 0.642379 -0.028646 62 72 136
0.376982 0.445141 0.150527 68 1 84
0.239160 0.601056 -0.010714 63 71 136
-0.233490 -0.074190 -0.200343 68 1 84
0.175881 0.168713 -0.255830 68 1 84
0.436523 0.003068 -0.060477 68 1 84
0.265672 0.516273 -0.041390 47 105 141
0.324769 0.372585 -0.049241 68 1 84
0.302633 0.538050 0.161349 68 1 84
-0.662439 -0.228866 0.351990 68 1 84
-0.092845 0.130257 -0.295459 68 1 84
-0.154993 0.028589 -0.232787 68 1 84
0.002329 0.662303 -0.019382 70 14 97
0.568345 0.004098 0.478822 68 1 84
0.293082 0.252978 -0.148122 71 15 98
-0.289796 0.220578 -0.162033 71 20 102
0.218392 0.373142 -0.166735 66 61 132
-0.147780 -0.063311 -0.266351 68 1 84
-0.693655 -0.384444 0.426477 68 1 84
0.493371 -0.390276 0.040793 70 48 125
0.178317 0.097770 -0.238233 68 1 84
0.500225 -0.291677 0.032601 71 15 98
0.366364 0.404773 0.064183 72 30 112
0.490351 0.271851 0.200144 68 1 84
0.241044 -0.361341 -0.169858 70 48 125
-0.337289 -0.331035 -0.163955 51 96 141
-0.544882 0.078011 0.113784 68 1 84
-0.491981 0.345560 0.352484 68 1 84
0.574785 -0.036242 0.452546 68 1 84
0.072733 -0.083357 -0.400775 68 1 84
0.512354 0.237094 0.214016 68 1 84
0.543037 0.143642 0.208286 68 1 84
-0.441123 0.313111 0.101488 68 1 84
0.240071 -0.277796 -0.178193 72 32 113
0.269889 0.452689 -0.056329 52 95 141
-0.193904 0.470854 -0.065823 49 102 141
0.270830 0.310723 -0.140835 72 32 113
0.554776 0.153573 0.419341 68 1 84
0.585435 -0.245254 0.399538 68 1 84
-0.426261 0.034085 -0.093464 68 1 84
-0.322265 -0.265488 -0.177907 70 14 97
0.585960 -0.159113 0.450858 68 1 84
-0.090885 -0.035214 -0.432253 68 1 84
-0.126148 -0.350400 -0.217594 43 116 142
-0.376621 -0.491440 -0.259661 40 122 142
0.120327 0.593757 -0.112553 48 103 141
0.166364 0.448995 -0.139129 67 58 131
-0.072089 -0.443045 -0.311764 30 152 138
0.240138 -0.403073 -0.192904 43 115 142
-0.480492 0.358273 0.361407 68 1 84
-0.132044 -0.147200 -0.284406 68 1 84
0.536335 0.120811 0.173645 68 1 84
-0.366054 0.279608 -0.035255 68 1 84
-0.590163 -0.102091 0.096923 68 1 84
-0.292348 -0.065641 -0.180809 68 1 84
0.123426 -0.025346 -0.330519 71 20 102
-0.314789 0.307720 -0.094654 71 21 103
-0.574762 -0.377813 0.054132 68 1 84
-0.485753 -0.301848 -0.061577 68 3 87
-0.467142 -0.462632 -0.193368 35 136 141
-0.067287 0.515398 -0.120057 55 88 140
0.392884 0.354160 0.061708 70 14 97
0.137106 0.265986 -0.243310 72 35 116
0.491570 -0.514672 0.087928 39 173 128
-0.249702 0.153277 -0.199880 68 1 84
-0.641199 -0.472249 0.207576 68 1 84
-0.609959 -0.149423 0.151751 68 1 84
0.235871 0.512691 -0.071370 52 95 141
-0.127591 0.302205 -0.217022 72 25 107
-0.636196 -0.120093 0.288811 68 1 84
0.391274 -0.382340 -0.087826 41 121 142
-0.086502 -0.074428 -0.444935 68 1 84
-0.050601 0.057239 -0.346648 68 1 84
-0.251631 -0.437522 -0.273299 31 148 139
0.354042 0.454287 0.094829 72 33 114
-0.477368 -0.404423 -0.159397 53 92 140
-0.579691 0.084884 0.491934 68 1 84
-0.321449 -0.058692 -0.170684 68 1 84
-0.605414 -0.085791 0.180261 68 1 84
-0.364542 -0.349441 -0.196648 60 78 138
0.209040 0.172115 -0.235919 68 1 84
-0.573782 -0.090817 0.054018 68 1 84
0.407935 0.433147 0.251595 68 1 84
-0.649945 -0.189894 0.513689 68 1 84
0.498401 -0.178197 -0.010325 68 1 84
0.532137 0.229814 0.294699 68 1 84
-0.202061 0.253507 -0.214216 69 5 88
