ply
format ascii 1.0
element vertex 1252
property float x
property float y
property float z
property uchar red
property uchar green
property uchar blue
end_header
0.218293 0.281470 -0.188724 68 1 84
-0.625759 -0.048472 0.553804 62 188 115
-0.097860 0.526943 -0.190408 68 1 84
-0.479876 -0.322638 -0.040643 69 54 129
0.407697 0.287678 -0.049718 54 91 140
-0.179443 -0.455648 -0.228399 68 1 84
-0.373098 0.170829 -0.138232 66 61 132
0.006504 0.549310 -0.208887 68 1 84
-0.437718 0.192457 -0.068955 51 97 141
-0.359434 0.282550 -0.109834 70 12 95
0.501385 -0.294229 -0.008198 69 53 128
0.631244 -0.289146 0.492503 52 95 141
-0.475235 -0.596267 -0.160148 68 1 84
0.636199 -0.351508 0.442394 65 66 134
0.589738 0.053205 0.358319 41 121 142
0.580262 -0.105463 0.056289 50 98 141
0.520155 -0.527706 -0.063696 68 1 84
-0.239942 0.331123 -0.151789 68 1 84
-0.641459 -0.396226 0.283940 49 102 141
0.635637 -0.313491 0.443985 66 61 132
-0.429188 0.472207 0.338399 139 213 70
-0.121189 0.230555 -0.297659 68 1 84
0.254571 -0.257943 -0.158001 60 78 138
-0.540551 0.176318 0.119670 44 114 142
0.512177 0.014183 -0.032957 47 106 141
-0.317083 0.572448 0.191418 38 172 129
-0.114506 0.615112 -0.155496 68 1 84
-0.465004 0.000904 -0.108056 64 67 135
0.610823 -0.062983 0.257896 37 130 142
-0.254087 0.606732 0.056846 66 62 133
0.079729 -0.248225 -0.276986 68 1 84
0.524223 -0.367112 0.015953 72 28 110
0.506405 0.318789 0.194138 30 155 137
-0.222742 0.472282 -0.106826 68 1 84
0.462268 -0.161270 -0.097689 67 59 131
-0.364841 0.441837 0.017206 58 83 139
-0.605155 -0.198727 0.070191 53 93 140
0.401286 0.269733 -0.066906 56 86 139
0.487432 0.169019 0.008234 52 95 141
0.029399 -0.018171 -0.472735 68 1 84
-0.591208 0.034267 0.207368 36 134 141
-0.072921 -0.230281 -0.311767 68 1 84
0.013173 -0.057432 -0.471332 68 1 84
-0.340479 -0.552559 -0.254985 68 1 84
0.126171 -0.004198 -0.373295 68 1 84
-0.418519 0.155426 -0.104788 63 71 136
-0.018704 0.429050 -0.233080 68 1 84
-0.296325 -0.254323 -0.156580 62 73 137
-0.582250 0.147027 0.252281 30 154 137
-0.087357 -0.325809 -0.235200 72 30 112
0.471618 0.190969 -0.008678 49 100 141
0.596052 0.016887 0.314084 36 134 141
0.619162 -0.119813 0.489266 30 160 135
-0.069264 -0.131009 -0.390884 68 1 84
-0.065644 0.322974 -0.298156 68 1 84
-0.299341 0.564398 0.064810 70 45 124
-0.569542 0.152457 0.202180 32 145 140
0.276721 -0.562235 -0.297621 68 1 84
-0.580476 -0.514622 0.108118 71 20 102
0.636788 -0.408178 0.434821 60 77 138
0.501589 -0.444922 -0.076369 69 6 90
-0.537650 -0.280418 -0.006692 61 74 137
-0.187347 0.149001 -0.244825 68 1 84
-0.653321 -0.388334 0.365155 57 84 139
0.511834 0.181672 0.079482 42 118 142
-0.038605 0.192205 -0.320750 68 1 84
0.567001 0.077506 0.184449 38 129 142
-0.270376 0.436990 -0.083788 68 1 84
-0.410711 -0.150825 -0.142505 68 55 129
0.242253 0.590820 -0.033823 68 1 84
0.547089 0.158516 0.181503 36 134 141
0.432521 0.458413 0.351077 31 162 134
-0.386580 -0.608528 -0.238250 68 1 84
0.589303 0.055559 0.359288 38 128 142
-0.444345 0.453044 0.193793 30 157 136
-0.447233 0.035562 -0.114882 60 77 138
-0.018307 -0.443581 -0.298191 68 1 84
0.518659 0.303603 0.480766 81 196 104
-0.298257 0.570236 0.077237 67 60 132
0.503022 0.311029 0.171716 30 153 138
-0.625479 -0.057178 0.329798 36 133 141
-0.249408 0.019825 -0.211769 68 1 84
-0.451740 0.002417 -0.120082 71 39 119
-0.538191 0.170549 0.108551 48 104 141
0.427912 -0.357115 -0.076939 71 40 120
-0.094820 -0.211989 -0.289241 72 30 112
0.579545 0.016376 0.160802 40 122 142
0.319431 -0.407986 -0.228590 70 48 125
0.562332 0.158741 0.512921 44 177 125
0.278620 0.110540 -0.197629 71 40 120
0.361152 -0.369522 -0.128037 64 67 135
0.234701 -0.362480 -0.152596 69 54 129
0.092661 -0.254746 -0.249996 68 1 84
-0.365770 0.198369 -0.135965 69 53 128
-0.394455 0.449429 0.066918 54 91 140
0.526196 0.309262 0.293059 33 167 132
0.547673 0.153117 0.178185 33 141 140
0.398757 -0.177951 -0.127653 61 75 137
-0.648659 -0.168582 0.546648 50 181 122
0.474251 0.078828 -0.059421 52 95 141
0.438999 -0.300781 -0.059412 67 59 131
0.135074 0.318450 -0.260465 68 1 84
0.321495 -0.404471 -0.207939 69 53 128
0.325109 -0.092435 -0.174755 63 69 135
-0.019560 -0.460478 -0.303425 68 1 84
-0.217513 0.606200 -0.042001 68 1 84
-0.398591 0.471369 0.101988 51 96 141
-0.629704 -0.241969 0.139946 52 94 141
-0.177923 0.096705 -0.232418 68 55 129
0.254075 -0.413475 -0.223584 69 50 127
-0.264295 -0.315458 -0.167452 71 44 123
-0.607331 -0.123990 0.093542 42 117 142
0.280785 -0.156978 -0.167744 48 104 141
-0.107799 0.267983 -0.288395 68 1 84
0.535987 -0.495513 -0.001372 68 1 84
-0.447521 -0.038094 -0.129804 65 65 134
-0.619844 -0.037442 0.308233 36 134 141
-0.218463 0.300454 -0.169267 68 1 84
-0.614034 -0.072384 0.203268 47 106 141
-0.578209 -0.290114 0.042457 64 67 135
-0.525857 0.253757 0.140382 31 149 139
-0.262045 -0.365960 -0.159427 68 57 130
0.466258 0.232069 0.008312 50 99 141
-0.361840 0.534417 0.162886 33 141 140
0.420019 0.474529 0.332960 30 160 135
0.490694 0.359099 0.466770 96 201 96
0.532878 -0.490237 -0.017305 68 1 84
-0.050577 0.395700 -0.278114 68 1 84
0.299192 0.572749 0.059434 51 96 141
0.182207 -0.129518 -0.213922 70 11 94
0.596420 -0.170376 0.091282 49 101 141
0.603712 -0.027249 0.476506 41 120 142
0.603816 -0.022180 0.322435 34 138 141
-0.121426 -0.216670 -0.245279 72 35 116
0.553677 0.183346 0.249422 32 145 140
-0.237014 -0.422968 -0.185900 70 11 94
-0.581627 -0.279845 0.044075 60 78 138
0.152129 -0.024373 -0.311766 68 1 84
0.052454 0.128767 -0.312739 68 1 84
-0.560138 -0.031092 0.015733 47 105 141
0.171103 -0.011176 -0.231592 71 20 102
0.169434 0.524088 -0.136624 68 1 84
-0.360911 -0.156036 -0.156571 61 74 137
-0.024262 0.059597 -0.414919 68 1 84
-0.299408 -0.260725 -0.155594 61 75 137
0.241673 -0.410473 -0.191959 69 52 127
-0.160354 0.051690 -0.237250 72 35 116
-0.348200 -0.035341 -0.184327 70 47 124
0.383606 0.289627 -0.078025 53 92 140
-0.477699 0.147625 -0.033004 47 105 141
0.592890 -0.396354 0.163511 69 50 127
0.572947 -0.296484 0.076413 63 69 135
-0.141486 -0.146614 -0.251643 66 61 132
0.576867 -0.204083 0.051762 60 77 138
0.146419 0.365197 -0.243319 68 1 84
-0.240290 -0.435987 -0.205071 69 5 88
-0.402756 0.504589 0.257883 46 178 124
-0.636145 -0.090706 0.493180 31 147 139
-0.082169 0.313585 -0.289088 68 1 84
-0.654072 -0.197546 0.537442 47 179 123
0.118304 0.413738 -0.223751 68 1 84
0.540826 -0.338523 0.038944 69 54 129
0.444274 0.215521 -0.037916 51 97 141
0.536452 0.190130 0.169967 33 140 141
-0.158574 0.371817 -0.226242 68 1 84
0.346854 0.430877 -0.018728 52 95 141
0.634338 -0.198671 0.231668 50 99 141
0.480163 -0.030392 -0.087693 59 80 138
0.233320 0.031478 -0.210464 71 40 120
-0.652688 -0.394444 0.355040 59 80 138
0.552835 0.217938 0.302342 40 174 127
0.299234 0.347188 -0.118189 70 48 125
0.400872 -0.434353 -0.168679 72 35 116
0.146944 0.039204 -0.305302 68 1 84
-0.608682 0.090949 0.412450 33 166 133
0.615434 -0.117152 0.549852 41 175 127
0.499551 0.025184 -0.047001 42 117 142
0.193931 -0.074758 -0.218917 70 48 125
-0.077343 -0.351987 -0.245018 71 43 122
-0.476260 -0.019545 -0.102319 60 77 138
-0.641489 -0.539784 0.328248 70 11 94
-0.572006 -0.218601 0.013254 55 89 140
-0.614759 0.040414 0.475547 30 159 136
0.545135 -0.496131 0.040471 68 1 84
0.628467 -0.367862 0.274731 69 52 127
-0.601970 0.021547 0.250563 33 142 140
0.072837 0.305611 -0.288146 68 1 84
-0.136345 -0.379874 -0.187844 71 20 102
0.610837 -0.065194 0.541832 51 182 121
-0.598644 0.110322 0.312338 32 145 140
-0.104686 -0.369059 -0.206805 71 17 99
-0.611203 -0.563669 0.225082 71 17 99
-0.658239 -0.295806 0.383032 50 99 141
-0.443964 -0.143843 -0.129386 67 58 131
-0.148388 -0.423181 -0.208528 68 1 84
0.194484 -0.415770 -0.213293 72 30 112
-0.123543 -0.073674 -0.356961 68 1 84
-0.497427 0.395985 0.309041 87 198 101
0.462025 0.425350 0.343797 32 164 133
0.329019 0.262341 -0.144933 67 59 131
-0.183284 0.330565 -0.208126 68 1 84
-0.500548 -0.009233 -0.073057 49 100 141
0.063230 -0.257078 -0.297986 68 1 84
0.109244 -0.334480 -0.183871 72 34 115
0.494380 0.354662 0.462092 75 194 108
0.009664 0.315929 -0.296455 68 1 84
-0.129580 0.290339 -0.259745 68 1 84
0.534418 -0.350249 0.030874 72 35 116
0.050585 0.078372 -0.318493 68 1 84
-0.535365 -0.001347 -0.017687 48 104 141
0.599839 -0.120273 0.106618 49 102 141
0.429190 -0.424367 -0.135471 69 52 127
-0.657705 -0.332423 0.407708 53 93 140
-0.221305 0.392639 -0.157151 68 1 84
-0.503658 0.371919 0.456933 183 221 41
-0.175909 0.533493 -0.125074 68 1 84
0.449659 0.436356 0.365974 36 170 130
-0.391962 -0.344451 -0.121736 71 22 105
-0.136827 0.359604 -0.254955 68 1 84
-0.589028 0.188291 0.440211 53 183 120
-0.437936 0.455027 0.173939 34 137 141
-0.258402 -0.192889 -0.171099 64 67 135
-0.238019 -0.573068 -0.301693 68 1 84
0.569713 -0.073056 0.039195 48 103 141
-0.327857 -0.113496 -0.176591 68 57 130
0.513336 0.134081 0.042552 38 127 142
-0.572188 0.075083 0.151785 40 123 142
-0.345597 0.265563 -0.131083 68 1 84
-0.660767 -0.245629 0.288654 49 102 141
-0.670560 -0.566141 0.479407 63 69 135
0.513495 0.335278 0.415254 54 184 119
-0.156872 -0.048151 -0.322867 68 1 84
-0.287265 -0.134822 -0.181166 71 44 123
0.197500 0.325983 -0.191924 68 1 84
0.582990 0.059382 0.509936 30 153 138
0.433637 0.241349 -0.038784 51 96 141
-0.608801 -0.026008 0.248119 33 140 141
0.548552 0.237468 0.312289 38 172 129
-0.487860 0.403237 0.402676 136 213 71
0.352748 0.181909 -0.144370 68 57 130
-0.538212 -0.202030 -0.036975 58 82 139
0.646186 -0.217945 0.291755 53 93 140
-0.304633 -0.384545 -0.151748 71 43 122
0.533357 -0.475324 -0.014345 68 1 84
-0.429080 0.140652 -0.099027 64 68 135
-0.092501 -0.150444 -0.330111 68 1 84
-0.271231 0.090346 -0.204395 72 28 110
-0.117011 -0.294351 -0.206245 70 47 124
0.514540 0.179987 0.086193 40 122 142
0.575165 -0.090872 0.047146 46 109 142
0.502748 -0.166838 -0.061777 63 71 136
0.628734 -0.258530 0.494492 56 86 139
-0.057046 0.075042 -0.335980 68 1 84
-0.175138 0.002636 -0.263703 68 1 84
-0.317666 -0.266250 -0.150701 59 81 138
-0.157092 0.007208 -0.347492 68 1 84
-0.557707 -0.052797 0.000503 59 81 138
-0.522965 0.358552 0.356633 81 196 104
0.460698 0.259763 0.017490 48 103 141
0.576006 -0.545762 0.148938 68 1 84
-0.232964 0.132640 -0.220007 68 1 84
-0.200561 0.347831 -0.189017 68 1 84
0.239416 0.613158 -0.004823 68 1 84
-0.197386 0.088929 -0.223245 69 52 127
-0.621596 -0.335036 0.145687 64 68 135
0.456681 0.203032 -0.026647 57 84 139
0.504106 0.246755 0.113444 36 134 141
-0.522898 0.302692 0.182202 37 171 129
-0.620781 0.011190 0.432247 32 145 140
0.385338 -0.385688 -0.129033 70 49 126
-0.421063 0.383577 0.042228 51 97 141
0.151439 0.616703 -0.128271 68 1 84
-0.337323 -0.575819 -0.262969 68 1 84
0.250692 -0.355017 -0.153644 70 45 124
-0.051458 -0.190976 -0.361493 68 1 84
0.140983 -0.055984 -0.292654 68 1 84
0.138479 -0.189110 -0.229271 68 1 84
-0.212392 0.287201 -0.181041 68 1 84
0.316794 0.022207 -0.189520 70 49 126
0.534579 -0.478192 -0.009496 69 5 88
0.019073 0.660519 -0.151987 68 1 84
-0.049941 0.217414 -0.324046 68 1 84
-0.045177 -0.245429 -0.334353 68 1 84
-0.603723 0.060832 0.521104 44 177 125
0.004364 0.705308 -0.062855 61 76 137
0.624453 -0.116616 0.365058 35 135 141
0.637456 -0.571930 0.440048 71 38 118
-0.587460 0.199191 0.408458 83 197 103
-0.432223 0.475222 0.285293 79 195 105
-0.576105 0.186283 0.524591 83 197 103
-0.572714 0.110369 0.185843 36 132 141
0.124161 -0.061716 -0.334982 68 1 84
-0.567371 0.258149 0.433242 114 207 85
0.451748 0.444110 0.293915 43 177 125
0.224244 0.122661 -0.212947 72 28 110
0.015976 -0.452271 -0.300544 68 1 84
0.585124 0.028981 0.543794 37 171 129
0.042221 -0.306004 -0.295247 68 1 84
0.540392 0.005853 0.013946 43 115 142
0.569979 -0.197758 0.037922 56 87 140
-0.453073 0.327596 0.043707 43 116 142
0.197343 0.480614 -0.127541 68 1 84
0.278724 -0.213306 -0.155239 68 55 129
-0.609223 -0.509100 0.214317 68 55 129
-0.601000 0.085236 0.299659 30 159 136
-0.658206 -0.280746 0.416060 42 118 142
0.460988 -0.459535 -0.137822 71 42 121
-0.253509 0.608498 0.063785 70 47 124
0.461041 -0.317379 -0.038123 65 65 134
0.401581 -0.499790 -0.208324 68 1 84
-0.056610 -0.238802 -0.327763 68 1 84
-0.612206 -0.465369 0.197313 71 39 119
-0.400652 -0.281293 -0.109611 68 55 129
-0.321609 0.112207 -0.184236 72 25 107
-0.356844 0.159120 -0.152824 71 43 122
0.154159 0.027262 -0.306143 68 1 84
0.407590 -0.265941 -0.092449 71 44 123
0.249673 0.511484 -0.068661 68 1 84
0.612180 -0.264141 0.148439 66 64 133
-0.357197 0.298621 -0.103900 68 1 84
0.545255 -0.525753 0.044163 72 29 111
-0.573632 0.056859 0.140823 34 138 141
-0.251092 -0.265734 -0.164531 63 71 136
-0.136225 0.592134 -0.148192 68 1 84
0.414072 0.228415 -0.070707 53 93 140
0.387836 0.517855 0.203144 34 167 132
-0.233892 0.626442 0.078920 68 57 130
-0.120138 0.073037 -0.278117 68 1 84
-0.179769 0.273665 -0.236422 68 1 84
-0.352713 0.534169 0.123730 38 129 142
-0.262525 -0.286173 -0.163457 64 67 135
0.550116 -0.227299 0.016676 65 66 134
-0.649178 -0.222464 0.235387 45 110 142
0.524607 -0.250792 -0.003249 64 67 135
-0.075951 0.123857 -0.306631 68 1 84
-0.591001 -0.395474 0.099390 66 62 133
-0.445272 -0.031676 -0.130877 69 53 128
0.583684 0.089622 0.401955 30 153 138
0.630553 -0.536847 0.380657 68 1 84
-0.657649 -0.346860 0.412024 54 91 140
0.217815 0.401933 -0.157255 68 1 84
0.567313 0.036730 0.123448 37 130 142
0.534958 -0.401810 0.020855 72 32 113
0.173291 0.152443 -0.240505 68 1 84
0.587796 0.064419 0.364861 36 132 141
-0.658092 -0.205982 0.408314 41 120 142
0.564136 0.162910 0.492565 48 180 122
0.506563 0.229945 0.105602 42 119 142
0.034062 0.305628 -0.291143 68 1 84
0.522457 -0.000999 -0.023463 46 109 142
0.439768 0.085546 -0.097383 60 77 138
-0.621639 -0.041001 0.319543 36 133 141
0.169407 0.004873 -0.233783 72 34 115
0.529080 -0.537962 -0.027506 68 1 84
0.104792 0.205221 -0.296114 68 1 84
0.547361 0.224437 0.270450 30 154 137
0.637492 -0.364977 0.513081 44 113 142
0.589507 0.041918 0.465978 32 145 140
-0.098589 0.634023 -0.152971 68 1 84
0.331780 0.562000 0.151964 34 139 141
-0.361816 0.124494 -0.158589 71 21 103
0.359428 0.042404 -0.169159 69 54 129
0.634061 -0.307071 0.467282 56 87 140
0.471091 0.362052 0.134442 38 127 142
-0.293780 -0.292831 -0.161039 56 87 140
-0.217651 -0.447694 -0.212068 68 1 84
0.342368 -0.278897 -0.138031 70 47 124
0.247786 0.512172 -0.070476 68 1 84
0.639224 -0.305124 0.377143 67 60 132
0.392166 0.512695 0.266112 30 151 138
-0.611672 -0.404432 0.159807 66 64 133
0.299962 0.501238 -0.020614 67 60 132
0.150435 -0.370835 -0.162025 66 64 133
-0.570498 0.244413 0.331804 54 184 119
0.527910 0.309676 0.390930 56 185 118
0.434104 0.453474 0.166785 34 167 132
-0.274580 0.582725 0.044470 72 25 107
0.232541 0.590865 -0.048255 68 1 84
0.579269 -0.043370 0.081998 39 126 142
0.485217 -0.016030 -0.079367 58 82 139
-0.021152 0.650633 -0.160356 68 1 84
0.078898 -0.184245 -0.312348 68 1 84
0.154404 0.035954 -0.285887 68 1 84
0.262109 0.021111 -0.205554 71 43 122
0.180124 0.655928 -0.044590 68 3 87
-0.215442 0.460383 -0.120150 68 1 84
0.383371 -0.274947 -0.108323 71 42 121
-0.494311 -0.533120 -0.134970 68 1 84
-0.008928 -0.419356 -0.292241 70 14 97
-0.193496 0.317802 -0.192714 68 1 84
0.450365 0.384330 0.106429 30 151 138
-0.342430 -0.593814 -0.261618 68 1 84
-0.641315 -0.472892 0.332854 63 71 136
0.068267 -0.097864 -0.404670 68 1 84
-0.253597 0.491457 -0.064566 68 1 84
-0.074388 -0.397848 -0.255025 70 11 94
0.408212 0.459488 0.103866 34 138 141
-0.165287 0.339436 -0.230902 68 1 84
0.405800 0.335731 -0.022574 45 110 142
-0.508285 0.190082 0.046199 46 107 142
-0.668379 -0.584111 0.453759 60 77 138
0.060404 0.618793 -0.178891 68 1 84
-0.617862 -0.082964 0.211167 46 109 142
0.537817 0.237942 0.233496 30 151 138
-0.341803 -0.423344 -0.177143 71 22 105
-0.658544 -0.541122 0.390913 71 44 123
0.577080 -0.506563 0.153330 68 1 84
0.094932 0.667634 -0.125466 68 1 84
0.042176 0.504488 -0.205334 68 1 84
0.525627 -0.488927 -0.046230 68 1 84
0.359429 0.330837 -0.081552 54 90 140
0.194978 0.331164 -0.196877 68 1 84
0.423027 0.450179 0.124641 30 159 136
0.185925 0.200852 -0.244277 68 1 84
-0.507748 0.382036 0.354578 83 197 103
-0.598163 0.135241 0.461313 50 181 122
-0.616951 -0.085307 0.198706 46 108 142
0.244197 0.351455 -0.145350 71 18 101
-0.187208 0.506073 -0.122747 68 1 84
-0.601270 -0.140525 0.068193 43 116 142
0.600935 -0.152454 0.105113 47 105 141
0.615281 -0.497792 0.303830 68 1 84
-0.254475 0.004818 -0.211128 68 1 84
0.357844 -0.412350 -0.218467 71 40 120
-0.406621 -0.243416 -0.114388 69 52 127
-0.444928 -0.608374 -0.192516 68 1 84
0.216889 -0.260667 -0.161880 59 81 138
0.315282 0.075072 -0.186460 66 64 133
-0.166896 0.037110 -0.299410 68 1 84
-0.630645 -0.422986 0.264997 65 66 134
0.096929 0.260950 -0.291342 68 1 84
-0.582531 0.043104 0.172542 33 141 140
-0.517282 0.362367 0.281573 32 165 133
-0.556563 -0.110567 -0.020800 56 87 140
-0.244636 0.135495 -0.216315 68 1 84
0.564999 0.184769 0.395140 39 173 128
0.416653 0.359058 0.015829 47 106 141
-0.048197 -0.291948 -0.303491 71 15 98
0.137109 -0.215555 -0.214587 71 22 105
-0.530116 -0.152881 -0.059523 63 71 136
-0.250588 -0.440219 -0.210676 70 14 97
0.627360 -0.179409 0.198640 57 85 139
-0.570493 -0.399974 0.060106 72 26 108
0.092739 -0.122785 -0.329626 68 1 84
-0.048794 -0.503106 -0.308929 68 1 84
0.420822 -0.330454 -0.073814 68 55 129
-0.493046 0.401833 0.299775 73 193 109
-0.581708 0.060636 0.185391 31 146 140
0.572285 0.050597 0.176704 34 139 141
-0.617133 -0.421257 0.187799 66 64 133
-0.624143 -0.040769 0.528480 30 154 137
-0.534916 0.006119 -0.014119 49 102 141
-0.054243 -0.089648 -0.442024 68 1 84
-0.013878 -0.365389 -0.289310 71 21 103
0.618545 -0.171638 0.555530 40 174 127
-0.414658 -0.369111 -0.097756 72 32 113
0.524027 0.321286 0.345873 40 174 127
-0.035073 -0.189420 -0.375497 68 1 84
-0.574854 0.131492 0.207985 35 137 141
0.644478 -0.250522 0.277774 58 83 139
0.584396 -0.546945 0.180364 68 1 84
-0.045368 -0.317425 -0.292124 69 6 90
0.637894 -0.269522 0.407903 57 84 139
-0.157769 -0.207842 -0.208244 64 67 135
0.611276 -0.401982 0.226852 71 22 105
-0.668190 -0.465780 0.478218 60 77 138
0.608426 -0.545606 0.272341 68 1 84
0.336816 -0.008911 -0.181664 61 75 137
-0.487788 0.246357 0.044381 52 94 141
-0.502728 0.253888 0.082146 42 119 142
0.334378 0.375712 -0.073207 51 97 141
0.346544 0.111954 -0.164097 71 43 122
-0.035217 -0.035549 -0.475826 68 1 84
-0.057405 0.345170 -0.305338 68 1 84
0.459337 0.127367 -0.059088 57 84 139
-0.605449 0.101217 0.448520 38 172 129
-0.478574 -0.371887 -0.042800 72 32 113
-0.041685 0.600479 -0.190279 68 1 84
-0.079826 -0.186361 -0.327004 68 1 84
-0.651588 -0.522074 0.364280 72 35 116
0.452867 0.409153 0.144605 32 144 140
-0.290146 -0.271683 -0.157855 54 90 140
-0.060195 -0.106989 -0.422893 68 1 84
-0.487375 -0.530248 -0.142656 68 1 84
0.531133 0.007923 -0.003383 50 98 141
0.204859 0.337338 -0.184743 68 1 84
-0.544621 0.262031 0.214728 31 163 134
0.443165 -0.335371 -0.056239 70 49 126
-0.022679 -0.487212 -0.310600 68 1 84
0.467761 0.382545 0.151216 33 141 140
-0.233335 -0.025098 -0.214475 68 1 84
-0.179937 0.628671 -0.077135 72 35 116
0.136486 0.550089 -0.160851 68 1 84
0.618800 -0.093317 0.278917 48 103 141
-0.668766 -0.542771 0.444348 66 64 133
-0.310589 -0.162184 -0.167142 65 66 134
0.128999 0.678578 -0.074049 72 29 111
-0.646890 -0.575431 0.346165 68 1 84
-0.511838 0.344884 0.204206 31 162 134
0.455909 0.411319 0.158559 30 158 136
0.108080 0.663085 -0.122534 68 1 84
0.054757 0.571227 -0.197481 68 1 84
0.101401 0.200487 -0.296911 68 1 84
0.619620 -0.463281 0.316592 71 39 119
0.610372 -0.303197 0.159014 68 55 129
-0.509745 -0.187553 -0.072635 60 77 138
0.408647 -0.560156 -0.221593 68 1 84
-0.624974 -0.512777 0.273717 71 44 123
0.217359 -0.082725 -0.208643 61 74 137
0.628062 -0.356353 0.268756 69 54 129
-0.304857 0.577213 0.137232 44 112 142
-0.575321 -0.021326 0.061911 48 104 141
0.369730 -0.374907 -0.128429 70 49 126
0.636280 -0.359525 0.413994 67 59 131
0.342528 0.529421 0.074022 50 99 141
-0.611429 -0.046226 0.235373 41 120 142
0.436128 -0.528506 -0.195292 68 1 84
0.297999 -0.165061 -0.161680 51 96 141
0.279070 0.021406 -0.201389 65 66 134
0.354596 -0.404273 -0.208793 71 24 106
-0.497278 -0.192192 -0.081189 65 66 134
-0.167501 0.133131 -0.249950 68 1 84
0.539730 0.234545 0.516126 112 206 86
0.228845 0.526613 -0.082855 68 1 84
0.525122 -0.421146 -0.008106 71 42 121
0.142286 -0.214964 -0.209055 72 34 115
-0.651068 -0.215051 0.249884 41 120 142
-0.336071 0.196013 -0.160107 69 5 88
-0.552594 0.021732 0.033801 42 118 142
-0.669985 -0.568408 0.470588 59 81 138
-0.666918 -0.449695 0.488568 54 91 140
-0.513680 0.281430 0.132556 31 146 140
0.472396 0.412225 0.342736 54 184 119
0.609792 -0.132074 0.137883 50 98 141
0.568394 -0.008348 0.076296 39 124 142
-0.431195 0.119323 -0.104507 67 58 131
0.017139 -0.505710 -0.311945 68 1 84
-0.276334 -0.520504 -0.264978 68 1 84
-0.609700 -0.076240 0.152759 48 104 141
-0.572648 0.213003 0.288845 50 181 122
0.033277 -0.176633 -0.374244 68 1 84
0.396541 -0.323612 -0.096512 72 32 113
0.173454 0.109267 -0.226901 72 28 110
-0.219154 0.574821 -0.063830 68 1 84
-0.010722 -0.192943 -0.381486 68 1 84
-0.503540 -0.356533 -0.017502 72 30 112
0.177191 0.643629 -0.077200 68 1 84
0.590893 0.030691 0.490645 34 138 141
0.241610 0.457705 -0.104175 68 1 84
-0.512719 -0.444390 -0.046399 71 17 99
-0.282362 -0.210332 -0.163021 54 91 140
0.195113 0.004466 -0.217798 71 39 119
-0.593889 -0.561640 0.165163 68 1 84
0.586021 -0.091724 0.075403 46 108 142
-0.658604 -0.277094 0.397868 48 104 141
0.635658 -0.358872 0.382195 65 65 134
0.636416 -0.377487 0.434824 65 66 134
-0.195312 -0.460023 -0.228230 68 1 84
0.634595 -0.356712 0.342082 65 65 134
0.038389 0.680478 -0.124598 68 1 84
0.463987 0.193428 -0.020774 46 109 142
0.564091 -0.440438 0.098966 72 26 108
-0.437985 -0.176540 -0.123488 66 61 132
-0.646463 -0.179880 0.254949 47 105 141
-0.251887 0.257783 -0.197927 68 1 84
0.388917 -0.535311 -0.237192 68 1 84
-0.447280 0.170105 -0.065952 54 90 140
0.303223 0.466968 -0.038921 72 33 114
0.580393 0.092558 0.294552 39 126 142
0.254211 0.544520 -0.048325 68 1 84
-0.497437 0.055398 -0.047752 47 106 141
-0.554471 0.215189 0.199450 30 156 137
-0.615074 -0.105387 0.144493 45 110 142
-0.618976 0.008853 0.366914 32 145 140
0.576255 -0.449802 0.137366 70 9 92
-0.538975 -0.544840 -0.044252 68 1 84
-0.264443 0.519439 -0.039150 68 1 84
0.378815 -0.027769 -0.162174 59 81 138
0.483563 0.018617 -0.071052 53 92 140
0.630507 -0.225542 0.453184 49 100 141
-0.326279 -0.066590 -0.188244 72 35 116
0.642294 -0.522603 0.468347 67 60 132
-0.245299 -0.525049 -0.286319 68 1 84
0.615627 -0.536746 0.312561 68 1 84
-0.431338 0.425425 0.103227 36 133 141
0.082603 0.007472 -0.405486 68 1 84
0.407854 -0.330909 -0.084886 72 34 115
0.599696 -0.193496 0.101297 59 80 138
0.504606 0.358982 0.373694 42 176 126
-0.648935 -0.195850 0.253692 47 105 141
0.160850 -0.360018 -0.149235 63 71 136
-0.652183 -0.582425 0.364463 70 14 97
0.348308 0.175090 -0.149657 70 48 125
0.584434 0.075276 0.309448 38 129 142
-0.647160 -0.195664 0.244426 51 96 141
0.368172 -0.006964 -0.167454 59 81 138
-0.662032 -0.363629 0.514641 44 113 142
-0.154922 -0.264972 -0.187177 69 52 127
-0.486106 -0.393064 -0.044256 71 18 101
0.304724 0.511382 -0.007509 70 49 126
0.298070 0.072043 -0.193790 64 68 135
-0.503135 0.118114 -0.006701 50 98 141
0.025022 0.405121 -0.269372 68 1 84
0.327523 0.191647 -0.161988 72 30 112
0.102469 -0.331772 -0.191182 71 18 101
-0.332824 0.427442 -0.029126 68 55 129
-0.189004 0.325152 -0.199931 68 1 84
-0.084523 -0.079021 -0.424236 68 1 84
-0.313816 -0.382161 -0.150281 71 44 123
0.283704 0.585601 0.048843 56 87 140
-0.106397 -0.097254 -0.357910 68 1 84
0.594324 0.019003 0.447056 31 161 135
-0.538525 0.177263 0.114326 49 102 141
0.100580 -0.431235 -0.250110 68 1 84
-0.382783 0.041831 -0.163033 68 57 130
0.617916 -0.156962 0.542457 43 177 125
0.598880 -0.452036 0.216710 68 1 84
0.173743 -0.148480 -0.212976 72 28 110
0.031799 0.487463 -0.205962 68 1 84
0.394331 0.050383 -0.146634 60 78 138
-0.035077 0.468625 -0.209469 68 1 84
0.573491 0.146210 0.384796 31 162 134
-0.161036 0.189139 -0.269966 68 1 84
0.634582 -0.309786 0.459757 61 76 137
-0.213240 -0.051638 -0.217742 68 1 84
0.066379 0.003238 -0.339273 68 1 84
-0.099372 0.113499 -0.284863 68 1 84
-0.166289 0.574299 -0.124986 68 1 84
-0.000608 0.185662 -0.318151 68 1 84
-0.484648 0.316880 0.097166 35 136 141
0.079120 -0.330967 -0.229777 68 1 84
0.181164 -0.104054 -0.221480 71 22 105
-0.553636 -0.227276 -0.009479 56 87 140
-0.249928 -0.494726 -0.247351 68 1 84
0.497636 0.061332 -0.032572 47 106 141
0.475188 -0.393315 -0.065440 72 35 116
-0.055898 0.213144 -0.323168 68 1 84
-0.563729 0.252925 0.301931 57 185 118
-0.279870 0.592258 0.103551 57 85 139
-0.494675 0.399682 0.304798 81 196 104
-0.086833 0.107908 -0.297785 68 1 84
0.516228 -0.528418 -0.075930 68 1 84
-0.232795 -0.511072 -0.275093 68 1 84
0.149039 -0.481274 -0.288421 68 1 84
-0.091677 0.022926 -0.325151 68 1 84
0.603071 -0.056303 0.175634 44 114 142
-0.648907 -0.309070 0.235173 50 98 141
-0.158066 -0.050995 -0.311834 68 1 84
-0.148668 0.549684 -0.147834 68 1 84
-0.652622 -0.397883 0.347318 59 81 138
0.265935 0.172179 -0.201496 68 1 84
-0.609387 0.034868 0.306065 30 151 138
0.559604 0.172516 0.511613 57 185 118
0.639974 -0.278482 0.386183 63 71 136
0.612491 -0.075168 0.529648 37 171 129
0.459549 0.050012 -0.088998 60 78 138
0.546923 0.160320 0.182764 35 135 141
-0.086083 0.096605 -0.300876 68 1 84
-0.135133 0.258189 -0.281993 68 1 84
-0.637677 -0.552684 0.316309 70 14 97
0.156778 0.037044 -0.246358 69 5 88
0.226616 -0.412279 -0.215001 71 40 120
0.492731 -0.204871 -0.056375 68 55 129
-0.272840 -0.227409 -0.162904 61 75 137
-0.621535 0.005305 0.417660 30 151 138
0.449910 -0.337517 -0.050785 67 59 131
-0.149734 0.232105 -0.279990 68 1 84
0.429439 0.360301 0.039983 42 117 142
0.080229 -0.162961 -0.323598 68 1 84
0.569285 0.041240 0.140302 35 135 141
0.568989 0.063534 0.176423 42 118 142
-0.002754 0.577498 -0.201709 68 1 84
-0.474701 0.400184 0.172629 30 151 138
0.577947 -0.387247 0.120407 71 38 118
-0.581778 -0.571142 0.117477 68 1 84
-0.042106 -0.309047 -0.298444 68 3 87
-0.616148 0.019743 0.350207 31 162 134
-0.048951 0.010424 -0.464922 68 1 84
0.257379 -0.118635 -0.186595 51 96 141
-0.585431 0.008551 0.142817 35 136 141
0.156913 -0.308701 -0.162365 65 65 134
-0.664107 -0.403989 0.495278 44 112 142
0.134952 0.233290 -0.281300 68 1 84
-0.279239 0.204907 -0.199343 68 1 84
0.552044 -0.445617 0.058040 71 18 101
0.444173 0.232463 -0.028667 47 106 141
-0.175538 0.421554 -0.179040 68 1 84
-0.004286 -0.293169 -0.322301 68 1 84
0.440481 0.322720 0.027869 45 111 142
-0.621698 -0.090524 0.225199 39 125 142
-0.189261 -0.479585 -0.254003 68 1 84
0.105674 -0.287734 -0.200996 72 28 110
-0.611926 -0.362489 0.134921 64 67 135
0.293365 0.586427 0.092502 53 92 140
-0.422149 0.126742 -0.110881 69 52 127
0.593519 -0.179487 0.083991 54 90 140
0.130320 -0.094399 -0.275399 68 1 84
-0.335748 0.354851 -0.085963 68 1 84
-0.086173 0.051334 -0.309345 68 1 84
-0.086632 -0.337192 -0.231914 71 43 122
-0.397246 0.508653 0.216734 32 165 133
-0.068442 -0.076555 -0.442387 68 1 84
-0.661241 -0.339655 0.522014 43 115 142
-0.153053 0.463140 -0.165763 68 1 84
-0.001671 -0.363806 -0.290778 72 28 110
0.601445 -0.497018 0.238191 68 1 84
0.631652 -0.151395 0.369349 40 122 142
-0.192825 0.368062 -0.193295 68 1 84
0.149725 0.449403 -0.175698 68 1 84
0.541614 -0.438656 0.022467 71 22 105
-0.611001 -0.540032 0.229796 72 33 114
0.588143 -0.035642 0.124310 38 129 142
0.346326 -0.082336 -0.169970 69 52 127
-0.655454 -0.209738 0.536340 34 167 132
-0.628363 -0.076468 0.320402 37 130 142
0.159119 0.096299 -0.228530 71 18 101
0.517925 0.061684 0.002675 42 118 142
0.173498 -0.410472 -0.205697 72 28 110
-0.018851 0.350012 -0.307947 68 1 84
-0.628018 -0.035747 0.423213 39 126 142
0.469285 0.019903 -0.087506 58 83 139
-0.429264 0.370444 0.043317 43 116 142
0.062080 -0.435472 -0.279648 68 1 84
0.287198 0.325914 -0.136090 71 39 119
-0.415512 0.492187 0.277845 77 194 107
0.216272 0.567038 -0.081257 68 1 84
0.020784 0.121602 -0.326737 68 1 84
0.521913 -0.013510 -0.030364 47 105 141
-0.469918 0.033265 -0.092507 61 75 137
-0.093064 -0.271342 -0.254941 71 17 99
-0.411722 0.495362 0.284020 81 196 104
0.487203 0.083222 -0.037783 47 106 141
0.519059 -0.067281 -0.049299 55 89 140
-0.066909 -0.127489 -0.396717 68 1 84
0.605533 -0.028687 0.413671 40 122 142
-0.640973 -0.138231 0.288525 51 96 141
-0.535600 0.328123 0.435743 146 215 65
0.553096 0.228572 0.346736 44 177 125
-0.583529 0.047009 0.181908 34 137 141
0.523063 0.014929 -0.014066 41 121 142
0.493920 -0.203236 -0.056082 69 54 129
-0.588370 0.194948 0.416440 75 194 108
-0.434547 -0.195272 -0.118178 64 68 135
-0.544819 0.245739 0.195351 31 162 134
-0.102937 0.116457 -0.282177 68 1 84
-0.612621 0.004231 0.566358 51 182 121
-0.157464 0.410347 -0.200900 68 1 84
-0.332750 -0.024838 -0.190517 72 32 113
0.586841 -0.128207 0.068712 54 90 140
-0.265369 0.395114 -0.115694 68 1 84
-0.361888 0.539657 0.224458 43 177 125
0.302142 0.302505 -0.144946 72 32 113
0.282856 0.043566 -0.199624 61 75 137
0.180278 0.392271 -0.195377 68 1 84
0.553579 0.191989 0.260192 33 141 140
-0.375690 -0.436020 -0.200227 68 1 84
0.155223 -0.448270 -0.239118 68 1 84
-0.264106 -0.308969 -0.167030 68 55 129
-0.083611 0.201481 -0.314700 68 1 84
-0.316269 -0.448823 -0.245037 71 20 102
0.576010 -0.063466 0.060596 50 99 141
0.166489 -0.358663 -0.148347 65 65 134
-0.231197 0.354995 -0.157100 68 1 84
-0.046176 -0.235468 -0.339950 68 1 84
0.000231 0.696778 -0.092851 72 35 116
-0.325545 0.313477 -0.122682 68 1 84
0.606807 -0.186451 0.121188 55 89 140
-0.363488 0.508053 0.090628 41 121 142
0.076706 0.004669 -0.344895 68 1 84
0.074197 0.120184 -0.292694 68 1 84
-0.427328 0.479303 0.221151 34 167 132
0.466785 0.421054 0.234270 47 179 123
0.004127 0.117889 -0.333127 68 1 84
0.016726 -0.233921 -0.355657 68 1 84
0.415361 0.452714 0.109970 33 141 140
-0.664254 -0.567682 0.418327 70 48 125
0.577747 -0.446437 0.140768 71 20 102
-0.292200 0.072812 -0.200791 70 9 92
-0.576423 0.020567 0.111688 40 122 142
0.094903 0.099778 -0.268036 68 1 84
0.194366 0.111146 -0.220475 72 32 113
-0.482793 0.413604 0.253266 39 173 128
-0.576605 0.018069 0.109566 41 120 142
-0.611065 -0.169795 0.088141 44 114 142
-0.043030 0.326929 -0.301619 68 1 84
0.594874 -0.011181 0.227873 42 119 142
0.512258 0.307512 0.203022 34 139 141
-0.256701 -0.053743 -0.207601 69 5 88
0.051117 -0.085799 -0.434188 68 1 84
-0.345087 -0.231558 -0.143989 69 53 128
-0.589489 -0.307227 0.065492 58 83 139
-0.649448 -0.165828 0.331258 42 117 142
0.543737 0.111591 0.118864 44 113 142
0.066143 -0.204688 -0.320916 68 1 84
0.353016 -0.096571 -0.165221 54 90 140
0.129165 0.390354 -0.239565 68 1 84
-0.578018 0.205519 0.313723 51 182 121
0.204716 0.255885 -0.224887 68 1 84
0.624097 -0.116029 0.255147 45 111 142
0.459227 0.433516 0.308019 40 174 127
0.112523 0.070086 -0.270929 68 1 84
-0.574288 0.024287 0.105849 40 123 142
0.003496 0.701214 -0.080242 66 62 133
-0.614624 -0.002995 0.551696 68 190 112
0.628741 -0.516074 0.368777 68 1 84
-0.265219 0.358148 -0.132742 68 1 84
0.272664 -0.477302 -0.252177 70 47 124
0.573670 0.145552 0.386576 32 165 133
-0.173822 0.426346 -0.176966 68 1 84
-0.160595 0.668690 -0.006668 65 66 134
-0.129941 0.314030 -0.260481 68 1 84
0.631934 -0.229623 0.443881 44 113 142
0.446461 0.389146 0.102494 30 153 138
-0.068282 0.366394 -0.299022 68 1 84
0.072005 -0.193209 -0.318021 68 1 84
-0.580564 0.102961 0.210822 30 153 138
-0.560386 0.271386 0.318411 68 190 112
-0.632786 -0.098189 0.324866 42 117 142
-0.193145 0.561675 -0.100497 68 1 84
-0.057750 0.253781 -0.314130 68 1 84
0.607995 -0.034143 0.357999 39 125 142
0.519644 0.211787 0.129042 38 129 142
-0.611687 0.032150 0.322064 30 151 138
0.632729 -0.303882 0.522992 40 122 142
0.377767 -0.332772 -0.114996 68 55 129
0.645501 -0.264883 0.350230 61 74 137
-0.326959 -0.470512 -0.252637 71 21 103
-0.309601 -0.460212 -0.246741 72 26 108
-0.657442 -0.271614 0.464415 42 117 142
0.572675 0.139262 0.444362 30 153 138
0.604375 -0.021033 0.408426 39 124 142
-0.550830 -0.160185 -0.031088 56 86 139
0.469735 -0.530593 -0.160492 68 1 84
-0.617415 -0.007496 0.329365 34 137 141
-0.227965 0.514222 -0.080735 68 1 84
0.265218 0.146919 -0.201702 71 17 99
0.212446 0.638697 -0.006875 72 29 111
0.225996 0.240057 -0.216756 68 1 84
-0.274562 0.592827 0.077610 71 42 121
-0.007523 0.130040 -0.326981 68 1 84
0.135251 -0.247340 -0.194246 71 37 117
-0.229837 0.453847 -0.111156 68 1 84
0.248098 -0.092998 -0.195906 55 88 140
0.029953 0.390889 -0.287460 68 1 84
-0.577280 0.153083 0.236925 30 151 138
0.531972 -0.497679 -0.020438 68 1 84
0.577994 -0.064532 0.065327 47 106 141
-0.317339 0.326305 -0.120504 68 1 84
0.194111 0.211749 -0.239870 68 1 84
-0.349483 0.030961 -0.182600 70 48 125
0.127399 -0.010318 -0.372923 68 1 84
0.498626 0.374185 0.300486 38 172 129
0.166217 0.011863 -0.236602 71 22 105
0.626532 -0.441417 0.343490 72 32 113
0.032618 0.070851 -0.340859 68 1 84
0.222414 0.389118 -0.158336 68 1 84
-0.463482 0.384535 0.120903 32 143 140
0.371711 -0.489969 -0.219099 71 22 105
0.048290 -0.423811 -0.280655 68 1 84
0.408528 0.012616 -0.141901 62 72 136
0.076106 0.405240 -0.253605 68 1 84
0.452937 0.370118 0.096437 34 138 141
-0.667714 -0.561117 0.438396 66 62 133
0.492186 0.323208 0.151286 31 146 140
-0.257343 0.283589 -0.170114 68 1 84
-0.105403 -0.249563 -0.250633 72 28 110
0.530946 0.018290 0.001981 49 101 141
0.002241 0.137218 -0.322828 68 1 84
0.558604 -0.522905 0.093196 68 1 84
-0.581937 -0.104758 0.030154 48 104 141
0.009941 0.550903 -0.208242 68 1 84
-0.276355 0.580566 0.043526 70 14 97
-0.382784 -0.299698 -0.123420 72 33 114
-0.569394 0.190649 0.240905 30 156 137
-0.301592 0.014496 -0.201217 72 28 110
-0.397170 0.509214 0.224626 31 162 134
0.587590 0.049953 0.286031 40 123 142
0.357518 0.533524 0.122359 33 140 141
0.370317 0.066897 -0.159041 65 65 134
-0.536828 0.325394 0.294360 75 194 108
-0.481654 0.249193 0.034452 46 109 142
-0.123954 0.249916 -0.292757 68 1 84
0.603665 -0.485100 0.245676 68 1 84
-0.329389 0.563522 0.195014 38 172 129
-0.261325 0.604423 0.082259 71 21 103
0.564826 0.129231 0.235200 35 135 141
-0.203213 -0.488510 -0.259309 68 1 84
0.505503 0.271241 0.141402 37 131 141
0.520486 0.215330 0.135331 36 132 141
-0.572141 0.228502 0.490975 124 210 79
0.118160 0.623505 -0.150438 68 1 84
0.274471 -0.425142 -0.247491 70 47 124
0.136552 0.431636 -0.196436 68 1 84
0.562913 0.174888 0.469891 38 172 129
-0.030696 -0.451002 -0.298131 68 1 84
-0.522070 0.039903 -0.016818 46 109 142
0.099760 0.492640 -0.183471 68 1 84
0.370486 0.481437 0.060556 44 112 142
0.001493 -0.065944 -0.469066 68 1 84
-0.282461 0.104184 -0.200858 69 5 88
-0.657964 -0.313715 0.420793 44 113 142
-0.011124 0.417045 -0.250944 68 1 84
0.425140 -0.381083 -0.097122 69 53 128
0.450395 -0.554643 -0.181951 68 1 84
0.616220 -0.496020 0.309049 68 1 84
-0.121145 -0.233225 -0.236416 71 44 123
0.633737 -0.548563 0.400859 71 18 101
-0.397002 0.360079 -0.014670 55 88 140
-0.429020 0.429075 0.103553 42 117 142
0.307955 -0.440537 -0.249070 69 50 127
0.182943 -0.436363 -0.225439 71 20 102
0.536607 0.266365 0.268462 32 164 133
0.614568 -0.328238 0.189476 70 45 124
0.324817 0.350625 -0.098627 63 71 136
-0.550883 -0.360088 0.028050 70 47 124
0.334054 0.214975 -0.151371 69 50 127
0.271821 0.495790 -0.054349 68 1 84
-0.608026 -0.072325 0.148574 47 106 141
-0.274818 -0.053432 -0.203482 71 37 117
0.047117 -0.087626 -0.436401 68 1 84
-0.312849 -0.451106 -0.244991 71 20 102
-0.389157 0.393088 0.004566 58 82 139
-0.622462 -0.056174 0.298915 34 138 141
-0.653038 -0.335652 0.319249 50 99 141
0.596191 -0.552698 0.222137 68 1 84
-0.596196 0.091956 0.275501 31 163 134
0.151744 0.637332 -0.114328 68 1 84
-0.082275 0.049143 -0.311748 68 1 84
-0.568416 0.144432 0.192391 31 147 139
0.636197 -0.342177 0.435247 66 62 133
0.453581 0.061257 -0.091461 49 102 141
-0.125854 0.074481 -0.269697 68 1 84
-0.612314 -0.086394 0.152007 48 103 141
0.604588 -0.015782 0.361779 32 144 140
-0.320443 0.420552 -0.046217 71 39 119
-0.082263 -0.381107 -0.240125 70 12 95
0.591783 0.009937 0.536270 33 166 133
0.264419 0.591881 0.010742 72 29 111
0.490638 0.163484 0.011239 45 110 142
-0.353932 -0.415854 -0.159011 69 6 90
0.133473 -0.350384 -0.161811 69 50 127
-0.671197 -0.524352 0.462979 62 72 136
0.026445 -0.501954 -0.311773 68 1 84
-0.509577 0.296787 0.136538 32 143 140
0.327142 0.340034 -0.103734 65 65 134
0.097944 0.111312 -0.266968 68 1 84
-0.212891 0.490385 -0.106525 68 1 84
0.623631 -0.200370 0.501697 34 138 141
-0.270231 0.493671 -0.047261 69 5 88
-0.285744 0.184975 -0.197319 68 1 84
-0.484473 0.329099 0.108747 31 149 139
-0.040619 -0.391074 -0.280224 71 20 102
0.316497 0.027416 -0.189575 70 45 124
-0.581620 -0.023578 0.081148 44 114 142
-0.632676 -0.076853 0.371869 40 122 142
0.148568 -0.529446 -0.311291 68 1 84
0.238874 0.604174 -0.022726 68 1 84
-0.329834 -0.433786 -0.222323 71 17 99
0.639982 -0.559392 0.482829 48 103 141
-0.499028 0.392329 0.378154 154 216 60
-0.267492 0.605562 0.145499 48 104 141
-0.530794 0.062759 0.012406 36 132 141
0.462810 -0.402065 -0.086780 70 45 124
0.529172 0.295344 0.275884 41 175 127
0.642996 -0.272663 0.312343 68 55 129
0.175894 -0.033208 -0.228158 72 30 112
-0.163154 0.384378 -0.214697 68 1 84
-0.099913 -0.454489 -0.270154 68 1 84
0.479020 -0.469915 -0.126532 71 15 98
0.010530 0.696317 -0.092012 71 21 103
-0.658350 -0.211979 0.474881 38 127 142
0.632496 -0.572008 0.397122 69 8 91
-0.446843 -0.356202 -0.068013 72 26 108
0.176164 -0.468244 -0.258397 68 1 84
-0.607772 0.053251 0.313190 30 156 137
0.613379 -0.525841 0.298436 68 1 84
-0.652633 -0.332015 0.326178 50 98 141
0.269874 0.415083 -0.103297 69 6 90
-0.352300 0.329125 -0.089492 72 30 112
-0.000713 -0.224063 -0.365541 68 1 84
0.447580 0.224932 -0.027927 48 103 141
-0.651425 -0.291953 0.239629 45 110 142
0.075321 0.003514 -0.428503 68 1 84
0.149093 0.337421 -0.251361 68 1 84
0.152163 0.045180 -0.249901 68 1 84
0.395744 -0.554901 -0.234339 68 1 84
0.549504 0.048808 0.068201 47 106 141
-0.637427 -0.395356 0.262176 60 77 138
0.249660 0.208723 -0.209188 70 14 97
-0.495305 -0.551813 -0.137504 68 1 84
-0.331857 -0.134740 -0.169477 62 73 137
0.047379 0.023763 -0.397733 68 1 84
-0.410859 0.024499 -0.148091 72 35 116
-0.318428 0.554226 0.087830 62 72 136
-0.548871 0.003637 0.012012 44 114 142
0.409840 -0.191170 -0.118042 61 76 137
0.003418 0.416841 -0.251221 68 1 84
0.288827 0.574002 0.034100 62 73 137
-0.423558 0.259361 -0.052597 63 71 136
-0.166775 0.664995 -0.008430 71 22 105
-0.489748 -0.406567 -0.048392 69 5 88
0.273344 0.572527 -0.000977 71 15 98
-0.395859 -0.091178 -0.158927 61 75 137
0.549684 0.219933 0.280717 32 165 133
-0.575055 0.197781 0.279666 37 171 129
0.294754 0.037981 -0.196681 61 74 137
-0.637972 -0.396611 0.266797 61 76 137
-0.256528 0.413060 -0.113448 68 1 84
0.036751 0.180688 -0.317214 68 1 84
0.599233 -0.044055 0.172615 39 124 142
-0.432444 -0.560394 -0.203838 68 1 84
0.581140 0.089886 0.460182 30 155 137
-0.571673 0.106154 0.176604 35 136 141
-0.159158 0.525883 -0.141488 68 1 84
-0.510821 0.367183 0.251778 30 153 138
0.059260 0.549129 -0.200871 68 1 84
0.351001 0.275228 -0.118168 63 71 136
0.635130 -0.162115 0.342712 42 119 142
-0.240194 0.398916 -0.137267 68 1 84
0.278481 -0.413603 -0.233288 69 53 128
0.626480 -0.128113 0.252183 50 99 141
0.284106 -0.340368 -0.153233 67 60 132
-0.365561 0.060593 -0.169500 71 37 117
0.562659 -0.015045 0.054608 42 118 142
-0.056008 0.432126 -0.224051 68 1 84
-0.533406 0.290258 0.207320 31 149 139
-0.392084 -0.541894 -0.221172 68 1 84
-0.232363 0.625741 0.061211 57 84 139
-0.580590 0.178617 0.282156 36 170 130
-0.568363 0.251790 0.450730 107 205 89
0.096364 0.259813 -0.292602 68 1 84
-0.122712 -0.209217 -0.247486 69 52 127
-0.365204 0.515400 0.107887 39 125 142
-0.623482 -0.010175 0.406189 30 156 137
-0.109600 0.512412 -0.183152 68 1 84
-0.043070 -0.156485 -0.392701 68 1 84
-0.507566 0.317681 0.153427 30 153 138
0.198442 0.651572 0.008449 69 52 127
0.643894 -0.499154 0.499283 55 88 140
0.202645 -0.196591 -0.175630 63 71 136
0.475305 0.412394 0.279735 35 168 131
0.232154 0.531668 -0.077910 68 1 84
0.423568 0.199354 -0.073398 59 80 138
0.510049 0.137326 0.036605 37 131 141
-0.343677 -0.364559 -0.147786 72 35 116
0.419852 0.203290 -0.076350 59 80 138
-0.549531 -0.406426 0.025832 72 35 116
-0.652296 -0.482893 0.372931 66 62 133
0.496637 0.275668 0.118027 39 126 142
0.534799 -0.114777 -0.031759 64 67 135
0.320215 -0.012082 -0.187669 61 75 137
-0.380316 0.524439 0.239691 43 177 125
0.316192 -0.050871 -0.185609 59 80 138
-0.424099 0.363453 0.028258 53 92 140
-0.532758 0.301440 0.221194 32 165 133
-0.411150 0.495398 0.290007 119 208 82
0.596282 0.019626 0.333309 38 127 142
0.586592 0.024108 0.551034 39 173 128
0.057360 0.115621 -0.308864 68 1 84
0.560491 0.181748 0.479668 37 171 129
0.139568 -0.005742 -0.352511 68 1 84
-0.524011 -0.573586 -0.087125 68 1 84
-0.535471 0.249427 0.165443 30 156 137
-0.494933 0.062133 -0.047880 51 97 141
-0.109049 0.264011 -0.291553 68 1 84
0.407045 0.495028 0.184727 44 177 125
-0.656332 -0.458037 0.395325 69 54 129
-0.195503 0.262278 -0.234067 68 1 84
-0.053099 -0.143684 -0.395072 68 1 84
-0.657718 -0.323174 0.400586 55 88 140
0.580580 0.098986 0.439364 32 144 140
0.500833 0.038760 -0.038906 45 110 142
0.229450 -0.048399 -0.209782 68 55 129
0.614095 -0.076391 0.240964 41 121 142
-0.469038 0.155649 -0.042036 48 104 141
0.109899 0.225581 -0.295602 68 1 84
-0.210257 0.494291 -0.107090 68 1 84
-0.664225 -0.537487 0.417207 68 55 129
0.175061 0.656153 -0.056354 69 6 90
0.314365 -0.436689 -0.246160 69 52 127
-0.031398 0.126792 -0.327546 68 1 84
-0.362505 0.037551 -0.175126 70 45 124
0.051742 -0.224731 -0.331511 68 1 84
0.487807 0.225668 0.050061 44 112 142
-0.206445 0.620305 -0.042867 68 1 84
0.637382 -0.504444 0.420724 71 20 102
-0.346203 0.327234 -0.096614 69 5 88
0.224858 0.030198 -0.211784 71 44 123
0.639813 -0.460966 0.451775 70 49 126
-0.135322 0.677890 -0.044377 72 32 113
-0.097061 -0.242799 -0.267748 71 18 101
-0.352284 0.130702 -0.162835 72 34 115
0.288322 -0.209816 -0.154218 61 76 137
-0.664955 -0.432321 0.495598 49 101 141
0.420719 0.484293 0.239835 51 182 121
0.258604 0.615300 0.097752 55 89 140
0.606622 -0.381237 0.196789 71 37 117
0.528360 0.301614 0.417034 79 195 105
-0.621023 -0.044376 0.307082 38 129 142
0.530041 0.235865 0.195291 32 144 140
-0.480634 -0.017533 -0.097621 58 82 139
0.410798 -0.209568 -0.110562 63 69 135
-0.258718 0.608482 0.102150 67 60 132
0.428364 0.070763 -0.113534 63 71 136
-0.267113 0.591063 0.045698 70 48 125
0.020190 0.618583 -0.182992 68 1 84
0.379740 0.441173 0.033678 44 112 142
-0.394050 0.170883 -0.122014 62 72 136
-0.551260 -0.024486 0.000651 52 95 141
-0.235188 0.196505 -0.225132 68 1 84
0.429125 -0.489082 -0.182928 71 17 99
-0.441575 0.196344 -0.061878 45 111 142
-0.198854 0.627695 -0.045685 68 1 84
-0.613737 -0.000810 0.568279 94 201 97
0.093600 0.376330 -0.277216 68 1 84
-0.618057 -0.453859 0.214616 70 49 126
-0.157729 0.363400 -0.231819 68 1 84
-0.182368 -0.158703 -0.208610 63 69 135
0.586375 0.052078 0.492851 31 146 140
0.636025 -0.308208 0.435909 68 57 130
-0.202023 0.551978 -0.094204 68 1 84
-0.665854 -0.526037 0.426910 69 54 129
-0.566212 0.238980 0.503940 191 223 36
0.188402 0.241764 -0.240577 68 1 84
0.028516 0.364103 -0.305347 68 1 84
-0.055532 0.327031 -0.300934 68 1 84
0.397890 0.187275 -0.103874 60 77 138
0.492549 0.261947 0.094138 38 127 142
-0.358869 0.085879 -0.168326 68 1 84
-0.499430 -0.405632 -0.036962 70 12 95
-0.584396 0.174101 0.300407 42 176 126
0.300096 -0.264740 -0.150883 69 53 128
0.514899 0.317170 0.466159 98 202 95
-0.192347 0.516816 -0.114680 68 1 84
0.044246 0.606913 -0.186858 68 1 84
0.530629 -0.229262 -0.006633 61 74 137
0.506620 -0.501401 -0.100511 68 1 84
-0.296943 0.393747 -0.089852 68 1 84
-0.237141 -0.524189 -0.289926 68 1 84
-0.495258 -0.441386 -0.068174 68 1 84
-0.595240 0.159156 0.437025 61 187 116
0.162981 0.079855 -0.223646 70 47 124
0.451770 0.445335 0.246087 44 177 125
0.088854 0.575900 -0.185743 68 1 84
0.077970 0.137829 -0.293534 68 1 84
0.637207 -0.550055 0.426774 71 22 105
0.493051 -0.533728 -0.124291 68 1 84
0.151584 -0.031526 -0.301317 68 1 84
-0.366518 0.198991 -0.135124 68 57 130
-0.580006 0.218993 0.353816 46 178 124
0.536928 0.286269 0.376640 57 185 118
0.165621 0.670183 -0.013395 65 65 134
-0.159366 -0.200489 -0.210356 64 68 135
-0.385428 -0.285659 -0.120580 71 39 119
-0.183303 -0.296750 -0.171189 69 53 128
0.537863 -0.335875 0.034721 71 44 123
-0.388127 -0.502851 -0.208912 68 1 84
0.506404 -0.360672 -0.003710 71 40 120
0.032147 -0.421560 -0.286256 68 1 84
0.522648 0.017893 -0.013216 47 105 141
0.343850 -0.214484 -0.139267 62 72 136
0.508966 0.343629 0.416634 59 186 117
0.527530 -0.371986 0.020382 71 18 101
-0.657995 -0.322292 0.472027 52 95 141
0.593128 -0.400311 0.166431 68 57 130
0.315906 -0.292673 -0.152192 67 59 131
0.621608 -0.377408 0.247027 72 25 107
0.357795 0.146981 -0.149643 70 48 125
0.414325 -0.468518 -0.179493 71 24 106
0.230144 0.505374 -0.089651 68 1 84
0.240069 0.280986 -0.178567 71 21 103
-0.613166 0.063354 0.381158 32 164 133
-0.448435 0.455447 0.223528 31 163 134
-0.667729 -0.487657 0.451446 67 60 132
-0.649794 -0.545442 0.356848 70 12 95
-0.167202 -0.507558 -0.297368 68 1 84
-0.593868 0.132553 0.501388 81 196 104
-0.658651 -0.242179 0.408795 37 130 142
-0.112474 -0.093766 -0.344626 68 1 84
-0.422448 0.483927 0.216636 31 161 135
-0.670922 -0.558378 0.479546 61 76 137
0.456452 0.149860 -0.053038 47 105 141
0.576664 0.113709 0.462660 33 142 140
0.286152 0.151978 -0.192063 72 32 113
0.292247 0.593292 0.147928 32 145 140
0.574301 0.095989 0.243800 36 133 141
0.592288 0.039448 0.383630 36 133 141
-0.558449 0.286133 0.368234 71 192 110
-0.533979 -0.304432 -0.001065 65 65 134
-0.199032 -0.430812 -0.198899 68 1 84
0.494552 -0.099945 -0.080573 62 73 137
0.271672 0.209654 -0.197463 68 1 84
-0.418335 -0.463898 -0.153962 68 2 85
-0.083450 -0.359021 -0.235062 72 33 114
-0.664494 -0.418372 0.493893 48 104 141
-0.314281 0.246829 -0.166532 68 1 84
-0.031614 0.427515 -0.231836 68 1 84
0.160637 0.014970 -0.286542 68 1 84
0.556712 0.199310 0.298133 35 168 131
0.116091 -0.160499 -0.272350 68 1 84
-0.647306 -0.144558 0.491332 33 142 140
-0.610560 -0.307958 0.106926 50 98 141
0.121008 -0.388018 -0.195918 72 33 114
-0.497189 -0.152335 -0.091571 61 76 137
-0.002220 0.207742 -0.324161 68 1 84
0.607042 -0.251682 0.130608 66 62 133
0.616686 -0.128141 0.166457 62 72 136
0.614988 -0.083884 0.494849 30 159 136
-0.581542 -0.042915 0.064273 46 107 142
0.379530 0.493920 0.094796 40 122 142
-0.662414 -0.239034 0.360119 34 137 141
-0.375314 0.327959 -0.067166 66 64 133
0.635875 -0.351216 0.485044 56 86 139
0.008568 0.573043 -0.202642 68 1 84
-0.212828 -0.333911 -0.162732 71 44 123
0.551626 -0.503440 0.067292 68 1 84
-0.648314 -0.166735 0.288488 44 112 142
0.638069 -0.440212 0.441072 70 45 124
-0.626724 -0.567542 0.279405 68 3 87
-0.488004 0.392206 0.205145 31 162 134
0.453737 -0.301518 -0.046588 66 62 133
0.523247 -0.464072 -0.042832 72 29 111
-0.455459 0.332131 0.052445 40 123 142
0.559393 -0.468329 0.088091 72 28 110
0.477480 0.002365 -0.083366 61 74 137
0.433424 0.469062 0.235893 43 177 125
0.428654 -0.338603 -0.068266 69 53 128
-0.173545 -0.164904 -0.211736 67 60 132
-0.629567 -0.048002 0.396425 30 152 138
0.312366 0.267348 -0.157540 69 50 127
-0.412368 -0.570868 -0.222318 68 1 84
0.086423 0.657498 -0.141980 68 1 84
0.500931 0.333856 0.487802 119 208 82
-0.531511 -0.082177 -0.053450 49 101 141
-0.612637 0.012280 0.524270 35 169 130
0.552327 -0.093268 -0.001712 56 86 139
0.509217 -0.457009 -0.073051 72 28 110
-0.594082 0.155413 0.463769 48 180 122
-0.399796 -0.486328 -0.193489 68 1 84
0.583859 0.027709 0.218553 33 141 140
0.321472 0.232975 -0.158855 71 42 121
-0.533792 -0.423100 -0.003206 71 18 101
0.297219 0.396626 -0.089194 69 54 129
0.093476 0.026413 -0.309565 68 1 84
0.182056 0.207050 -0.247472 68 1 84
0.634363 -0.192430 0.404228 54 91 140
0.602448 -0.032504 0.571595 48 180 122
-0.076941 0.528016 -0.200999 68 1 84
-0.035886 0.525977 -0.210908 68 1 84
-0.608346 -0.506703 0.209443 68 57 130
-0.309272 0.574135 0.140396 46 109 142
0.525023 0.312323 0.292591 35 169 130
