ply
format ascii 1.0
element vertex 1256
property float x
property float y
property float z
property uchar red
property uchar green
property uchar blue
end_header
0.377036 -0.235285 -0.166211 72 35 116
-0.009837 0.215591 -0.335961 36 134 141
-0.224979 0.069086 -0.196330 162 218 55
-0.022343 0.634466 -0.189180 68 1 84
0.330093 -0.453575 -0.276888 68 1 84
-0.248531 0.605191 -0.075723 68 1 84
0.341487 0.529740 0.092103 68 1 84
0.655789 -0.304585 0.469451 68 1 84
-0.449887 0.123395 -0.053194 35 136 141
0.559481 0.185204 0.293903 50 99 141
0.406743 0.074756 -0.115452 33 167 132
0.211471 0.399709 -0.129820 68 1 84
-0.090704 0.652277 -0.161266 68 1 84
0.630399 -0.158782 0.440998 59 80 138
0.146461 0.671641 -0.069461 68 1 84
0.477832 -0.102584 -0.084700 58 83 139
0.648235 -0.251419 0.450749 72 32 113
-0.604407 0.127515 0.432928 59 80 138
0.453993 -0.305650 -0.082187 68 1 84
-0.583688 -0.278784 0.081103 68 1 84
-0.510600 0.008927 0.026506 51 97 141
-0.421153 0.396539 0.061130 68 57 130
0.607161 -0.008332 0.406215 38 129 142
-0.432781 0.366512 0.044768 66 64 133
-0.403321 0.224333 -0.080840 60 77 138
0.539274 -0.146179 -0.016936 71 17 99
-0.558206 0.251350 0.455969 40 122 142
-0.118490 -0.381627 -0.216673 68 1 84
0.371966 -0.273118 -0.166177 68 1 84
-0.088218 0.645816 -0.167413 68 1 84
0.541235 0.305952 0.465839 44 114 142
-0.573692 0.222945 0.482895 37 130 142
-0.046205 0.272107 -0.334387 30 152 138
0.429902 0.438139 0.243435 61 75 137
-0.072561 -0.251652 -0.364739 68 2 85
0.036902 -0.267014 -0.338017 68 3 87
-0.422573 0.372563 -0.000094 45 111 142
-0.349650 0.533379 0.095138 71 15 98
0.501684 -0.247089 -0.039721 68 1 84
0.459704 0.315562 0.091705 53 92 140
0.499536 0.280714 0.166847 30 154 137
0.644082 -0.330572 0.242425 69 5 88
0.405075 0.167532 -0.079483 40 123 142
0.077462 -0.341998 -0.256494 68 1 84
0.637316 -0.192142 0.394386 69 50 127
0.179420 0.080862 -0.215665 42 117 142
-0.599476 -0.522738 0.183406 68 1 84
-0.638192 -0.189356 0.540815 71 44 123
-0.503190 -0.317515 -0.017644 68 1 84
0.225444 -0.370606 -0.188086 68 1 84
-0.506015 0.228586 0.118888 65 66 134
-0.518534 -0.480196 -0.047719 68 1 84
0.060711 0.219359 -0.334755 40 123 142
0.501793 0.195988 0.104672 37 131 141
-0.568887 -0.243271 0.044552 68 1 84
0.219301 0.083441 -0.189587 30 155 137
-0.173406 0.152047 -0.269076 37 171 129
-0.297336 0.576867 0.084513 69 5 88
0.471447 0.314865 0.122062 31 149 139
0.419590 0.218442 -0.044655 38 128 142
-0.179686 0.060244 -0.287890 134 212 73
-0.410674 -0.117834 -0.122094 69 5 88
0.432516 0.044826 -0.097328 42 176 126
-0.648416 -0.360580 0.289465 68 1 84
-0.235580 0.638021 -0.016590 68 1 84
-0.533622 -0.522938 0.001357 68 1 84
-0.258175 0.168083 -0.202208 56 185 118
0.470013 -0.394182 -0.136436 68 1 84
0.649289 -0.238568 0.340710 67 59 131
-0.552695 -0.541575 0.056940 68 1 84
0.496984 0.350969 0.275203 38 128 142
-0.601294 -0.261704 0.136240 68 1 84
-0.183480 0.262176 -0.278019 32 143 140
0.615573 -0.243845 0.174066 69 54 129
-0.485504 0.019954 -0.016312 63 71 136
0.154452 0.003116 -0.307619 40 122 142
-0.186433 0.309098 -0.226106 59 80 138
0.484157 -0.347726 -0.071463 68 1 84
-0.509858 0.068023 0.047095 66 64 133
-0.587135 0.141724 0.360058 38 129 142
0.417813 0.130380 -0.074067 30 158 136
-0.123511 0.261685 -0.318316 56 185 118
-0.472031 -0.250031 -0.060433 68 1 84
-0.507463 0.214881 0.112751 60 77 138
-0.288685 -0.144547 -0.177382 52 95 141
-0.036408 0.275150 -0.333863 30 151 138
0.007542 0.684376 -0.143778 68 1 84
-0.624734 -0.178637 0.476325 68 1 84
0.458971 -0.071843 -0.094780 34 138 141
-0.623237 -0.116281 0.476803 71 42 121
-0.593548 -0.201554 0.152239 68 1 84
0.678890 -0.563292 0.411017 68 1 84
0.572341 -0.005741 0.224469 30 155 137
-0.116020 -0.000678 -0.453366 44 112 142
0.552279 -0.036227 0.081261 51 96 141
-0.344897 0.049120 -0.170837 31 147 139
0.604300 0.080615 0.441054 45 111 142
-0.125536 0.305589 -0.288309 49 102 141
0.131139 0.387742 -0.202666 57 85 139
0.244347 0.006273 -0.216711 94 201 97
-0.642281 -0.276026 0.361135 68 1 84
-0.604660 -0.141711 0.301865 72 25 107
0.340992 -0.042564 -0.184302 40 122 142
0.307937 0.067551 -0.185742 83 197 103
-0.426292 0.368063 0.007874 52 94 141
-0.423365 0.439277 0.271224 61 76 137
0.645748 -0.219360 0.529280 52 95 141
-0.487798 0.345299 0.313159 57 85 139
-0.072483 0.477294 -0.190377 68 1 84
-0.595087 -0.446362 0.131917 68 1 84
-0.593357 -0.141982 0.235593 71 17 99
-0.438632 0.440015 0.207755 53 92 140
0.588399 0.189622 0.470106 31 162 134
-0.560537 -0.039190 0.126953 72 33 114
-0.625380 -0.126294 0.491460 72 34 115
-0.042214 -0.284274 -0.358311 68 1 84
0.560728 0.079036 0.222081 39 173 128
0.570376 0.242022 0.499239 49 100 141
-0.576138 -0.559608 0.120742 68 1 84
0.438758 0.425045 0.212461 69 52 127
-0.338519 0.550008 0.173058 68 1 84
0.089559 -0.457032 -0.327204 68 1 84
-0.421531 -0.156313 -0.118728 68 1 84
-0.255445 0.320390 -0.128560 55 89 140
0.110091 -0.249317 -0.256199 72 26 108
0.061434 -0.243307 -0.315564 72 35 116
-0.398060 0.158029 -0.105649 37 130 142
-0.624400 -0.046302 0.469466 67 59 131
0.205327 0.265758 -0.234291 47 106 141
-0.025695 0.313815 -0.298612 30 157 136
-0.593088 0.070736 0.356681 60 78 138
0.427302 0.169657 -0.044095 35 136 141
0.604940 -0.462310 0.159685 68 1 84
0.094803 -0.459039 -0.330213 68 1 84
0.326974 0.245779 -0.134387 46 109 142
0.256285 0.132073 -0.174097 116 208 84
0.513185 -0.108119 -0.045629 53 92 140
-0.056864 0.099677 -0.352764 30 153 138
0.268404 -0.435613 -0.272929 68 1 84
-0.634978 -0.515175 0.268326 68 1 84
0.271936 -0.102669 -0.206326 44 112 142
0.153619 0.342667 -0.187424 44 113 142
-0.166079 -0.079103 -0.296403 41 175 127
-0.456915 0.136777 -0.037161 57 84 139
0.642858 -0.248316 0.277041 71 37 117
0.172411 0.381308 -0.166335 67 60 132
0.394693 -0.315622 -0.152378 68 1 84
-0.084247 0.064027 -0.387129 38 172 129
0.034535 0.080446 -0.335209 33 167 132
0.467024 0.397502 0.314446 55 88 140
-0.005566 0.109213 -0.373272 39 173 128
0.389681 0.484102 0.282200 68 1 84
-0.081679 -0.413633 -0.271048 68 1 84
-0.619420 0.050903 0.474467 56 86 139
0.614366 -0.003598 0.552661 61 74 137
0.649860 -0.260512 0.458457 68 1 84
0.566053 -0.440877 0.062014 68 1 84
0.516229 0.126025 0.097126 54 184 119
-0.237644 -0.108723 -0.220463 89 199 100
-0.035633 0.514390 -0.204712 68 1 84
-0.432242 0.348325 0.001718 44 112 142
-0.059315 0.269911 -0.334374 36 134 141
-0.170571 0.681097 -0.062569 68 1 84
-0.608275 -0.010824 0.396549 55 89 140
0.134501 0.659987 -0.104342 68 1 84
0.171817 0.157878 -0.259847 46 108 142
0.323368 0.511249 0.015794 71 18 101
-0.465739 0.387239 0.174681 52 94 141
0.538159 -0.002283 0.069951 44 113 142
-0.385255 -0.516668 -0.241727 68 1 84
-0.077937 0.330187 -0.268721 49 102 141
-0.411305 0.031691 -0.126224 39 173 128
0.245896 0.066327 -0.186022 134 212 73
0.498354 -0.357363 -0.062860 68 1 84
0.560594 0.136469 0.270223 40 122 142
-0.524954 0.250794 0.222925 46 109 142
-0.602486 -0.127650 0.305534 70 11 94
-0.199727 -0.055212 -0.240823 253 231 36
0.231316 -0.219729 -0.209423 58 83 139
0.114672 -0.443296 -0.299958 68 1 84
0.331401 0.491091 0.004668 68 1 84
-0.582313 0.169792 0.361763 40 122 142
-0.087798 -0.066599 -0.455745 65 65 134
0.143888 0.049160 -0.324293 37 130 142
-0.587101 -0.412649 0.106670 68 1 84
0.164866 -0.036569 -0.245978 31 148 139
-0.114040 0.046767 -0.334901 31 161 135
0.483461 0.012860 -0.026285 40 122 142
0.627783 -0.106451 0.474248 40 122 142
-0.305070 -0.452538 -0.254872 68 1 84
0.349003 0.039727 -0.177747 35 169 130
0.614730 -0.115285 0.357045 45 110 142
0.445214 -0.258326 -0.099796 68 1 84
0.126439 -0.071502 -0.307428 47 106 141
-0.053029 -0.315708 -0.327787 68 1 84
-0.323624 0.527459 -0.011445 72 30 112
-0.086663 -0.454507 -0.316834 68 1 84
0.273361 -0.459517 -0.291725 68 1 84
-0.292018 -0.213488 -0.191160 69 8 91
0.413136 -0.290091 -0.133787 68 1 84
0.050285 0.039216 -0.318828 32 144 140
0.619468 -0.295188 0.160774 68 1 84
-0.505280 0.210290 0.104208 56 87 140
-0.131814 -0.096953 -0.372862 41 121 142
-0.613003 -0.087816 0.398243 61 74 137
-0.518969 -0.245482 -0.018285 68 1 84
0.652142 -0.274303 0.497402 68 1 84
-0.581324 -0.090641 0.212511 68 1 84
-0.599450 -0.218177 0.168853 68 1 84
0.579345 0.047595 0.305840 36 132 141
0.138059 0.550134 -0.148651 68 1 84
0.142153 0.193809 -0.287185 53 92 140
-0.319099 -0.107041 -0.170300 67 59 131
0.457622 0.410150 0.368816 69 53 128
-0.626611 -0.201018 0.370731 68 1 84
0.238769 0.606014 0.002405 68 1 84
-0.448942 0.221122 -0.030414 67 60 132
0.509797 0.350128 0.339145 46 107 142
0.522723 -0.365175 -0.029970 68 1 84
0.521061 -0.159207 -0.043302 72 33 114
0.083102 0.232183 -0.327226 33 140 141
-0.108152 -0.217062 -0.334676 69 5 88
0.012547 0.096518 -0.364332 48 180 122
-0.244812 0.407252 -0.129722 49 100 141
0.106926 -0.457861 -0.328957 68 1 84
0.318954 0.268590 -0.140594 43 116 142
-0.129028 0.193867 -0.316097 30 157 136
0.165442 0.048374 -0.213211 30 159 136
-0.675653 -0.570341 0.467121 68 1 84
-0.122186 -0.239593 -0.281881 72 30 112
-0.191228 -0.055926 -0.248056 197 223 33
0.606031 -0.358976 0.127323 68 1 84
0.534375 0.233575 0.229897 38 129 142
-0.609285 -0.166827 0.294916 69 5 88
0.056608 -0.330098 -0.285374 68 1 84
0.505469 0.203847 0.119628 34 137 141
0.614203 -0.046863 0.419742 31 150 139
-0.304343 -0.317735 -0.184420 68 1 84
-0.167590 0.211683 -0.286301 35 137 141
-0.406419 -0.280314 -0.125271 68 1 84
-0.461717 -0.423565 -0.142040 68 1 84
0.328006 -0.028791 -0.193936 42 118 142
-0.050053 -0.112482 -0.455168 71 38 118
0.506899 0.099734 0.060544 43 177 125
-0.322668 0.284836 -0.164657 36 133 141
0.203267 0.634731 -0.012685 68 1 84
-0.420104 0.463927 0.221873 66 61 132
0.524399 0.238887 0.199575 31 161 135
0.276677 0.130011 -0.163728 107 205 89
0.634954 -0.162602 0.477269 53 93 140
0.241958 0.431420 -0.097599 68 1 84
0.088474 0.138105 -0.324019 30 153 138
-0.581206 -0.164816 0.109199 70 48 125
0.252787 0.274161 -0.195861 33 141 140
-0.586799 -0.101216 0.238759 71 20 102
0.047589 -0.256900 -0.329081 70 49 126
-0.060623 0.087422 -0.384119 73 193 109
0.561328 0.253237 0.376732 56 86 139
-0.497706 0.314227 0.208434 42 117 142
-0.654421 -0.420002 0.411743 68 1 84
0.496782 -0.378542 -0.080264 68 1 84
-0.446997 -0.128611 -0.100351 68 3 87
0.479770 0.355050 0.210111 48 104 141
0.437158 -0.052007 -0.112674 46 108 142
-0.652147 -0.349591 0.335236 68 1 84
-0.349136 -0.485670 -0.253004 68 1 84
0.456408 0.078028 -0.035996 85 198 102
0.374377 -0.265061 -0.164752 68 1 84
-0.633785 -0.245368 0.449142 69 8 91
-0.567411 -0.541852 0.104095 68 1 84
-0.030017 0.111951 -0.426210 33 167 132
-0.326239 0.553892 0.038927 72 28 110
-0.547190 0.116321 0.179869 70 47 124
0.057962 -0.210727 -0.341289 65 66 134
-0.640849 -0.414592 0.259432 68 1 84
0.022381 0.609682 -0.195855 68 1 84
-0.501828 -0.313037 -0.018460 68 1 84
0.188767 -0.249175 -0.213186 52 94 141
-0.014250 -0.400273 -0.316532 68 1 84
-0.545990 0.273948 0.413638 43 116 142
-0.520128 0.296715 0.512764 71 17 99
-0.284865 0.448954 -0.083198 71 15 98
0.011248 0.685810 -0.141330 68 1 84
-0.042807 0.570653 -0.208546 68 1 84
0.054543 0.335821 -0.261293 61 75 137
0.275967 -0.262376 -0.205097 48 104 141
0.657836 -0.287224 0.395026 72 25 107
0.087605 0.222226 -0.323177 39 126 142
0.583622 -0.050584 0.246800 36 132 141
-0.438164 -0.364166 -0.087350 68 1 84
-0.074569 0.144752 -0.337790 81 196 104
-0.548083 0.267213 0.379170 43 116 142
0.601627 0.004767 0.386925 36 132 141
0.209473 -0.389120 -0.192400 68 1 84
0.415222 -0.068229 -0.130722 56 86 139
-0.171836 -0.163142 -0.264916 47 105 141
-0.235072 -0.469789 -0.280053 68 1 84
0.558489 -0.442423 0.043673 68 1 84
-0.116999 0.424900 -0.205236 71 22 105
0.475347 -0.025482 -0.061732 30 156 137
0.474855 0.356104 0.192815 42 119 142
0.091901 0.189948 -0.318002 40 122 142
0.010790 0.544779 -0.209072 68 1 84
-0.393278 0.061797 -0.136994 53 183 120
-0.638093 -0.282234 0.277353 68 1 84
0.586884 -0.382154 0.091727 68 1 84
-0.559585 0.075417 0.209558 64 68 135
-0.158598 0.443108 -0.176393 68 1 84
-0.547756 0.212195 0.266740 50 99 141
-0.657007 -0.533854 0.373775 68 1 84
0.557175 0.126014 0.239768 42 119 142
-0.180795 0.369129 -0.200317 69 53 128
0.472437 -0.509411 -0.163942 68 1 84
-0.241577 0.630131 0.046580 68 1 84
0.499567 0.299743 0.190060 38 172 129
-0.567392 0.160447 0.295167 55 88 140
0.547618 0.149284 0.206715 30 152 138
0.114280 0.091418 -0.279070 81 196 104
-0.501674 0.305272 0.211910 40 122 142
-0.165451 0.584734 -0.166798 68 1 84
0.524245 0.028062 0.059813 36 132 141
-0.505087 0.129956 0.060432 70 48 125
-0.346408 -0.531656 -0.259641 68 1 84
0.434019 0.102254 -0.061680 56 185 118
-0.649113 -0.313597 0.340607 68 1 84
0.627086 -0.064103 0.531121 51 96 141
-0.452408 0.034635 -0.073066 43 115 142
0.362113 -0.474837 -0.271785 68 1 84
0.236484 -0.057594 -0.229004 51 182 121
-0.502775 0.249767 0.126442 67 60 132
-0.220826 0.489288 -0.126010 68 1 84
-0.575161 0.043976 0.267782 70 49 126
-0.481884 0.347502 0.170604 46 108 142
-0.275311 0.303404 -0.172940 43 116 142
-0.255932 -0.148113 -0.194256 50 99 141
-0.559169 0.061636 0.199584 64 67 135
0.125279 0.687034 -0.038435 68 1 84
0.400899 0.210098 -0.072115 43 116 142
0.190169 0.429828 -0.139851 68 1 84
-0.544426 -0.135856 0.010887 68 1 84
0.079606 -0.169055 -0.338514 70 45 124
0.490439 0.321386 0.190461 41 175 127
-0.076607 0.081833 -0.426259 41 175 127
-0.011188 -0.346570 -0.323997 68 1 84
0.333519 -0.040426 -0.189050 49 101 141
-0.313027 -0.407357 -0.185014 68 1 84
-0.176738 0.305949 -0.250620 42 118 142
0.560145 0.010786 0.167668 30 153 138
0.572919 -0.117072 0.087541 71 15 98
0.224326 0.573854 -0.060652 68 1 84
-0.121351 -0.169116 -0.344667 49 101 141
-0.125131 -0.320593 -0.212511 71 22 105
0.656225 -0.309999 0.304566 71 20 102
-0.109563 0.058252 -0.297097 41 175 127
0.479335 0.004122 -0.039134 35 137 141
0.080600 -0.051176 -0.410100 63 69 135
-0.415819 0.449813 0.274096 59 80 138
0.519386 0.249722 0.194399 31 163 134
0.024143 -0.373305 -0.309525 68 1 84
0.064924 0.582749 -0.190856 68 1 84
-0.459393 0.034553 -0.061949 40 122 142
-0.431951 0.453296 0.185022 71 38 118
-0.584894 -0.157450 0.152564 68 3 87
0.558823 0.264728 0.511704 52 95 141
0.128564 0.184740 -0.293990 54 90 140
-0.124575 -0.163921 -0.343152 51 97 141
0.085542 -0.101727 -0.367116 57 84 139
-0.610933 -0.201855 0.247153 72 26 108
-0.278772 -0.511752 -0.285301 68 1 84
0.460256 -0.447094 -0.184405 68 1 84
-0.399184 -0.487663 -0.225538 68 1 84
0.630541 -0.507931 0.228529 68 1 84
0.019160 -0.272259 -0.352912 68 1 84
-0.447284 0.057095 -0.076526 39 126 142
0.634921 -0.125062 0.545021 47 105 141
-0.588060 -0.254529 0.092730 68 1 84
-0.530533 0.206462 0.183921 61 76 137
-0.612639 -0.025041 0.601252 67 58 131
-0.185108 0.422332 -0.171632 53 93 140
-0.192652 0.556205 -0.151753 68 2 85
0.591258 0.023572 0.349073 41 121 142
-0.362435 -0.102170 -0.148335 72 30 112
-0.250847 0.621580 0.015202 68 1 84
0.259148 0.429624 -0.084229 68 1 84
0.379403 0.511918 0.156556 66 64 133
0.523271 0.146805 0.126214 35 169 130
0.279324 0.575952 0.039988 68 1 84
-0.579055 -0.229791 0.068824 68 1 84
0.165619 -0.426053 -0.250194 68 1 84
-0.369104 -0.400384 -0.166481 68 1 84
-0.182038 0.470403 -0.154098 68 1 84
-0.614890 -0.103242 0.403026 67 59 131
0.342039 0.475105 0.004160 68 1 84
0.006609 0.101886 -0.370728 62 188 115
-0.557476 -0.380694 0.044155 68 1 84
-0.256793 -0.308585 -0.193073 68 1 84
0.176284 -0.515576 -0.349419 68 1 84
-0.062577 0.364296 -0.269213 65 65 134
0.675167 -0.439592 0.398283 68 1 84
-0.478497 0.348107 0.155809 50 98 141
0.600318 -0.051290 0.342495 42 119 142
0.261062 0.459839 -0.070373 68 1 84
-0.555587 -0.021022 0.121006 70 48 125
0.588101 0.103645 0.379333 37 131 141
0.186201 0.601138 -0.091494 68 1 84
-0.011936 -0.234788 -0.391259 68 1 84
0.040343 -0.226148 -0.356273 67 58 131
-0.618638 -0.053658 0.438283 62 73 137
0.641491 -0.395724 0.240671 68 1 84
-0.500691 -0.093236 -0.037462 71 43 122
-0.270363 -0.460906 -0.266260 68 1 84
0.681943 -0.491326 0.449878 68 1 84
0.606893 -0.247506 0.140272 68 1 84
-0.109260 -0.010610 -0.460838 48 103 141
-0.267451 -0.460780 -0.266483 68 1 84
-0.398128 -0.230494 -0.144700 68 1 84
-0.487636 -0.502094 -0.113324 68 1 84
0.615092 -0.041524 0.426367 38 129 142
0.000090 -0.311406 -0.338956 68 1 84
-0.581266 -0.544852 0.136506 68 1 84
0.087864 -0.084627 -0.368172 40 122 142
-0.283980 -0.116654 -0.188774 50 99 141
0.365675 0.519745 0.235814 68 1 84
-0.478415 -0.344224 -0.044258 68 1 84
0.189739 -0.173042 -0.225051 31 161 135
0.255632 -0.532321 -0.335269 68 1 84
0.212269 -0.012819 -0.224903 47 179 123
0.317710 0.539251 0.055530 68 1 84
-0.460082 0.378190 0.139912 63 69 135
0.085293 0.224497 -0.324824 34 137 141
0.029781 -0.314473 -0.320763 68 1 84
0.280652 0.396614 -0.081140 68 1 84
0.619644 -0.092750 0.419483 47 106 141
-0.052142 0.356931 -0.271675 56 86 139
0.189492 0.523206 -0.108080 68 1 84
-0.447592 0.394516 0.346835 70 12 95
0.195983 0.294021 -0.216746 38 128 142
-0.573390 0.160303 0.317365 55 88 140
0.552290 -0.094359 0.033832 52 95 141
0.254426 0.273235 -0.195281 31 150 139
-0.502743 0.303193 0.213966 40 122 142
-0.195398 0.671042 -0.028713 68 1 84
-0.421918 0.452753 0.144415 68 1 84
0.303283 0.486388 -0.029608 68 1 84
0.676260 -0.507047 0.409091 68 1 84
-0.421241 0.369409 -0.009432 43 115 142
0.095311 -0.185700 -0.308559 62 73 137
-0.251025 -0.035595 -0.216243 44 177 125
-0.565266 -0.060173 0.130028 71 17 99
-0.647277 -0.405133 0.478868 68 1 84
-0.154696 -0.335624 -0.187844 68 1 84
-0.579242 -0.320066 0.074339 68 1 84
0.271368 -0.214938 -0.207183 53 93 140
0.567114 0.162211 0.318305 50 98 141
-0.360515 0.519187 0.081556 71 44 123
0.498855 0.361559 0.468689 52 95 141
0.423393 -0.340275 -0.117122 68 1 84
0.421556 0.426109 0.115428 70 45 124
-0.027696 0.046984 -0.501394 34 167 132
-0.156483 -0.288869 -0.211036 71 20 102
-0.238926 0.128079 -0.198545 31 162 134
0.049144 0.391639 -0.247350 71 39 119
0.089560 -0.121043 -0.351269 60 78 138
-0.222412 0.098527 -0.204552 159 217 56
0.102511 0.239680 -0.316933 32 144 140
-0.517818 -0.347566 -0.008587 68 1 84
-0.124988 0.100325 -0.290165 62 188 115
0.037079 0.556997 -0.203917 68 1 84
0.491637 -0.109033 -0.071779 57 85 139
0.372722 -0.081053 -0.159276 39 125 142
-0.164938 -0.030874 -0.347558 53 93 140
-0.424217 0.462283 0.207246 67 60 132
0.469410 0.160092 0.016656 31 161 135
-0.147610 0.337928 -0.229848 57 84 139
0.129284 0.308917 -0.241869 41 121 142
0.004776 -0.148909 -0.429344 71 21 103
-0.441102 0.038593 -0.089223 30 155 137
0.587848 0.110300 0.381847 38 128 142
0.581014 -0.366449 0.077674 68 1 84
-0.645547 -0.383573 0.455115 68 1 84
0.046194 0.487349 -0.186451 68 1 84
-0.509125 -0.170691 -0.046422 68 1 84
0.487572 -0.425563 -0.124873 68 1 84
0.662399 -0.379087 0.353471 68 1 84
0.086048 0.043986 -0.402779 41 120 142
0.642747 -0.281581 0.248274 68 1 84
0.623185 -0.471247 0.208733 68 1 84
0.570792 -0.140088 0.064021 71 22 105
-0.386917 0.368375 -0.061147 58 83 139
0.480346 -0.494135 -0.150134 68 1 84
0.184933 -0.461250 -0.303774 68 1 84
0.489910 0.194904 0.074846 33 142 140
0.177175 0.552352 -0.114800 68 1 84
0.035488 -0.040846 -0.476230 50 98 141
-0.617900 -0.483430 0.212402 68 1 84
0.206305 0.255450 -0.237107 44 114 142
-0.641572 -0.277634 0.529986 71 17 99
-0.367308 -0.138088 -0.144648 67 60 132
0.608817 0.002152 0.418925 30 154 137
0.630546 -0.148735 0.459089 45 111 142
0.568567 -0.113080 0.072936 68 55 129
-0.485533 -0.003018 -0.023409 57 85 139
0.631970 -0.176379 0.355451 70 11 94
-0.099869 0.501848 -0.189615 68 1 84
-0.377646 0.280441 -0.106070 35 135 141
-0.449212 -0.493896 -0.177515 68 1 84
-0.322950 0.307885 -0.151961 42 117 142
-0.408475 0.480202 0.219109 67 59 131
0.379027 0.466337 0.081064 72 35 116
0.626163 -0.118368 0.451899 42 118 142
0.236779 0.582673 -0.038910 68 1 84
-0.172211 -0.052050 -0.284696 68 190 112
-0.567265 0.056557 0.237126 70 48 125
-0.270626 -0.350894 -0.187688 69 5 88
0.440924 -0.049622 -0.109084 49 101 141
-0.062975 0.393806 -0.250058 59 81 138
0.279385 0.588288 0.126810 68 1 84
0.647588 -0.231510 0.500123 65 65 134
-0.336635 0.546572 0.071000 71 21 103
0.095463 0.393431 -0.226933 63 69 135
0.118249 -0.035115 -0.356751 64 68 135
-0.605819 -0.070237 0.365842 55 89 140
0.003885 -0.229422 -0.388377 71 20 102
0.186702 -0.319414 -0.197352 58 82 139
0.310690 0.044398 -0.194574 35 137 141
0.424012 0.099654 -0.078812 30 151 138
-0.617504 -0.005741 0.439499 59 81 138
-0.598388 -0.239105 0.140443 68 1 84
0.048366 -0.390792 -0.294443 68 1 84
0.570934 -0.051045 0.170267 42 118 142
0.594793 -0.107991 0.240345 70 49 126
-0.275127 0.589872 -0.029819 68 1 84
-0.605976 -0.110879 0.343973 69 50 127
-0.083591 -0.192130 -0.390275 72 28 110
0.178648 0.628842 -0.081058 68 1 84
0.151816 -0.316806 -0.199600 68 3 87
0.232159 -0.308562 -0.203087 66 62 133
-0.518506 -0.127244 -0.028592 70 9 92
0.035347 0.078495 -0.448809 41 121 142
-0.452140 0.005247 -0.076640 43 115 142
-0.449866 0.217778 -0.029713 64 68 135
0.398978 -0.452602 -0.248127 68 1 84
0.617768 0.014662 0.474755 43 115 142
0.050521 0.574167 -0.197708 68 1 84
0.218936 0.424829 -0.117878 68 1 84
0.123953 0.120215 -0.287011 30 157 136
-0.074461 0.069093 -0.470333 33 166 133
0.581795 0.068440 0.333236 33 167 132
0.599602 0.136161 0.470511 32 164 133
-0.411336 0.091294 -0.113317 51 182 121
-0.506504 -0.375250 -0.034658 68 1 84
0.088453 -0.088263 -0.365423 44 113 142
-0.138496 -0.275676 -0.229538 66 64 133
-0.097309 -0.281241 -0.283803 66 61 132
-0.336839 0.120634 -0.150548 59 186 117
-0.124133 0.111569 -0.300096 126 210 78
0.013454 0.106944 -0.345323 42 176 126
-0.572613 -0.435311 0.081919 68 1 84
0.081795 -0.003698 -0.441154 52 95 141
-0.221168 0.484217 -0.125938 68 1 84
-0.535813 -0.261577 0.001835 68 1 84
0.588840 0.150139 0.541299 50 99 141
0.455571 0.052368 -0.052177 36 134 141
-0.156256 -0.265117 -0.223358 70 49 126
-0.406995 0.108381 -0.113553 33 167 132
0.621320 -0.146690 0.342228 72 29 111
-0.572348 -0.520815 0.108384 68 1 84
-0.545530 0.078703 0.148433 70 12 95
-0.001210 0.106792 -0.413517 38 172 129
0.680937 -0.461544 0.449765 68 1 84
0.275399 0.164904 -0.168629 87 198 101
-0.504663 -0.458772 -0.071768 68 1 84
0.331884 -0.453068 -0.276199 68 1 84
-0.130434 -0.469875 -0.325927 68 1 84
0.605430 -0.065504 0.359756 49 100 141
-0.535775 0.125584 0.135928 72 33 114
0.103278 -0.146026 -0.322683 61 74 137
0.584280 -0.196156 0.086490 68 1 84
-0.328529 -0.228319 -0.185685 68 1 84
0.611651 0.007797 0.575825 67 59 131
-0.614843 -0.150895 0.359935 71 38 118
-0.316812 0.216296 -0.168537 30 157 136
-0.482432 0.308072 0.125562 49 102 141
-0.645305 -0.291510 0.346576 68 1 84
0.086719 0.045832 -0.293972 37 171 129
-0.575052 -0.008563 0.236294 69 54 129
-0.137045 0.395746 -0.222196 66 61 132
0.655104 -0.274186 0.403001 72 25 107
0.535659 0.320166 0.403288 43 116 142
-0.265025 -0.362993 -0.184534 68 1 84
0.482210 0.384135 0.428648 48 103 141
-0.572212 -0.063681 0.174909 72 28 110
-0.506679 0.317279 0.450713 71 37 117
-0.518174 -0.043212 0.014202 71 43 122
0.254629 0.559058 -0.033178 68 1 84
0.583845 0.066021 0.341279 32 165 133
0.658256 -0.279699 0.352592 70 48 125
0.216765 0.178225 -0.225489 33 166 133
-0.314265 -0.334324 -0.183885 68 1 84
-0.283221 -0.429851 -0.209668 68 1 84
0.096322 0.440841 -0.188128 68 1 84
0.499167 -0.475666 -0.111787 68 1 84
-0.054945 0.515765 -0.202909 68 1 84
0.133463 -0.156639 -0.281804 63 69 135
-0.507368 0.323432 0.406804 66 61 132
0.096458 -0.439519 -0.301365 68 1 84
-0.141259 0.091391 -0.271201 79 195 105
0.444461 -0.072442 -0.108108 30 152 138
-0.209367 0.097927 -0.213343 149 215 63
0.151124 0.022696 -0.333892 42 119 142
-0.663810 -0.514094 0.398502 68 1 84
0.523624 0.211732 0.172264 38 128 142
0.019691 -0.257930 -0.360969 71 18 101
-0.163684 -0.478600 -0.324845 68 1 84
0.504903 0.298058 0.204658 40 174 127
0.443059 0.394639 0.135274 63 71 136
0.107765 0.402373 -0.212807 69 54 129
0.243566 -0.443589 -0.276992 68 1 84
0.616901 -0.439441 0.182791 68 1 84
-0.097063 0.062232 -0.306892 79 195 105
0.141275 0.286515 -0.291398 44 112 142
-0.594920 -0.130228 0.256650 69 5 88
-0.453634 -0.181601 -0.095499 68 1 84
0.393602 -0.105466 -0.148780 61 75 137
-0.568192 -0.167798 0.055017 68 1 84
-0.536362 0.288103 0.401496 46 109 142
-0.349773 0.117450 -0.146483 43 177 125
0.570944 -0.409975 0.068179 68 1 84
0.555095 -0.329863 0.024984 68 1 84
0.305512 0.171571 -0.147846 62 188 115
-0.475214 0.362739 0.252601 58 83 139
-0.212107 0.660062 -0.027209 68 1 84
-0.620889 -0.513474 0.228895 68 1 84
0.584871 -0.243616 0.076484 68 1 84
-0.168406 0.536692 -0.167149 68 1 84
0.001438 -0.507088 -0.350597 68 1 84
-0.555224 0.252165 0.519977 39 124 142
-0.000616 0.107528 -0.370856 103 204 92
-0.130610 0.477675 -0.175070 68 1 84
-0.307028 -0.432330 -0.225150 68 1 84
0.462685 0.388465 0.221280 58 83 139
0.465148 -0.136165 -0.100964 65 65 134
-0.489251 -0.468919 -0.108445 68 1 84
0.448557 -0.033253 -0.099917 42 118 142
-0.625801 -0.191186 0.422137 68 1 84
-0.623642 -0.205900 0.331761 68 1 84
-0.140044 -0.504244 -0.332419 68 1 84
0.180479 0.301947 -0.205202 38 127 142
0.619220 -0.003461 0.502991 46 109 142
0.485388 0.229977 0.088857 47 105 141
-0.318449 -0.256683 -0.185432 68 1 84
0.299713 -0.410736 -0.211071 68 1 84
0.618239 -0.095297 0.408115 54 90 140
0.328212 -0.362234 -0.192502 68 1 84
-0.237174 -0.199999 -0.197489 68 3 87
0.399651 -0.548418 -0.254595 68 1 84
-0.599911 0.033904 0.373532 71 37 117
-0.361298 -0.023670 -0.166406 39 126 142
-0.179881 -0.367868 -0.169973 68 1 84
-0.287010 0.587016 0.117159 68 1 84
-0.274974 -0.432358 -0.225522 68 1 84
-0.550653 -0.536296 0.051023 68 1 84
0.632008 -0.245714 0.231866 71 42 121
-0.539616 0.090353 0.128899 71 42 121
-0.556171 0.012357 0.155133 71 24 106
-0.071450 -0.449528 -0.314963 68 1 84
-0.653674 -0.491576 0.340840 68 1 84
-0.262537 -0.227598 -0.198405 68 1 84
-0.603066 -0.399377 0.136822 68 1 84
0.318139 0.566288 0.174878 68 2 85
0.304408 -0.066607 -0.199239 35 137 141
0.406398 0.191589 -0.070587 48 103 141
0.321712 0.189108 -0.136485 36 170 130
0.168803 0.632952 -0.090809 68 1 84
0.596956 -0.140031 0.206757 68 2 85
0.539928 -0.225477 -0.008463 68 1 84
-0.452061 -0.386753 -0.106464 68 1 84
0.103562 0.023641 -0.412142 65 65 134
-0.030352 0.525005 -0.207919 68 1 84
-0.573322 0.002449 0.233628 71 43 122
0.633383 -0.177005 0.393925 60 78 138
0.131461 -0.213109 -0.258266 68 1 84
0.601758 -0.010385 0.379281 39 126 142
-0.203213 -0.193210 -0.216046 69 52 127
0.361658 0.450942 0.014460 68 1 84
-0.571387 -0.195757 0.054460 68 1 84
-0.564654 0.128915 0.264056 54 90 140
-0.354136 0.537609 0.197581 68 1 84
0.445283 -0.264314 -0.099083 68 1 84
0.334398 0.458327 -0.023476 68 1 84
0.571167 -0.029955 0.194997 30 158 136
0.576713 0.153305 0.359431 44 114 142
0.359734 0.251812 -0.103575 43 116 142
-0.095788 -0.148341 -0.399701 72 28 110
-0.573552 0.224992 0.446009 39 124 142
-0.578252 -0.339155 0.073779 68 1 84
-0.654893 -0.482818 0.346031 68 1 84
0.584529 -0.330935 0.078687 68 1 84
-0.481634 -0.542391 -0.119554 68 1 84
-0.625893 -0.274939 0.225865 68 1 84
-0.018652 0.239098 -0.335208 33 166 133
-0.524840 0.290127 0.321644 51 97 141
0.362747 -0.521116 -0.281954 68 1 84
0.547843 0.099959 0.171523 34 138 141
0.152861 -0.029301 -0.265151 67 58 131
0.570494 -0.031179 0.189888 33 167 132
-0.461124 -0.259175 -0.069235 68 1 84
0.003939 0.557933 -0.209342 68 1 84
-0.185758 0.483087 -0.150925 68 1 84
-0.106015 -0.291991 -0.257062 66 61 132
0.339734 0.483770 0.012844 70 9 92
0.403807 -0.450743 -0.244238 68 1 84
-0.189361 0.320687 -0.197155 69 54 129
-0.472334 -0.107901 -0.074457 71 42 121
0.638295 -0.195451 0.363179 72 29 111
0.585389 -0.415968 0.096590 68 1 84
-0.188256 -0.003875 -0.228541 75 194 108
0.628313 -0.450499 0.217807 68 1 84
-0.648492 -0.315847 0.310258 68 1 84
0.033387 0.062650 -0.346914 81 196 104
0.472930 0.394435 0.350289 64 67 135
0.308056 0.568142 0.119762 68 1 84
-0.529457 0.037957 0.076346 48 103 141
-0.483730 -0.378001 -0.065885 68 1 84
0.271759 0.572480 0.007343 68 1 84
-0.655433 -0.453636 0.500799 68 1 84
0.137031 0.058924 -0.295464 56 185 118
0.570007 0.069507 0.269214 31 150 139
0.159942 0.341280 -0.180043 38 127 142
0.649672 -0.459239 0.287840 68 1 84
-0.093068 0.056164 -0.312773 53 183 120
0.550965 -0.344744 0.020192 68 1 84
-0.331623 0.546533 0.031897 68 1 84
0.112032 0.491548 -0.161604 68 1 84
-0.615549 -0.120876 0.398225 72 34 115
0.307409 0.374596 -0.083429 72 26 108
-0.641364 -0.280246 0.426494 68 1 84
0.513735 0.343074 0.332845 47 106 141
0.516231 0.164794 0.120062 30 154 137
-0.152814 -0.285023 -0.213958 71 38 118
-0.165100 0.170164 -0.285490 33 140 141
-0.335637 -0.274650 -0.172886 68 1 84
0.587417 0.031205 0.335288 36 133 141
-0.651284 -0.501133 0.330933 68 1 84
-0.046045 -0.412047 -0.298927 68 1 84
-0.601380 -0.216789 0.181323 68 1 84
0.127991 -0.371783 -0.208350 68 1 84
-0.595254 -0.102217 0.288080 69 52 127
-0.638897 -0.552664 0.296833 68 1 84
-0.551850 -0.328894 0.030141 68 1 84
0.306020 0.299832 -0.146050 42 119 142
0.466208 0.121301 -0.002352 48 180 122
-0.269967 0.221306 -0.214383 30 159 136
-0.091023 -0.429225 -0.279694 68 1 84
-0.598412 -0.153927 0.248178 68 2 85
0.349849 0.102022 -0.155701 31 163 134
0.348742 0.432767 -0.032278 72 26 108
-0.523031 0.283353 0.294201 48 104 141
0.252684 0.133748 -0.176804 87 198 101
0.512560 0.110094 0.079396 51 182 121
-0.199686 0.306073 -0.230670 39 125 142
-0.159805 -0.056767 -0.322844 79 195 105
-0.329335 0.333414 -0.109955 68 55 129
0.531148 0.326924 0.395486 43 115 142
0.548905 -0.098990 0.021849 56 87 140
-0.472549 0.263116 0.065985 67 59 131
0.624619 -0.397747 0.187172 68 1 84
0.659957 -0.352816 0.450800 68 1 84
0.541982 -0.534102 0.000168 68 1 84
-0.241894 -0.095920 -0.220503 69 191 111
-0.652824 -0.380217 0.369294 68 1 84
-0.588198 0.062295 0.335443 61 74 137
-0.613895 -0.035965 0.416665 62 72 136
0.452269 0.393641 0.177510 63 71 136
0.364117 0.383808 -0.055301 71 37 117
0.510836 -0.524343 -0.083711 68 1 84
0.325305 0.466002 -0.025833 68 1 84
0.406016 -0.374421 -0.147425 68 1 84
0.272339 0.253701 -0.183216 31 150 139
-0.019242 -0.059843 -0.485345 59 80 138
-0.097103 0.683484 -0.119488 68 1 84
-0.602754 -0.436793 0.148319 68 1 84
-0.016067 -0.080251 -0.475914 61 74 137
0.299630 0.579028 0.177831 68 1 84
-0.506939 -0.543032 -0.066884 68 1 84
-0.238389 0.634674 -0.050727 68 1 84
-0.458063 -0.503048 -0.165978 68 1 84
0.525646 0.278307 0.250447 37 131 141
-0.291902 -0.406717 -0.186195 68 1 84
0.585276 0.119065 0.375539 33 141 140
0.168493 -0.457358 -0.301528 68 1 84
0.630218 -0.505136 0.227642 68 1 84
0.124933 -0.447309 -0.302346 68 1 84
0.241957 0.262469 -0.208532 36 134 141
0.565118 -0.469832 0.063510 68 1 84
-0.596234 -0.033659 0.334062 70 49 126
0.598886 -0.162990 0.183035 71 22 105
0.413569 0.336243 0.004648 65 65 134
0.280895 0.131151 -0.162332 121 209 81
0.002815 -0.288896 -0.351664 68 1 84
0.628562 -0.074216 0.509182 40 122 142
0.120078 -0.438639 -0.284395 68 1 84
0.477541 -0.278276 -0.056276 68 1 84
-0.448079 0.335410 0.068133 49 100 141
-0.611883 0.049757 0.424497 60 78 138
0.574685 -0.441374 0.080827 68 1 84
-0.604562 -0.244862 0.164631 68 1 84
-0.183263 0.041865 -0.219011 151 216 62
-0.607168 0.095836 0.543856 51 96 141
-0.048817 0.293683 -0.324214 31 149 139
-0.595132 0.174785 0.462015 44 112 142
-0.101133 -0.184634 -0.370092 70 12 95
-0.628000 -0.080621 0.515528 59 81 138
0.393009 0.349736 -0.036129 66 64 133
0.665350 -0.430894 0.343673 68 1 84
0.472477 0.280574 0.096594 47 105 141
0.056374 -0.132199 -0.390271 61 75 137
0.537961 0.297546 0.515354 61 74 137
0.517628 0.006949 0.030470 46 108 142
-0.548518 -0.047358 0.079435 69 8 91
-0.454423 0.046224 -0.067909 41 120 142
-0.416145 -0.495458 -0.213004 68 1 84
0.676316 -0.465471 0.411398 68 1 84
0.333741 -0.086904 -0.180086 43 115 142
-0.487779 -0.463189 -0.110282 68 1 84
-0.642124 -0.274983 0.377744 68 1 84
-0.653724 -0.440198 0.499869 68 1 84
-0.590528 0.135719 0.572315 58 83 139
-0.589821 0.153538 0.380869 48 103 141
0.552919 -0.002966 0.116835 38 129 142
0.524213 0.250379 0.210017 31 161 135
0.474784 0.389943 0.321623 58 83 139
-0.657121 -0.500888 0.366579 68 1 84
-0.245929 -0.502446 -0.294681 68 1 84
0.034973 0.240800 -0.334959 38 128 142
-0.588168 0.189811 0.510603 47 106 141
0.141974 -0.214406 -0.248611 49 101 141
0.260966 0.183918 -0.185838 35 169 130
0.617179 -0.058158 0.428184 46 108 142
0.004151 -0.397881 -0.317872 68 1 84
-0.630667 -0.219259 0.486774 68 1 84
0.326559 0.527225 0.054426 68 1 84
-0.596624 0.066879 0.369214 56 87 140
-0.187344 0.671732 -0.079764 68 1 84
0.277020 0.229903 -0.178127 34 137 141
0.601849 0.075085 0.424440 41 121 142
-0.452289 0.389192 0.348623 72 29 111
0.019020 -0.049696 -0.481176 57 85 139
-0.523641 0.236654 0.192786 42 117 142
0.610616 -0.249406 0.151567 68 1 84
-0.637078 -0.267283 0.298258 68 1 84
-0.529376 0.262029 0.271190 58 83 139
0.577333 -0.509986 0.103246 68 1 84
0.144781 -0.175541 -0.260309 71 42 121
-0.455245 0.316088 0.068522 59 80 138
0.474405 0.350569 0.181052 44 113 142
0.583965 -0.380938 0.086112 68 1 84
0.554772 -0.347694 0.027224 68 1 84
0.055349 0.002075 -0.477457 53 93 140
-0.364716 -0.336294 -0.158511 68 1 84
-0.182764 -0.145895 -0.258687 36 133 141
-0.001170 0.557283 -0.210071 68 1 84
-0.075823 -0.316875 -0.298157 68 1 84
0.145321 0.034311 -0.341232 40 123 142
0.094233 0.601266 -0.172270 68 1 84
-0.301945 0.565216 -0.005194 68 1 84
-0.615407 -0.016687 0.560669 60 77 138
0.562246 0.116311 0.262366 31 149 139
0.590348 0.149647 0.420973 37 131 141
-0.496707 0.319219 0.223208 55 89 140
-0.463300 -0.482783 -0.157475 68 1 84
0.505066 0.357881 0.435200 42 118 142
0.529195 0.140121 0.137831 31 149 139
-0.128949 -0.035540 -0.411890 57 85 139
0.039831 -0.456866 -0.332362 68 1 84
0.583146 -0.243195 0.072325 68 1 84
0.059539 0.477014 -0.181769 68 1 84
0.595264 -0.097373 0.257838 72 32 113
0.517449 0.337232 0.476261 53 92 140
-0.105113 -0.413818 -0.253415 68 1 84
-0.527607 -0.007664 0.052586 66 62 133
-0.069627 0.429569 -0.212511 71 20 102
-0.097064 0.695233 -0.088236 68 1 84
0.038708 -0.176418 -0.384221 72 30 112
0.252282 0.319996 -0.139070 55 89 140
-0.371887 0.190557 -0.114735 39 126 142
0.292831 0.447016 -0.056393 68 1 84
-0.621525 -0.013090 0.528592 57 84 139
-0.554818 -0.446291 0.046115 68 1 84
0.324266 0.541495 0.078807 68 1 84
0.503647 -0.417985 -0.089935 68 1 84
0.077217 0.040212 -0.375349 32 144 140
-0.005284 -0.251456 -0.379322 68 1 84
0.566998 0.245225 0.515474 46 109 142
0.080795 -0.149021 -0.349272 55 89 140
-0.650251 -0.387357 0.410707 68 1 84
-0.393641 0.356382 -0.063000 44 112 142
-0.266677 0.606770 0.026592 68 1 84
0.559988 -0.530108 0.051213 68 1 84
0.341791 -0.294969 -0.184081 68 1 84
0.330224 -0.200578 -0.190218 69 54 129
0.528464 -0.088501 -0.015755 46 107 142
-0.579054 0.212154 0.489085 38 127 142
0.656814 -0.473707 0.313529 68 1 84
0.292717 -0.022928 -0.211338 61 187 116
-0.288513 -0.442590 -0.248130 68 1 84
0.489799 0.374227 0.331431 53 92 140
0.630263 -0.164031 0.394694 58 83 139
0.627135 -0.473796 0.218970 68 1 84
-0.047650 0.491261 -0.196234 68 1 84
-0.160331 0.319071 -0.220253 55 88 140
0.184195 0.283088 -0.245465 40 123 142
-0.068920 -0.092357 -0.455812 72 29 111
-0.183395 -0.416496 -0.211579 68 1 84
-0.108374 -0.351263 -0.221928 68 1 84
0.229221 0.514381 -0.077327 68 1 84
0.648740 -0.237125 0.338188 65 65 134
-0.270089 -0.445258 -0.251540 68 1 84
0.272768 -0.400122 -0.206203 68 1 84
-0.468739 0.230011 0.022539 61 74 137
-0.580666 0.175603 0.359626 66 64 133
0.638812 -0.390681 0.229383 68 1 84
-0.471648 -0.411846 -0.117381 68 1 84
-0.431197 0.061678 -0.097897 40 174 127
-0.184707 -0.009224 -0.246065 98 202 95
0.346019 0.361515 -0.081059 72 34 115
-0.035360 0.516856 -0.205463 68 1 84
-0.562020 0.112472 0.241494 53 93 140
-0.603574 0.148539 0.476904 50 99 141
-0.332041 -0.417790 -0.198025 68 1 84
-0.527371 -0.022307 0.044623 64 67 135
0.634585 -0.178453 0.450649 56 87 140
0.186945 0.318893 -0.152647 31 147 139
0.272756 -0.065813 -0.213745 31 149 139
0.300930 0.569163 0.101268 68 1 84
-0.162912 0.682485 -0.074395 68 1 84
-0.049737 0.251623 -0.337472 31 147 139
0.294929 0.340851 -0.110050 66 62 133
-0.473645 -0.427783 -0.126209 68 1 84
-0.336175 0.261764 -0.155865 35 136 141
0.564625 -0.427815 0.057093 68 1 84
-0.140587 0.546343 -0.183958 68 1 84
-0.621191 -0.131199 0.456486 70 49 126
-0.433186 0.357744 0.021273 61 75 137
0.492283 0.303602 0.171065 34 167 132
-0.600352 0.107773 0.558159 52 94 141
-0.562796 0.244811 0.429915 46 107 142
-0.205490 -0.009265 -0.216064 126 210 78
-0.373518 0.496599 0.064097 72 26 108
-0.331845 0.550543 0.089370 71 40 120
0.113985 -0.370560 -0.217557 68 1 84
-0.570130 -0.154370 0.067915 68 1 84
0.021386 -0.293444 -0.338064 68 1 84
-0.624002 -0.081164 0.585149 70 47 124
0.601106 0.129402 0.476162 30 153 138
0.059292 0.051926 -0.395759 39 125 142
-0.279056 0.287282 -0.191373 46 107 142
0.524357 -0.459543 -0.052341 68 1 84
-0.346404 -0.363822 -0.171365 68 1 84
0.345505 0.509176 0.069617 69 8 91
-0.220007 0.174293 -0.229511 34 138 141
-0.579266 0.137474 0.326616 65 66 134
0.153544 0.332048 -0.185684 45 111 142
-0.575281 0.221129 0.460484 40 122 142
0.025365 -0.328237 -0.318800 68 1 84
-0.655595 -0.424924 0.389637 68 1 84
-0.489054 -0.085957 -0.047755 72 30 112
-0.343514 -0.429584 -0.226971 68 1 84
0.106471 0.685189 -0.092842 68 1 84
0.120107 0.027714 -0.387983 30 157 136
-0.544069 -0.261472 0.010582 68 1 84
-0.503573 -0.191600 -0.049522 68 1 84
0.669837 -0.387543 0.486996 68 1 84
0.552368 0.043363 0.152015 30 154 137
0.499601 0.363922 0.342108 50 98 141
-0.076988 0.382040 -0.257912 67 59 131
0.647036 -0.311808 0.255293 70 14 97
0.043439 0.274602 -0.336604 35 135 141
-0.401461 -0.264554 -0.133921 68 1 84
0.439656 -0.208166 -0.111107 68 1 84
-0.571326 -0.549464 0.113113 68 1 84
0.026728 -0.038135 -0.483985 52 95 141
-0.127064 -0.435299 -0.263267 68 1 84
-0.313707 -0.116759 -0.170305 66 61 132
-0.266167 0.396017 -0.112668 70 14 97
0.523727 -0.267377 -0.017863 68 1 84
-0.571793 -0.260749 0.052111 68 1 84
-0.052410 0.464410 -0.194297 68 1 84
0.575067 0.042950 0.279414 59 186 117
0.660507 -0.304594 0.386151 68 1 84
0.096961 -0.325993 -0.231999 68 1 84
-0.183290 -0.018715 -0.266857 30 154 137
-0.604347 -0.082532 0.352302 58 83 139
-0.071346 0.196239 -0.341679 33 166 133
-0.481909 -0.310526 -0.033622 68 1 84
-0.636655 -0.576642 0.291731 68 1 84
-0.004044 -0.137834 -0.438940 66 62 133
0.435952 0.149310 -0.036616 30 152 138
-0.236706 0.298178 -0.210491 48 103 141
0.048719 0.308603 -0.310979 48 103 141
-0.569227 0.220997 0.544695 46 109 142
-0.159219 0.295197 -0.282504 34 137 141
0.575336 -0.009837 0.238970 31 149 139
-0.407913 -0.004269 -0.130898 44 113 142
0.649861 -0.491932 0.292253 68 1 84
-0.364228 0.112406 -0.142112 35 169 130
-0.144816 -0.023036 -0.391255 71 37 117
-0.583463 -0.088051 0.229075 70 9 92
0.163116 0.290338 -0.268553 40 123 142
0.639087 -0.542789 0.258392 68 1 84
0.538408 0.080283 0.128137 30 159 136
0.409533 -0.124948 -0.142120 62 72 136
0.571590 -0.063519 0.155387 44 114 142
0.356181 0.291992 -0.102181 45 110 142
-0.539688 0.266887 0.543566 70 47 124
0.496502 -0.058597 -0.047917 40 123 142
0.553439 0.222539 0.294640 50 99 141
-0.062124 -0.173180 -0.418943 72 34 115
-0.633594 -0.230840 0.395789 68 1 84
-0.559241 -0.550510 0.075236 68 1 84
-0.033872 -0.210791 -0.408562 69 5 88
-0.597900 0.009695 0.358682 72 25 107
-0.482786 -0.033399 -0.036658 69 54 129
-0.620941 -0.255650 0.224328 68 1 84
-0.406384 -0.123483 -0.125034 71 22 105
0.544876 -0.516358 0.009243 68 1 84
0.125772 0.534885 -0.156633 68 1 84
0.429251 0.174943 -0.039288 35 137 141
0.527382 0.329237 0.446436 50 98 141
-0.147825 -0.050760 -0.362078 34 137 141
0.381571 -0.316683 -0.163450 68 1 84
0.267919 0.459550 -0.064929 68 1 84
0.532389 -0.354014 -0.010545 68 1 84
-0.657667 -0.447217 0.438092 68 1 84
0.423305 -0.508520 -0.235170 68 1 84
-0.639284 -0.265204 0.489926 68 1 84
-0.655808 -0.436104 0.370829 68 1 84
0.528751 -0.025545 0.028965 32 143 140
-0.195478 -0.125934 -0.251614 35 169 130
0.043827 -0.235916 -0.347108 68 55 129
0.652045 -0.331984 0.279357 69 5 88
-0.339837 0.238665 -0.148502 35 135 141
-0.490304 0.333921 0.245634 47 105 141
0.620966 -0.074612 0.440681 44 112 142
-0.622105 -0.233973 0.258166 68 1 84
-0.030619 -0.175937 -0.427268 71 22 105
-0.618062 -0.079455 0.432030 67 59 131
-0.254173 0.179733 -0.210595 30 153 138
-0.592139 0.178079 0.516703 46 108 142
-0.638569 -0.258361 0.494261 68 1 84
0.461797 0.009859 -0.067426 30 153 138
-0.605263 -0.119847 0.331572 69 50 127
-0.391716 0.068783 -0.136729 79 195 105
-0.343640 0.055478 -0.169681 31 147 139
0.490255 -0.053576 -0.053995 30 151 138
0.292675 0.558224 0.027297 68 1 84
0.363787 0.436770 -0.002799 68 1 84
0.599405 0.047134 0.399057 39 173 128
0.467746 0.225098 0.045201 37 131 141
0.607673 -0.358420 0.131161 68 1 84
-0.067397 -0.029615 -0.488233 51 97 141
0.634412 -0.120409 0.535973 51 97 141
-0.320039 -0.425769 -0.206003 68 1 84
-0.470978 0.378186 0.206018 44 114 142
-0.538830 0.281096 0.367429 51 96 141
0.135120 0.031912 -0.359099 31 147 139
0.679256 -0.507437 0.430164 68 1 84
-0.597344 -0.027704 0.341913 70 45 124
-0.579891 -0.144186 0.124140 62 72 136
0.333387 0.551920 0.132368 68 1 84
-0.624929 -0.570110 0.249705 68 1 84
-0.540744 0.020673 0.098969 55 88 140
-0.603135 -0.183920 0.233141 69 8 91
0.085691 -0.098898 -0.367844 47 105 141
-0.382610 0.128476 -0.127504 33 167 132
0.294241 0.581603 0.152896 70 12 95
-0.303632 0.187897 -0.175206 47 179 123
0.312683 0.564651 0.117834 68 1 84
0.623489 -0.064089 0.459953 48 103 141
-0.635099 -0.161919 0.559655 70 47 124
0.523441 -0.398463 -0.043169 68 1 84
0.142343 0.082740 -0.245226 109 206 88
0.398286 -0.141762 -0.149812 65 66 134
0.593887 0.010590 0.353423 40 122 142
-0.018391 -0.227050 -0.396828 72 35 116
0.380433 0.404789 -0.004717 66 62 133
-0.424861 -0.367296 -0.100458 68 1 84
-0.430844 0.359908 0.013684 53 92 140
0.403013 0.021218 -0.139152 31 147 139
-0.512869 0.312971 0.330028 59 81 138
0.633118 -0.383056 0.208584 68 1 84
-0.148815 0.680444 -0.098752 68 1 84
0.024737 0.683529 -0.142210 68 1 84
-0.461648 0.022710 -0.059918 44 114 142
0.181074 -0.333598 -0.188526 68 1 84
-0.106764 0.176419 -0.329599 38 172 129
0.633944 -0.179210 0.379396 69 50 127
-0.161114 -0.105697 -0.306820 39 125 142
0.658538 -0.306708 0.321387 71 17 99
-0.405811 0.408066 -0.003731 52 95 141
0.680137 -0.445828 0.428300 68 1 84
-0.421564 -0.325782 -0.099497 68 1 84
-0.129406 -0.367670 -0.200320 68 1 84
-0.609002 0.091236 0.540842 49 102 141
0.633221 -0.356890 0.204712 68 1 84
0.302950 -0.334546 -0.197719 68 1 84
0.254232 -0.076552 -0.219758 30 159 136
0.186427 -0.121197 -0.241802 43 115 142
-0.562326 0.243483 0.475910 37 131 141
-0.632596 -0.393435 0.222627 68 1 84
-0.636811 -0.220485 0.555392 71 42 121
-0.669988 -0.513233 0.434991 68 1 84
-0.319779 0.287580 -0.166090 43 116 142
-0.135854 0.485313 -0.173489 68 1 84
-0.029125 -0.098380 -0.468506 64 67 135
0.312306 0.548688 0.064031 68 1 84
-0.664686 -0.581441 0.400800 68 1 84
-0.601139 0.023224 0.375638 69 53 128
0.228970 0.573284 -0.055587 68 1 84
0.079567 0.480642 -0.175171 68 1 84
-0.099941 -0.419439 -0.262525 68 1 84
-0.222352 0.652439 -0.027611 68 1 84
-0.655560 -0.430875 0.421529 68 1 84
-0.240249 0.305841 -0.173399 54 91 140
0.613826 0.042463 0.490990 57 85 139
0.358536 -0.436335 -0.259995 68 1 84
-0.441184 -0.021689 -0.091548 57 85 139
-0.586258 -0.156302 0.168994 70 12 95
-0.667826 -0.497923 0.458524 68 1 84
-0.595208 -0.208437 0.155158 68 1 84
0.257142 0.596467 0.067867 68 1 84
-0.573707 -0.029619 0.215401 69 50 127
0.061848 -0.081030 -0.420081 69 54 129
0.147648 -0.343014 -0.190162 68 1 84
0.486448 0.313459 0.166064 30 158 136
0.589832 0.185170 0.508755 36 134 141
-0.257325 -0.441480 -0.246667 68 1 84
0.482195 -0.109231 -0.081828 62 72 136
0.290404 0.556008 0.016844 68 1 84
-0.116438 -0.043021 -0.431016 40 122 142
-0.421748 -0.377936 -0.112075 68 1 84
0.588781 0.027304 0.339362 39 124 142
0.326755 -0.413590 -0.247547 68 1 84
0.483258 -0.138593 -0.084247 70 49 126
-0.549974 0.195645 0.256921 51 96 141
0.189598 0.502895 -0.112076 68 1 84
0.618682 -0.212014 0.215090 70 47 124
0.516999 -0.246849 -0.027110 68 1 84
-0.602832 0.087741 0.559692 59 80 138
0.525477 0.269053 0.237608 32 143 140
-0.507853 0.024202 0.028150 58 83 139
0.493245 -0.098935 -0.067480 53 93 140
-0.584674 -0.230575 0.085862 68 1 84
0.619444 -0.484822 0.200856 68 1 84
0.238629 -0.522087 -0.338209 68 1 84
0.130794 0.662142 -0.105472 68 1 84
-0.268215 0.605674 0.018620 68 1 84
-0.063690 0.366600 -0.268212 64 68 135
0.602089 -0.383858 0.124040 68 1 84
0.172926 0.354469 -0.167250 34 137 141
-0.573748 0.168865 0.325718 54 91 140
-0.475192 0.016836 -0.036160 63 71 136
0.185405 0.384528 -0.153377 71 20 102
0.615595 0.009215 0.452784 37 130 142
-0.547513 0.118669 0.182970 71 42 121
-0.588834 -0.475794 0.126859 68 1 84
-0.542915 -0.040649 0.069205 70 47 124
-0.578581 0.025054 0.274193 72 26 108
0.277073 0.582015 0.076930 68 1 84
0.289687 -0.380919 -0.198378 68 1 84
0.046583 -0.130258 -0.403356 71 24 106
0.316183 0.225553 -0.143125 37 131 141
0.572846 0.076776 0.292928 33 166 133
0.573546 0.233286 0.461182 41 121 142
0.362195 -0.526868 -0.282986 68 1 84
-0.594984 -0.477344 0.145114 68 1 84
0.169019 -0.483317 -0.343169 68 1 84
0.515662 -0.160775 -0.049348 71 18 101
-0.656307 -0.548436 0.373478 68 1 84
-0.643848 -0.458781 0.272988 68 1 84
-0.454742 0.325114 0.079713 50 98 141
-0.046016 0.699773 -0.101630 68 1 84
-0.400467 -0.080781 -0.126341 70 47 124
0.573943 -0.192877 0.054368 71 15 98
0.198866 0.148899 -0.231105 71 192 110
-0.575967 0.219042 0.476125 37 130 142
0.005510 -0.020159 -0.498450 46 107 142
0.542210 0.236265 0.262095 54 90 140
0.413138 -0.193210 -0.138594 68 1 84
0.572756 -0.074891 0.141626 57 85 139
0.029442 0.589390 -0.200349 68 1 84
0.568367 -0.212435 0.037856 70 12 95
-0.389875 -0.446836 -0.223325 68 1 84
-0.259160 0.388033 -0.119058 70 14 97
0.044677 -0.276643 -0.321532 68 1 84
-0.591134 0.174283 0.413031 44 112 142
0.155405 -0.475597 -0.341427 68 1 84
-0.323553 0.451950 -0.051840 71 38 118
-0.574602 0.181262 0.339469 55 88 140
0.134770 0.560710 -0.151033 68 1 84
-0.317309 0.468654 -0.049819 71 21 103
-0.259440 -0.449571 -0.256922 68 1 84
-0.236634 0.274099 -0.232715 40 122 142
-0.208285 -0.453571 -0.262152 68 1 84
-0.534423 -0.508442 0.001853 68 1 84
0.544471 0.280489 0.531840 61 76 137
-0.362338 -0.512868 -0.252343 68 1 84
-0.488168 -0.113882 -0.060681 71 39 119
-0.645384 -0.382083 0.470733 68 1 84
0.632284 -0.217456 0.265721 71 18 101
-0.542572 -0.040438 0.068463 70 45 124
0.466323 0.147943 0.007557 31 150 139
-0.399615 0.241770 -0.081553 57 85 139
0.567718 0.119006 0.294248 35 169 130
-0.619611 -0.009820 0.535728 57 84 139
-0.123374 0.406338 -0.220127 66 62 133
0.542960 -0.070524 0.026111 46 107 142
-0.580168 0.103161 0.315415 52 94 141
0.229208 0.210704 -0.219097 32 164 133
-0.598943 0.091505 0.385311 54 91 140
-0.398884 0.395903 -0.031138 54 91 140
0.026188 -0.071374 -0.464057 48 104 141
0.596814 0.114681 0.427009 33 142 140
0.156189 -0.011138 -0.253185 54 91 140
0.426109 0.440876 0.282544 71 39 119
-0.575875 -0.126532 0.117092 71 15 98
-0.326747 -0.096936 -0.168548 58 83 139
0.009110 0.003079 -0.502073 38 129 142
-0.242130 0.383301 -0.134459 67 59 131
0.239039 0.294721 -0.187607 33 142 140
-0.521887 0.226529 0.170649 60 77 138
0.449847 -0.299564 -0.087434 68 1 84
-0.659697 -0.494567 0.379327 68 1 84
-0.212597 -0.287008 -0.201488 68 1 84
0.563916 0.209248 0.334694 55 89 140
-0.625457 -0.591292 0.251634 68 1 84
-0.368577 0.520400 0.138928 72 35 116
0.034805 0.514049 -0.197428 68 1 84
0.473984 0.146432 0.018403 51 182 121
-0.165861 0.394367 -0.202632 71 15 98
0.175699 -0.385943 -0.199792 68 1 84
0.444337 0.376624 0.114524 62 72 136
0.290774 0.569477 0.064001 68 1 84
-0.078545 0.345735 -0.267654 61 76 137
0.464098 -0.408862 -0.161696 68 1 84
0.181514 -0.388058 -0.200179 68 1 84
-0.371071 -0.503591 -0.247752 68 1 84
-0.433281 -0.025128 -0.100711 50 98 141
-0.172169 -0.398561 -0.191287 68 1 84
0.631237 -0.083519 0.529182 46 107 142
-0.608584 -0.002130 0.399834 59 80 138
-0.132292 -0.036862 -0.404494 67 58 131
0.461616 0.014878 -0.064673 31 147 139
-0.513866 0.282141 0.231772 43 115 142
0.679174 -0.516326 0.423910 68 1 84
0.510534 -0.050786 -0.024255 43 115 142
