ply
format ascii 1.0
element vertex 1270
property float x
property float y
property float z
property uchar red
property uchar green
property uchar blue
end_header
0.079557 0.148753 -0.300596 253 231 36
0.365348 0.262117 -0.119349 57 84 139
0.425591 0.280088 -0.041508 66 61 132
0.591825 -0.029156 0.105775 40 123 142
-0.191819 0.436402 -0.205505 48 103 141
0.608902 0.128295 0.385496 68 1 84
0.556831 -0.348687 -0.007350 71 21 103
0.668640 -0.425203 0.255069 57 85 139
0.011628 -0.200965 -0.365875 68 1 84
-0.318874 0.193368 -0.194480 68 1 84
0.241059 0.563063 -0.033547 68 1 84
0.190363 -0.050829 -0.255097 57 84 139
0.078160 -0.217293 -0.296581 68 1 84
0.655254 -0.109644 0.525618 72 26 108
-0.660165 -0.223787 0.375836 51 96 141
0.392876 0.518532 0.165965 68 1 84
0.502080 0.428979 0.346479 68 1 84
0.299286 -0.135552 -0.212687 71 40 120
-0.366835 -0.518125 -0.250607 68 1 84
-0.632597 0.013479 0.436094 68 1 84
-0.107922 0.123769 -0.296033 40 122 142
-0.690419 -0.527308 0.479860 53 183 120
-0.652063 -0.151769 0.501036 49 100 141
0.695799 -0.529704 0.361334 30 159 136
0.659024 -0.132335 0.513496 66 62 133
-0.445616 0.470505 0.190296 68 1 84
0.443358 0.472529 0.224075 68 1 84
-0.268436 -0.486724 -0.281276 68 1 84
0.256052 0.590377 0.071146 68 1 84
-0.123554 -0.137599 -0.299632 68 1 84
-0.137291 -0.393867 -0.227371 68 1 84
-0.410018 0.031859 -0.171993 68 1 84
-0.495400 0.370576 0.140544 68 1 84
-0.317239 0.147710 -0.206671 68 1 84
-0.464523 0.446047 0.194176 68 1 84
0.256291 -0.429186 -0.261026 68 1 84
0.579300 0.136259 0.220133 68 1 84
-0.480309 -0.429908 -0.113748 68 1 84
0.322579 0.287568 -0.145746 47 105 141
0.315285 0.548711 0.062646 68 1 84
-0.667507 -0.308346 0.307520 69 53 128
-0.139935 0.138549 -0.282223 41 120 142
0.642013 -0.339976 0.155278 30 157 136
0.639980 -0.018369 0.397619 70 45 124
0.521478 0.347674 0.247740 68 1 84
0.338959 0.498099 0.019558 68 1 84
-0.395388 0.511808 0.127727 68 1 84
0.367901 0.269948 -0.112735 59 81 138
0.505892 0.206830 0.050776 68 1 84
-0.270391 -0.243622 -0.181862 68 1 84
0.598179 -0.262009 0.048176 53 93 140
0.351553 -0.349225 -0.158546 68 1 84
-0.210794 0.594093 -0.089415 72 28 110
-0.611639 -0.170217 0.094794 69 6 90
-0.209658 0.601802 -0.048562 69 6 90
-0.672222 -0.404788 0.357463 55 89 140
0.299867 0.574794 0.104277 68 1 84
-0.251751 -0.146688 -0.221420 68 1 84
-0.397481 0.374295 -0.038653 68 1 84
-0.361558 -0.107612 -0.201126 68 1 84
-0.632417 -0.222898 0.179923 72 32 113
-0.140949 0.348611 -0.237712 50 98 141
-0.352151 -0.292830 -0.155246 68 1 84
0.546772 0.060071 0.047628 57 85 139
-0.585114 0.228712 0.383800 68 1 84
0.669691 -0.481855 0.257552 72 35 116
-0.625965 0.000984 0.520786 68 1 84
-0.093792 0.422601 -0.251752 31 149 139
-0.209818 0.588451 -0.109632 68 1 84
-0.496156 0.416752 0.395391 68 1 84
0.601350 0.164606 0.388287 68 1 84
-0.164364 -0.061640 -0.263413 68 1 84
-0.231159 -0.095612 -0.241362 68 1 84
0.584813 0.007299 0.128212 43 115 142
0.039383 0.166330 -0.330328 212 225 26
0.359060 0.336221 -0.086432 70 14 97
-0.362305 -0.364776 -0.133273 68 1 84
0.354522 0.165989 -0.171095 42 117 142
-0.664487 -0.296162 0.493531 43 116 142
0.038304 0.633159 -0.182786 33 142 140
-0.621214 -0.164469 0.140210 68 3 87
0.296569 0.396535 -0.112647 72 25 107
-0.141284 -0.200514 -0.253997 68 1 84
0.689446 -0.404243 0.367939 44 177 125
-0.609156 -0.139273 0.090481 68 1 84
-0.416307 -0.424729 -0.185143 68 1 84
-0.441009 -0.017954 -0.153281 68 1 84
-0.255237 -0.413855 -0.232918 68 1 84
0.285595 0.134818 -0.216989 30 155 137
0.321976 0.192036 -0.182186 31 147 139
0.524824 -0.083059 -0.061814 31 149 139
0.561529 0.005880 0.038854 46 107 142
-0.217157 0.064731 -0.242086 69 5 88
-0.519210 0.299515 0.124544 68 1 84
-0.640968 -0.084500 0.357672 70 47 124
-0.462014 0.433826 0.139817 68 1 84
-0.111184 0.194860 -0.319246 42 117 142
-0.517754 -0.500678 -0.050430 68 1 84
0.614558 0.112930 0.318102 68 1 84
0.501674 0.135330 -0.006901 66 64 133
-0.550578 -0.071331 -0.027285 68 1 84
-0.471588 0.442889 0.233330 68 1 84
0.052579 0.274373 -0.291811 103 204 92
-0.468097 0.131522 -0.082236 68 1 84
-0.650612 -0.115152 0.420313 71 15 98
0.695413 -0.384706 0.432263 114 207 85
0.539367 0.032999 0.005685 60 78 138
-0.286632 0.559354 -0.003332 68 1 84
-0.283960 0.293377 -0.175008 72 33 114
0.356909 0.220529 -0.146918 40 123 142
-0.201184 0.207378 -0.260676 39 125 142
0.116598 -0.342900 -0.194537 68 1 84
-0.536440 0.350766 0.352541 68 1 84
0.510269 0.172763 0.037607 68 1 84
-0.507080 -0.001378 -0.072095 68 1 84
0.598908 0.159630 0.492363 68 1 84
0.139646 -0.168974 -0.256823 71 17 99
-0.394054 0.339453 -0.066386 68 1 84
0.456949 0.431976 0.163371 68 1 84
0.690554 -0.410533 0.371391 71 192 110
-0.012073 0.598543 -0.239601 39 124 142
-0.556932 -0.311200 0.012500 68 1 84
-0.360480 -0.415511 -0.216251 68 1 84
-0.604289 0.114558 0.492804 68 1 84
0.472754 -0.416627 -0.154452 68 1 84
0.406318 0.385136 0.007045 68 1 84
0.232121 -0.479269 -0.306218 68 1 84
-0.499437 0.061996 -0.063479 68 1 84
-0.373191 0.526714 0.106923 68 1 84
-0.512417 0.251237 0.065184 68 1 84
-0.653856 -0.134916 0.385386 68 1 84
0.209842 0.487621 -0.147560 70 45 124
-0.648577 -0.209029 0.260321 72 30 112
0.326282 0.567972 0.137448 68 1 84
0.376359 0.078567 -0.178688 34 137 141
0.046629 -0.420047 -0.317057 68 1 84
0.650104 -0.533414 0.157782 68 1 84
0.058184 0.002442 -0.361420 55 89 140
0.652779 -0.137249 0.260793 30 153 138
0.674174 -0.456107 0.275180 62 73 137
-0.267507 0.539020 -0.080551 68 1 84
0.031574 0.018228 -0.416578 47 105 141
0.676158 -0.300678 0.278862 87 198 101
-0.191270 -0.163885 -0.235239 68 1 84
-0.153814 0.444914 -0.234501 49 101 141
-0.578739 0.019712 0.104072 68 1 84
0.302384 -0.268464 -0.182229 68 1 84
-0.081878 0.471899 -0.269013 31 150 139
0.573666 -0.321737 0.012462 55 89 140
0.363003 0.470673 0.022640 68 1 84
-0.323700 0.354476 -0.124576 68 1 84
-0.574208 0.196820 0.235879 68 1 84
-0.399470 -0.269490 -0.124969 68 1 84
-0.046659 0.224450 -0.322295 54 184 119
-0.161221 0.338852 -0.232685 71 42 121
0.211086 0.590381 -0.032112 68 1 84
0.500768 -0.298030 -0.042410 67 59 131
0.321912 -0.405643 -0.239351 68 1 84
0.607662 0.132969 0.396918 68 1 84
-0.551427 0.293685 0.249576 68 1 84
0.479764 -0.387599 -0.129519 68 1 84
-0.410738 0.247973 -0.092813 68 1 84
-0.607314 0.131720 0.372414 68 1 84
-0.320319 -0.343361 -0.173583 68 1 84
0.606281 -0.119147 0.082792 32 164 133
0.694976 -0.364597 0.462289 205 224 29
-0.567653 0.182512 0.186178 68 1 84
-0.023573 0.005149 -0.457370 68 1 84
-0.130989 0.494598 -0.254189 40 122 142
-0.240576 0.479945 -0.155316 69 52 127
-0.409759 0.216543 -0.110688 68 1 84
0.607452 -0.209167 0.068715 30 158 136
-0.601368 -0.294828 0.082005 71 17 99
0.558019 0.155551 0.165587 68 1 84
-0.469245 -0.034271 -0.126013 68 1 84
-0.414364 0.297544 -0.061044 68 1 84
-0.609933 -0.409017 0.138263 72 29 111
0.269064 -0.161488 -0.209172 71 20 102
0.380420 -0.210642 -0.155174 60 77 138
-0.657706 -0.203691 0.343725 72 35 116
0.575956 0.228956 0.314151 68 1 84
0.658452 -0.121792 0.324970 39 124 142
0.581449 -0.376937 0.027761 71 22 105
0.650595 -0.326282 0.174003 32 164 133
0.481351 -0.136240 -0.114181 45 111 142
-0.598351 0.178996 0.436360 68 1 84
0.131186 0.391692 -0.211130 31 148 139
0.590431 0.194682 0.335939 68 1 84
0.625818 -0.008281 0.261216 60 77 138
0.647814 -0.089625 0.275900 53 92 140
0.368699 0.290985 -0.100405 70 11 94
-0.610934 -0.375434 0.128983 71 39 119
0.346529 -0.041356 -0.210683 37 131 141
0.403556 -0.396952 -0.200599 68 1 84
0.187336 0.462910 -0.173727 55 89 140
0.653424 -0.158309 0.238877 36 170 130
0.351061 0.552791 0.140383 68 1 84
0.498198 0.433637 0.339766 68 1 84
-0.657888 -0.177343 0.411205 48 103 141
0.322205 0.560175 0.098403 68 1 84
-0.297562 -0.206264 -0.185646 68 1 84
0.690504 -0.324340 0.484853 126 210 78
-0.024501 0.414845 -0.257003 62 188 115
0.626767 -0.108007 0.163817 31 150 139
-0.095416 -0.159557 -0.330598 68 1 84
-0.514213 0.201631 0.037100 68 1 84
0.592917 0.120564 0.253330 68 1 84
0.325289 -0.406713 -0.238436 68 1 84
0.207071 0.257637 -0.210875 41 175 127
0.103519 -0.096189 -0.310475 71 39 119
-0.122597 0.056161 -0.265614 63 69 135
0.227033 0.472033 -0.137087 72 33 114
0.340988 -0.451005 -0.253914 68 1 84
-0.471664 -0.354129 -0.060831 68 1 84
0.691290 -0.342552 0.448377 114 207 85
0.554568 0.313311 0.381030 68 1 84
-0.571968 -0.304138 0.030599 68 1 84
0.660473 -0.368837 0.221544 71 192 110
0.259978 0.022481 -0.242615 37 130 142
0.598448 -0.128509 0.058771 30 153 138
-0.660807 -0.270182 0.486083 36 132 141
0.175653 0.574144 -0.134015 71 24 106
0.212739 0.020156 -0.249889 46 109 142
0.465743 0.431648 0.202172 68 1 84
0.437161 0.424699 0.096746 68 1 84
-0.309285 0.286672 -0.166414 71 18 101
0.453840 -0.275283 -0.075121 49 101 141
-0.447231 -0.510211 -0.174737 68 1 84
-0.576611 -0.133861 0.004599 68 1 84
-0.670311 -0.543223 0.362425 40 122 142
0.629434 0.020186 0.378043 68 2 85
-0.548879 0.320775 0.466760 68 1 84
-0.062175 0.254281 -0.298729 30 156 137
0.623115 -0.214870 0.104480 30 153 138
-0.159456 0.306730 -0.256180 69 53 128
-0.278952 -0.525079 -0.295606 68 1 84
0.317653 0.220269 -0.174341 36 132 141
-0.640759 -0.039993 0.432529 68 1 84
0.631378 -0.114700 0.176611 43 177 125
-0.574855 0.094072 0.163672 68 1 84
-0.657219 -0.235126 0.506800 49 101 141
0.337043 0.562624 0.149040 68 1 84
-0.084611 0.627164 -0.194483 34 137 141
0.004482 0.048338 -0.367463 51 97 141
-0.203155 -0.231822 -0.196711 68 1 84
-0.600228 -0.538612 0.159469 68 1 84
0.461857 0.457566 0.265770 68 1 84
0.596847 -0.054651 0.097348 42 117 142
0.361046 -0.413663 -0.228032 68 1 84
0.528355 0.156921 0.076246 68 1 84
0.488435 -0.463027 -0.152285 68 1 84
0.582545 0.013362 0.128319 56 86 139
0.188687 -0.454893 -0.305446 68 1 84
0.460389 -0.075180 -0.131765 38 129 142
-0.424003 -0.187400 -0.153537 68 1 84
-0.299031 -0.016056 -0.231849 68 1 84
-0.564961 0.061342 0.089365 68 1 84
0.498864 -0.477863 -0.138580 68 1 84
-0.563985 0.114024 0.129326 68 1 84
-0.625444 -0.544032 0.215499 68 1 84
0.120015 0.303559 -0.249978 42 176 126
0.319374 0.382190 -0.101493 68 1 84
-0.496584 -0.204145 -0.091478 68 1 84
0.660652 -0.116423 0.355814 34 137 141
-0.501741 0.140568 -0.021418 68 1 84
-0.482850 0.436297 0.297262 68 1 84
0.572417 0.023952 0.098384 43 115 142
0.545606 0.311174 0.305008 68 1 84
-0.588899 -0.470281 0.106127 70 11 94
-0.553135 0.170703 0.124241 68 1 84
0.607024 -0.107956 0.090146 30 151 138
-0.544047 0.203687 0.118700 68 1 84
-0.106965 -0.474213 -0.326701 68 1 84
-0.626943 -0.136540 0.188595 70 11 94
-0.576916 -0.087668 0.017430 68 1 84
0.167970 0.520639 -0.181686 68 57 130
0.689744 -0.403104 0.370472 77 194 107
-0.099051 -0.322579 -0.223768 68 1 84
0.169182 0.253490 -0.224778 30 159 136
-0.624410 -0.302891 0.150374 67 60 132
-0.548462 0.155394 0.098995 68 1 84
0.165683 0.069547 -0.245257 50 181 122
-0.359332 0.365349 -0.092037 68 1 84
0.334184 0.379771 -0.087973 68 1 84
-0.656327 -0.211136 0.314238 70 49 126
0.370045 -0.260842 -0.148218 70 47 124
-0.393901 0.123564 -0.163936 68 1 84
-0.557916 0.150363 0.128998 68 1 84
0.297741 0.233569 -0.182617 31 147 139
-0.612534 -0.271852 0.105922 68 1 84
-0.633046 -0.137590 0.217920 71 44 123
-0.520269 0.148964 0.020959 68 1 84
-0.500159 -0.381676 -0.054130 68 1 84
-0.339192 -0.405246 -0.217219 68 1 84
0.348381 0.267251 -0.132414 51 96 141
-0.557036 0.302884 0.336739 68 1 84
0.566912 -0.021904 0.031427 50 98 141
-0.505987 -0.480102 -0.083154 68 1 84
-0.645519 -0.584098 0.288547 71 15 98
0.402196 0.385592 0.000788 68 1 84
0.649429 -0.054535 0.392358 60 77 138
-0.337138 0.544941 0.067046 68 1 84
-0.024378 0.581082 -0.252303 30 156 137
-0.235020 0.042271 -0.241276 68 1 84
0.601206 0.137038 0.492941 68 1 84
-0.045215 0.215983 -0.334586 50 181 122
0.557950 -0.179065 -0.015379 31 150 139
0.671692 -0.204955 0.415093 35 169 130
-0.105538 0.318279 -0.279693 59 80 138
-0.648776 -0.360731 0.232346 48 104 141
0.148829 0.216439 -0.263183 151 216 62
0.476951 0.401087 0.175854 68 1 84
-0.206460 -0.066993 -0.249683 68 1 84
-0.341711 0.476074 -0.038004 68 1 84
0.539463 0.295749 0.235754 68 1 84
-0.240012 0.077053 -0.238634 68 1 84
-0.478642 -0.316387 -0.043828 68 1 84
-0.315289 0.466808 -0.080845 70 11 94
-0.428191 -0.387396 -0.141829 68 1 84
-0.601073 0.153002 0.396272 68 1 84
0.508393 0.014830 -0.054102 46 109 142
-0.666948 -0.430654 0.324444 52 94 141
-0.119934 -0.412989 -0.273006 68 1 84
-0.357315 0.382164 -0.084720 68 1 84
0.609173 -0.149081 0.080332 34 137 141
0.658381 -0.518992 0.184792 68 1 84
-0.282817 -0.131599 -0.219829 68 1 84
0.420732 0.472096 0.138611 68 1 84
-0.119429 0.630852 -0.150807 40 122 142
0.245726 0.382181 -0.148955 51 96 141
-0.195853 0.154442 -0.260274 54 90 140
-0.135289 0.384615 -0.229378 61 75 137
0.616565 0.031139 0.256554 70 45 124
0.208736 0.322970 -0.181965 54 184 119
-0.521578 -0.260161 -0.035975 68 1 84
-0.512902 0.149646 0.006243 68 1 84
0.678359 -0.254394 0.363253 75 194 108
-0.068719 0.008417 -0.360169 66 64 133
-0.191979 0.152209 -0.261450 54 91 140
0.325301 0.170075 -0.187869 39 125 142
0.312781 0.481257 -0.037355 68 1 84
0.140008 -0.450806 -0.314460 68 1 84
0.182447 0.461833 -0.178041 51 97 141
0.000068 -0.088676 -0.445109 68 1 84
0.636812 0.001748 0.347739 69 8 91
-0.513388 -0.005225 -0.063816 68 1 84
-0.013213 0.050366 -0.392075 45 111 142
-0.437052 -0.077455 -0.159727 68 1 84
0.273919 -0.120567 -0.224648 63 69 135
0.566555 -0.392221 0.003219 71 37 117
-0.393954 -0.306011 -0.116006 68 1 84
-0.604134 0.141654 0.459885 68 1 84
0.344622 -0.346707 -0.164101 68 1 84
0.027752 0.021425 -0.395596 63 69 135
0.667499 -0.506653 0.225030 68 1 84
-0.495863 -0.032371 -0.094608 68 1 84
0.235625 0.556994 -0.054722 68 1 84
0.383340 -0.301166 -0.135668 68 1 84
0.371653 0.458508 0.022785 68 1 84
0.698963 -0.418493 0.425260 112 206 86
-0.571492 0.273343 0.385588 68 1 84
-0.543580 -0.114080 -0.046935 68 1 84
0.479151 -0.352555 -0.098557 68 1 84
0.489901 0.206700 0.015123 68 1 84
0.050384 -0.041842 -0.432606 69 50 127
0.177026 0.253372 -0.222531 44 177 125
-0.575265 -0.573805 0.103181 68 1 84
-0.184371 0.251526 -0.242123 48 104 141
-0.285558 0.167211 -0.220364 72 28 110
-0.498459 0.414322 0.390439 68 1 84
-0.461100 0.458854 0.242995 68 1 84
-0.617064 -0.019242 0.272194 68 1 84
0.614626 -0.205658 0.084571 41 175 127
0.286785 0.536827 0.000198 68 1 84
0.134882 -0.208255 -0.243838 68 1 84
-0.419788 0.180416 -0.118259 68 1 84
0.636799 -0.059097 0.256374 47 105 141
-0.591982 -0.085092 0.058949 68 3 87
-0.664026 -0.278826 0.451276 61 74 137
-0.390468 0.304680 -0.088477 68 1 84
0.447851 -0.039680 -0.139286 31 148 139
0.620808 -0.017270 0.235393 66 61 132
0.269827 0.040275 -0.238091 39 125 142
-0.328659 -0.550641 -0.272716 68 1 84
-0.387351 0.298457 -0.095378 68 1 84
-0.557204 0.216063 0.178132 68 1 84
0.409067 0.428026 0.050362 68 1 84
0.614524 0.094342 0.464090 68 1 84
0.254172 0.285804 -0.185339 62 188 115
-0.460142 0.325920 0.023166 68 1 84
-0.287099 0.563782 0.008655 68 1 84
0.301585 -0.012682 -0.229890 61 75 137
-0.123345 -0.301869 -0.199926 68 1 84
0.492827 0.012004 -0.076358 51 96 141
-0.504151 0.318108 0.101228 68 1 84
0.315194 0.164208 -0.195535 42 117 142
0.584091 0.005918 0.122922 44 114 142
-0.084319 -0.340372 -0.247296 68 1 84
0.679912 -0.270172 0.363079 54 184 119
0.104287 -0.028661 -0.355953 64 67 135
0.439940 -0.130832 -0.151938 41 121 142
0.108927 0.273530 -0.259486 57 185 118
-0.594873 -0.407235 0.097929 68 1 84
-0.591577 0.018101 0.175943 68 1 84
-0.206480 0.279728 -0.217201 51 97 141
0.122142 -0.337263 -0.187010 68 1 84
-0.664643 -0.270043 0.424774 49 101 141
0.039735 0.323208 -0.276990 39 126 142
0.110982 -0.075904 -0.301090 70 47 124
0.016948 0.086476 -0.320434 33 166 133
-0.105838 -0.030306 -0.399518 68 1 84
-0.560924 0.302473 0.435750 68 1 84
-0.358742 -0.361905 -0.137176 68 1 84
-0.405140 0.341964 -0.048885 68 1 84
0.645143 -0.056363 0.533335 68 1 84
-0.421452 0.314289 -0.041904 68 1 84
-0.420100 -0.043323 -0.172595 68 1 84
0.609757 0.119329 0.301062 68 1 84
0.644210 -0.053726 0.294519 53 93 140
0.097348 0.279301 -0.270630 87 198 101
-0.440532 0.270536 -0.040741 68 1 84
0.511610 -0.510313 -0.111740 68 1 84
-0.683556 -0.543421 0.419426 43 177 125
0.645862 -0.380127 0.182374 30 153 138
-0.049925 0.033336 -0.358200 56 87 140
0.175404 -0.009908 -0.252700 45 110 142
0.464260 -0.330025 -0.081594 68 1 84
0.256692 -0.009989 -0.244889 52 95 141
0.646867 -0.225683 0.179216 43 177 125
-0.243554 0.300427 -0.189758 72 33 114
0.160206 -0.276280 -0.187853 68 1 84
-0.256602 0.546258 -0.090080 68 1 84
0.608301 0.028062 0.229225 66 64 133
0.379668 0.350814 -0.053725 68 1 84
-0.581292 -0.029672 0.065838 68 1 84
0.618626 0.067037 0.409097 68 1 84
-0.652483 -0.171916 0.535747 40 122 142
-0.037139 0.051347 -0.363446 65 65 134
-0.352802 -0.173319 -0.186069 68 1 84
0.329646 0.478409 -0.017845 68 1 84
0.130240 0.263010 -0.241400 31 163 134
-0.485791 0.390599 0.141620 68 1 84
0.000490 0.329256 -0.268077 31 161 135
0.574494 -0.428627 0.018619 69 53 128
0.588506 0.201061 0.488183 68 1 84
-0.546758 0.141624 0.084363 68 1 84
-0.603480 0.142742 0.384667 68 1 84
-0.068301 0.269903 -0.301897 33 167 132
-0.141515 -0.210450 -0.248507 68 1 84
0.623140 0.044090 0.483891 68 1 84
-0.598543 -0.397374 0.103398 68 1 84
0.398978 0.458281 0.066498 68 1 84
-0.657133 -0.502573 0.315257 46 107 142
0.587907 0.192444 0.504304 68 1 84
-0.168336 -0.500736 -0.322899 68 1 84
0.675177 -0.332282 0.269615 134 212 73
0.335291 0.356122 -0.100666 68 1 84
0.495173 -0.409632 -0.123341 68 1 84
0.339076 0.094640 -0.199852 33 140 141
0.294409 0.346439 -0.140008 54 90 140
-0.621832 -0.190449 0.135640 68 1 84
0.165467 0.244989 -0.237728 32 164 133
-0.315978 0.210880 -0.191842 69 6 90
0.203175 0.325664 -0.183758 30 160 135
-0.330351 -0.077155 -0.217139 68 1 84
0.663542 -0.245315 0.242598 89 199 100
-0.401657 0.392883 -0.020391 68 1 84
-0.539857 -0.158704 -0.052683 68 1 84
0.224830 -0.112374 -0.237990 53 92 140
-0.602948 -0.011728 0.201449 68 1 84
0.089698 -0.317227 -0.234297 68 1 84
0.621015 -0.236401 0.093060 33 166 133
-0.629523 -0.500299 0.227201 68 1 84
-0.596165 -0.025409 0.142431 68 1 84
0.657130 -0.097506 0.331434 44 113 142
0.617561 0.041677 0.266971 71 24 106
-0.367391 0.158416 -0.172842 68 1 84
-0.297474 -0.144609 -0.211288 68 1 84
-0.468162 0.453919 0.299489 68 1 84
-0.485181 -0.436085 -0.109101 68 1 84
-0.404772 -0.309098 -0.104804 68 1 84
0.340173 -0.383945 -0.206579 68 1 84
-0.541954 -0.460371 -0.001983 68 1 84
0.482450 0.135851 -0.042174 70 48 125
-0.626741 -0.088306 0.236230 68 1 84
0.652243 -0.091093 0.300621 44 112 142
-0.428815 0.104741 -0.139413 68 1 84
-0.479911 0.295386 0.035425 68 1 84
-0.585205 -0.300628 0.051622 68 1 84
-0.643676 -0.254660 0.216775 69 54 129
0.666866 -0.173779 0.326826 40 174 127
-0.527905 0.325703 0.196926 68 1 84
0.119729 0.439535 -0.225160 36 133 141
0.438420 0.476710 0.214788 68 1 84
0.393994 0.236939 -0.104847 46 109 142
0.648966 -0.222192 0.187820 37 171 129
0.465971 0.440039 0.231905 68 1 84
-0.339922 0.349228 -0.116003 68 1 84
-0.672351 -0.340533 0.380594 44 112 142
-0.634845 -0.100359 0.272000 68 1 84
0.404649 0.460206 0.079371 68 1 84
0.479997 -0.517625 -0.162617 68 1 84
0.629799 -0.380396 0.130419 64 68 135
-0.290843 -0.276158 -0.179805 68 1 84
-0.477876 0.274277 0.017742 68 1 84
0.608760 -0.498527 0.098001 68 1 84
-0.217497 -0.116955 -0.240388 68 1 84
0.232185 0.119265 -0.236918 34 167 132
0.424219 0.404694 0.052537 68 1 84
0.468751 0.018919 -0.104264 35 137 141
0.403757 -0.370773 -0.172502 68 1 84
-0.420757 -0.020821 -0.170844 68 1 84
-0.335900 0.383955 -0.102393 68 1 84
0.181050 0.250092 -0.225444 35 168 131
-0.565707 -0.069402 0.002158 68 1 84
-0.494286 -0.540705 -0.095992 68 1 84
-0.620406 -0.314680 0.140450 70 45 124
-0.622498 0.024599 0.322944 68 1 84
0.184582 0.200845 -0.246827 43 177 125
-0.575950 -0.055106 0.032659 68 1 84
0.175975 0.267205 -0.207782 32 144 140
-0.362733 0.543909 0.161644 68 1 84
0.595925 -0.359118 0.052138 65 66 134
-0.661404 -0.259717 0.460663 51 96 141
0.087179 -0.242385 -0.274444 68 1 84
0.614458 0.100686 0.297336 68 1 84
-0.207814 0.503740 -0.186570 55 88 140
-0.231836 0.349243 -0.184769 71 40 120
0.517785 0.371465 0.298594 68 1 84
-0.589906 0.183566 0.484711 68 1 84
-0.570314 -0.019545 0.039870 68 1 84
0.381323 -0.445812 -0.236150 68 1 84
-0.498916 0.389515 0.189257 68 1 84
0.707374 -0.508541 0.452806 246 230 31
-0.596133 -0.078880 0.077903 68 1 84
0.406004 -0.368937 -0.168619 68 1 84
0.133261 -0.094685 -0.275149 63 69 135
-0.467631 0.250540 -0.014219 68 1 84
-0.602463 -0.420705 0.121969 68 1 84
-0.077873 0.055300 -0.309440 69 53 128
-0.341376 0.555201 0.125863 68 1 84
-0.137605 -0.082288 -0.297271 68 1 84
-0.037066 0.201767 -0.345054 32 145 140
-0.033707 -0.092122 -0.442957 68 1 84
0.457805 0.479134 0.334313 68 1 84
0.197368 -0.166121 -0.228095 70 49 126
0.233713 0.212727 -0.224588 50 181 122
-0.646028 -0.419030 0.233387 70 45 124
0.503617 -0.428134 -0.120746 68 1 84
0.324256 -0.211226 -0.176609 68 2 85
-0.639712 -0.063867 0.530335 68 1 84
0.381652 0.257954 -0.105413 55 88 140
-0.027319 0.586888 -0.249057 33 141 140
-0.042282 -0.250367 -0.334281 68 1 84
-0.648887 -0.254183 0.236071 69 53 128
0.100800 0.237016 -0.271381 238 229 27
0.255073 0.064385 -0.240261 30 151 138
0.231328 -0.395562 -0.218382 68 1 84
-0.277757 -0.354542 -0.178126 68 1 84
-0.398853 -0.532833 -0.225875 68 1 84
0.575851 -0.097952 0.016893 30 153 138
-0.174404 -0.170868 -0.241550 68 1 84
-0.004175 0.071903 -0.341900 49 102 141
0.548173 0.327838 0.368898 68 1 84
-0.322774 0.559419 0.077625 68 1 84
0.485070 -0.159556 -0.107702 40 122 142
0.196683 0.082951 -0.243736 32 164 133
0.674848 -0.306347 0.264587 89 199 100
-0.560295 0.274205 0.499650 68 1 84
-0.171927 -0.259701 -0.193703 68 1 84
-0.388353 0.511880 0.105924 68 1 84
0.630069 0.034625 0.314476 71 20 102
0.382047 0.182410 -0.144066 36 133 141
-0.303069 -0.352944 -0.175715 68 1 84
0.569557 -0.442692 0.010654 71 38 118
-0.527637 0.353758 0.255399 68 1 84
-0.503742 0.218699 0.025534 68 1 84
0.603931 0.152964 0.412438 68 1 84
-0.120607 -0.297738 -0.205081 68 1 84
0.604779 0.147915 0.404353 68 1 84
0.045133 0.027716 -0.302985 49 101 141
-0.524519 0.260206 0.103993 68 1 84
0.210359 0.596729 -0.005434 68 1 84
-0.617014 -0.432312 0.169046 65 65 134
-0.517189 -0.098537 -0.079294 68 1 84
-0.487608 0.312570 0.061943 68 1 84
-0.658813 -0.236880 0.471740 49 102 141
-0.385022 0.332901 -0.081080 68 1 84
0.344066 -0.149727 -0.196877 64 67 135
-0.089857 -0.035429 -0.422650 68 1 84
-0.529589 -0.198765 -0.056800 68 1 84
0.276034 -0.392921 -0.225719 68 1 84
0.665561 -0.163155 0.330568 35 168 131
0.487877 -0.182369 -0.096909 31 147 139
0.576144 0.220625 0.299522 68 1 84
-0.430964 0.263053 -0.058504 68 1 84
0.623832 0.057325 0.374042 68 1 84
-0.297302 0.160397 -0.215196 72 28 110
-0.258059 0.519091 -0.117105 68 1 84
-0.579008 0.169101 0.230975 68 1 84
0.419909 0.478822 0.152171 68 1 84
0.159307 -0.268291 -0.189690 68 1 84
-0.256355 0.376391 -0.160339 68 57 130
-0.664204 -0.418637 0.294386 44 114 142
0.619980 0.040823 0.515561 68 1 84
-0.614850 0.027863 0.289227 68 1 84
0.690622 -0.489807 0.341809 42 117 142
-0.602220 0.146636 0.355429 68 1 84
0.683280 -0.292027 0.430842 119 208 82
0.412431 0.427971 0.055802 68 1 84
-0.621774 -0.295688 0.140841 67 60 132
0.362554 -0.241881 -0.152216 69 52 127
0.306507 0.176726 -0.196631 39 124 142
0.122681 0.615260 -0.131591 66 61 132
0.480632 0.303267 0.066368 68 1 84
-0.111020 -0.143389 -0.315595 68 1 84
0.293999 -0.039585 -0.231961 59 81 138
-0.563150 -0.132753 -0.019357 68 1 84
-0.398132 0.138812 -0.156102 68 1 84
0.072479 0.099497 -0.280888 59 186 117
0.128438 0.421549 -0.216055 31 146 140
-0.142535 -0.409950 -0.249580 68 1 84
-0.395823 0.140435 -0.157413 68 1 84
-0.669136 -0.562527 0.362297 51 96 141
-0.429904 0.225854 -0.082582 68 1 84
0.402363 0.414506 0.026658 68 1 84
0.141582 0.572283 -0.179707 61 75 137
-0.365486 0.427779 -0.047329 68 1 84
0.605856 0.116381 0.284617 68 1 84
-0.145196 0.345773 -0.237457 59 81 138
-0.437540 0.470174 0.144879 68 1 84
-0.185057 -0.103689 -0.253763 68 1 84
0.526155 -0.347047 -0.040342 71 15 98
0.203521 0.558101 -0.110151 68 1 84
0.486683 0.365105 0.145017 68 1 84
0.620664 -0.411850 0.113212 66 64 133
-0.555755 -0.388389 0.020582 68 1 84
0.647984 -0.229630 0.182025 39 173 128
0.606248 0.149577 0.443408 68 1 84
0.544489 0.337931 0.368180 68 1 84
0.096321 0.080123 -0.259415 33 141 140
-0.647303 -0.107563 0.507221 52 95 141
0.520127 0.236691 0.109155 68 1 84
-0.633430 -0.035489 0.555607 68 1 84
0.645606 -0.239921 0.169763 38 129 142
-0.620015 0.082210 0.429056 68 1 84
0.449331 0.315576 0.019801 68 1 84
0.167108 0.244628 -0.237457 33 166 133
-0.209474 0.506338 -0.184029 59 81 138
-0.378507 0.530982 0.144941 68 1 84
-0.042466 -0.453644 -0.331858 68 1 84
0.404154 -0.069159 -0.177215 35 137 141
0.665838 -0.160503 0.338574 30 154 137
-0.619921 0.085046 0.405287 68 1 84
0.633291 -0.252187 0.125640 30 156 137
-0.133200 0.457659 -0.248903 42 117 142
-0.590022 -0.024038 0.108342 68 1 84
-0.519350 -0.075384 -0.072985 68 1 84
-0.139729 -0.281841 -0.196980 68 1 84
-0.315551 0.543863 0.018782 68 1 84
0.077968 -0.186640 -0.308720 68 1 84
0.490211 -0.038764 -0.094531 33 142 140
-0.636122 -0.438942 0.214651 72 29 111
0.498862 0.445929 0.380672 68 1 84
0.663188 -0.203198 0.260674 35 169 130
0.673341 -0.218074 0.416997 56 185 118
-0.254937 0.319863 -0.178493 71 22 105
-0.388600 -0.470838 -0.218297 68 1 84
-0.225711 -0.502600 -0.309686 68 1 84
0.571773 0.258503 0.371510 68 1 84
0.563955 -0.446766 0.000048 71 18 101
-0.632774 -0.012773 0.365944 68 1 84
0.632358 -0.006149 0.287533 71 21 103
-0.593397 0.197955 0.419300 68 1 84
-0.564328 0.292836 0.379768 68 1 84
0.593964 0.179282 0.330871 68 1 84
0.616869 0.079408 0.480966 68 1 84
0.126942 0.194612 -0.279140 144 214 67
-0.434531 0.121378 -0.128318 68 1 84
-0.461567 -0.021197 -0.132732 68 1 84
0.514630 -0.137556 -0.076722 48 180 122
-0.661530 -0.238975 0.419682 38 128 142
0.669787 -0.220897 0.288838 30 157 136
0.248870 0.591295 0.058254 68 1 84
-0.569968 -0.187916 -0.004142 68 1 84
0.264247 -0.483809 -0.304693 68 1 84
0.080513 0.031591 -0.297075 45 110 142
-0.606725 -0.385191 0.120452 68 1 84
0.116068 0.034432 -0.268662 42 118 142
-0.665847 -0.337712 0.294221 71 39 119
0.159992 -0.007663 -0.252081 34 139 141
0.533710 0.391551 0.421048 68 1 84
0.351443 -0.039684 -0.208459 31 147 139
0.182714 0.429370 -0.179735 43 115 142
0.444860 0.478659 0.248618 68 1 84
0.299598 0.094723 -0.219377 30 156 137
-0.151774 0.560819 -0.222311 57 84 139
0.258132 0.157058 -0.222956 31 163 134
0.660478 -0.114738 0.374985 34 138 141
0.338825 0.197674 -0.169465 40 123 142
0.121190 -0.370799 -0.215526 68 1 84
0.124309 0.490622 -0.230109 36 132 141
-0.598794 0.166204 0.459691 68 1 84
0.451777 -0.148012 -0.140292 45 110 142
-0.029943 -0.220636 -0.356176 68 1 84
-0.680888 -0.425489 0.431580 31 146 140
0.616383 -0.154026 0.099940 33 166 133
0.584536 0.233334 0.454868 68 1 84
0.068531 0.008250 -0.324793 48 104 141
-0.517225 0.379723 0.281988 68 1 84
0.071001 -0.271543 -0.279344 68 1 84
-0.156842 -0.409261 -0.236070 68 1 84
-0.233933 0.313848 -0.193664 69 53 128
-0.419047 0.481754 0.114624 68 1 84
-0.683058 -0.431935 0.457872 30 160 135
-0.198979 -0.498558 -0.314903 68 1 84
0.097067 0.599247 -0.195354 45 111 142
0.153276 0.494569 -0.203206 48 104 141
0.083096 -0.335218 -0.249447 68 1 84
-0.502719 0.288116 0.072338 68 1 84
-0.548379 -0.496256 0.023001 68 1 84
-0.511967 -0.518320 -0.058827 68 1 84
0.640348 -0.303252 0.142176 35 168 131
-0.397788 0.504549 0.112099 68 1 84
0.351453 0.557326 0.195602 68 1 84
0.559201 0.267862 0.285235 68 1 84
-0.448841 -0.223562 -0.119727 68 1 84
0.622714 0.061501 0.298261 68 1 84
0.337168 0.426215 -0.053224 68 1 84
-0.617807 -0.438775 0.173721 70 47 124
0.673845 -0.215254 0.357340 75 194 108
0.682214 -0.284346 0.431958 96 201 96
0.190794 0.520195 -0.155231 69 53 128
0.684511 -0.354039 0.353169 146 215 65
-0.087569 0.351735 -0.249294 40 122 142
-0.381417 0.009095 -0.194639 68 1 84
0.328918 0.540490 0.070910 68 1 84
0.039775 -0.235100 -0.331563 68 1 84
0.453028 0.003214 -0.125910 36 132 141
-0.660455 -0.434977 0.282007 58 83 139
-0.111396 -0.047357 -0.388200 68 1 84
-0.660110 -0.480609 0.317227 59 81 138
0.179673 0.175683 -0.250940 43 177 125
0.661841 -0.296483 0.194330 39 173 128
0.529454 -0.272728 -0.025181 43 115 142
-0.655535 -0.186076 0.334847 72 34 115
0.636413 -0.366864 0.146593 49 102 141
-0.481001 -0.075054 -0.117733 68 1 84
-0.051258 0.030325 -0.358910 58 82 139
-0.000107 0.282136 -0.302423 87 198 101
0.582447 0.242424 0.447743 68 1 84
0.022479 -0.477689 -0.334061 68 1 84
0.317676 0.139118 -0.200470 33 140 141
0.648782 -0.059436 0.427644 71 42 121
-0.575042 0.077633 0.148158 68 1 84
0.469922 0.377359 0.115840 68 1 84
0.189469 -0.166428 -0.230774 68 1 84
-0.243210 0.562618 -0.089987 68 1 84
-0.241379 -0.110233 -0.235123 68 1 84
0.614573 -0.342047 0.086854 39 125 142
-0.364861 -0.453980 -0.228502 68 1 84
-0.659341 -0.241868 0.469519 49 100 141
-0.054359 0.643948 -0.150376 30 154 137
-0.629042 0.032310 0.401861 68 1 84
0.672974 -0.241813 0.299676 69 191 111
-0.109856 -0.198410 -0.288789 68 1 84
0.168241 0.403565 -0.190872 51 97 141
-0.018959 -0.349309 -0.300652 68 1 84
-0.219721 -0.327602 -0.188124 68 1 84
0.206575 0.573837 -0.078022 68 1 84
0.605300 -0.102890 0.087694 30 155 137
-0.081636 0.434399 -0.259436 34 167 132
-0.238752 0.559860 -0.104610 68 1 84
0.221079 -0.445644 -0.281561 68 1 84
-0.288929 -0.117999 -0.222441 68 1 84
-0.222874 -0.463019 -0.278582 68 1 84
0.063197 0.632478 -0.162478 43 115 142
0.329427 0.109634 -0.201825 36 134 141
0.244414 0.133293 -0.231815 38 129 142
-0.091668 -0.172980 -0.325913 68 1 84
0.339216 -0.449998 -0.254133 68 1 84
-0.328964 0.361069 -0.118061 68 1 84
0.658095 -0.264539 0.195710 38 127 142
-0.583734 0.177740 0.262634 68 1 84
0.536790 -0.396569 -0.048429 68 1 84
0.150482 0.085228 -0.248401 69 191 111
-0.040982 -0.112574 -0.425487 68 1 84
0.611288 0.087077 0.493429 68 1 84
-0.408881 -0.243140 -0.132047 68 1 84
-0.117285 0.475297 -0.259392 40 122 142
-0.106697 0.625339 -0.184011 41 121 142
-0.244523 -0.499226 -0.304714 68 1 84
0.591810 0.019459 0.170554 52 95 141
-0.621831 0.075203 0.405485 68 1 84
-0.306990 0.230921 -0.191710 68 55 129
0.039233 0.497200 -0.268193 35 169 130
0.568105 0.004659 0.055741 41 120 142
-0.054103 -0.048392 -0.457014 68 1 84
0.412546 0.518975 0.292088 68 1 84
-0.607220 -0.063768 0.153627 68 1 84
-0.211827 0.602328 -0.036785 68 3 87
-0.636006 -0.038133 0.506964 69 6 90
0.554784 0.337001 0.478462 68 1 84
0.358515 0.389117 -0.055364 68 1 84
0.626133 -0.119727 0.154163 32 144 140
0.551999 0.326892 0.497361 68 1 84
-0.268225 0.494346 -0.120349 68 1 84
-0.047520 -0.316325 -0.295131 68 1 84
0.333349 -0.336372 -0.174143 68 1 84
0.689650 -0.416617 0.363067 38 172 129
-0.547492 0.301529 0.245541 68 1 84
0.569105 0.155468 0.198987 68 1 84
-0.631428 -0.213321 0.177372 71 40 120
0.247786 0.031732 -0.244186 40 123 142
-0.054896 0.036073 -0.346282 52 95 141
0.322559 -0.516546 -0.291283 68 1 84
-0.144350 0.093046 -0.261335 66 62 133
0.199855 0.255929 -0.213384 96 201 96
-0.678099 -0.416283 0.408080 30 157 136
0.566837 0.065941 0.127406 58 82 139
0.706412 -0.541970 0.455246 202 224 30
-0.149984 0.533447 -0.236445 52 94 141
0.117497 0.000813 -0.330290 68 1 84
-0.004499 0.400441 -0.249421 85 198 102
0.176844 0.029583 -0.247484 33 142 140
0.394060 -0.507910 -0.253101 68 1 84
0.050187 -0.070385 -0.419541 50 98 141
-0.483899 0.284189 0.034633 68 1 84
0.578049 0.027520 0.129175 63 69 135
-0.667977 -0.284216 0.379922 57 84 139
-0.404933 -0.539442 -0.218364 68 1 84
0.563561 -0.206884 -0.004151 35 136 141
-0.650252 -0.523133 0.299333 61 75 137
-0.314402 0.353053 -0.131390 68 1 84
-0.508512 -0.055223 -0.082835 68 1 84
0.675019 -0.275192 0.287008 100 203 93
0.691264 -0.364719 0.410163 109 206 88
0.668096 -0.366748 0.245717 136 213 71
-0.431077 -0.010386 -0.161211 68 1 84
-0.302582 0.554507 0.016578 68 1 84
-0.070308 0.007383 -0.365498 63 69 135
0.434200 0.071380 -0.129520 32 145 140
-0.475403 -0.168670 -0.122278 68 1 84
0.461145 -0.424410 -0.170208 68 1 84
-0.655949 -0.147447 0.379392 68 1 84
0.385216 0.443906 0.028458 68 1 84
-0.332929 -0.128998 -0.205565 68 1 84
-0.076069 -0.304509 -0.268159 68 1 84
0.015086 0.006128 -0.446632 60 77 138
0.565444 -0.108166 -0.005731 38 129 142
-0.362732 -0.496525 -0.243126 68 1 84
0.605631 -0.009774 0.188328 58 83 139
-0.528149 0.341385 0.229536 68 1 84
-0.192394 0.290731 -0.232694 72 33 114
-0.082068 0.003006 -0.367279 63 71 136
0.477340 0.346228 0.097126 68 1 84
0.468723 0.113066 -0.074097 61 74 137
0.592280 -0.013064 0.132646 40 122 142
-0.569008 0.064613 0.107690 68 1 84
0.389872 0.223644 -0.116715 38 128 142
0.062811 0.029585 -0.295191 46 107 142
0.603750 0.131238 0.293901 68 1 84
-0.352611 0.100134 -0.196801 68 1 84
0.564791 0.109070 0.155732 68 1 84
-0.372537 0.181036 -0.160872 68 1 84
-0.635664 -0.038410 0.367033 68 1 84
-0.374324 -0.486954 -0.231791 68 1 84
-0.436067 0.486699 0.266516 68 1 84
-0.109857 -0.325082 -0.206814 68 1 84
-0.511466 0.368809 0.201849 68 1 84
0.439678 0.261695 -0.034091 65 65 134
-0.238599 -0.267280 -0.186632 68 1 84
-0.534545 -0.127191 -0.060407 68 1 84
-0.481831 0.174512 -0.038434 68 1 84
-0.615866 0.055664 0.306720 68 1 84
-0.118238 0.010301 -0.326974 51 97 141
-0.608497 -0.528388 0.180356 68 1 84
0.376472 0.541101 0.220065 68 1 84
0.252756 0.546298 -0.041952 68 1 84
0.348095 0.505453 0.045076 68 1 84
0.162926 -0.417169 -0.265784 68 1 84
0.169709 0.179309 -0.254422 30 151 138
0.545555 -0.435299 -0.042279 68 1 84
0.451648 0.371515 0.069378 68 1 84
-0.233015 -0.186595 -0.209439 68 1 84
0.494642 -0.174084 -0.092958 31 163 134
-0.437112 0.472441 0.151100 68 1 84
-0.672546 -0.540828 0.370053 49 100 141
0.397349 -0.037322 -0.180222 31 147 139
0.560683 -0.114905 -0.014514 38 129 142
0.678582 -0.262261 0.347084 62 188 115
-0.311241 -0.407525 -0.221423 68 1 84
0.636865 -0.013318 0.440476 72 28 110
-0.292490 -0.209293 -0.185281 68 1 84
-0.371132 0.308445 -0.108427 68 1 84
-0.419486 0.501754 0.247440 68 1 84
0.495751 -0.281492 -0.045772 66 64 133
0.688252 -0.416378 0.354957 107 205 89
0.637136 0.000481 0.336617 71 21 103
0.531447 0.042648 -0.004893 60 78 138
0.205833 0.012118 -0.250970 44 113 142
-0.647771 -0.328840 0.215586 66 61 132
-0.128051 -0.007790 -0.355421 71 37 117
-0.358436 -0.243864 -0.156512 68 1 84
-0.581638 0.197016 0.503702 68 1 84
0.073239 0.010262 -0.324031 51 96 141
-0.640056 -0.277928 0.197457 61 74 137
-0.626516 0.013239 0.495495 68 1 84
-0.055370 0.019883 -0.367163 52 94 141
-0.463896 -0.432099 -0.137356 68 1 84
0.156011 0.324306 -0.211844 36 132 141
0.231505 0.079916 -0.240977 30 160 135
0.323461 -0.081862 -0.217197 47 105 141
0.054187 0.004710 -0.396428 65 66 134
-0.080657 0.043720 -0.307853 69 53 128
0.094809 -0.449348 -0.322166 68 1 84
-0.552641 0.318825 0.370854 68 1 84
-0.507693 0.160011 0.001974 68 1 84
0.112441 0.059530 -0.250901 36 133 141
-0.005770 0.279546 -0.302924 103 204 92
-0.546608 0.222918 0.143223 68 1 84
-0.652311 -0.128963 0.436851 64 68 135
0.413065 0.046552 -0.155473 36 132 141
0.602783 -0.354207 0.065318 55 88 140
-0.502686 -0.068432 -0.092593 68 1 84
0.415795 0.383102 0.020334 68 1 84
-0.237709 -0.516766 -0.309732 68 1 84
0.345199 -0.006208 -0.209960 45 110 142
0.622538 -0.447542 0.120831 60 78 138
0.470857 0.467967 0.333513 68 1 84
-0.544861 -0.524373 0.022401 68 1 84
-0.299492 -0.207452 -0.184885 68 1 84
0.513096 0.242340 0.094313 68 1 84
-0.112153 0.629297 -0.169475 44 112 142
0.415767 0.513790 0.260665 68 1 84
0.051751 0.639669 -0.142991 41 120 142
0.531323 -0.369844 -0.044823 68 1 84
0.592004 0.195623 0.457418 68 1 84
-0.586876 0.139292 0.244324 68 1 84
0.405122 0.357044 -0.017013 68 1 84
-0.631676 0.019919 0.432120 68 1 84
0.509608 0.285306 0.117704 68 1 84
-0.142621 0.624235 -0.133959 66 61 132
0.056539 0.623789 -0.189805 30 156 137
-0.307635 0.259681 -0.179811 71 37 117
0.496660 0.350159 0.152787 68 1 84
0.011517 -0.371777 -0.304548 68 1 84
-0.023528 -0.212644 -0.362612 68 1 84
-0.411827 0.020097 -0.172614 68 1 84
-0.534295 -0.503851 -0.007167 68 1 84
0.240416 0.515932 -0.101185 68 1 84
-0.628342 -0.235345 0.159398 67 58 131
-0.184189 -0.457809 -0.292859 68 1 84
-0.260388 -0.518917 -0.303663 68 1 84
0.610904 0.117388 0.404891 68 1 84
-0.559743 0.298053 0.340521 68 1 84
-0.657581 -0.189831 0.435942 45 110 142
-0.460989 0.445465 0.170389 68 1 84
0.044645 -0.446754 -0.330949 68 1 84
0.641980 -0.106908 0.224935 31 146 140
-0.444730 -0.493227 -0.176502 68 1 84
-0.223499 -0.262771 -0.187671 68 1 84
-0.526188 -0.345681 -0.013143 68 1 84
0.444496 0.482486 0.256530 68 1 84
0.614751 0.113622 0.344501 68 1 84
-0.224950 0.573714 -0.108634 68 1 84
0.585362 -0.043211 0.066339 36 133 141
0.360448 0.161957 -0.168254 56 87 140
-0.114964 -0.234760 -0.262144 68 1 84
-0.493819 -0.346621 -0.038974 68 1 84
-0.669117 -0.307442 0.418407 49 102 141
0.349029 -0.318047 -0.164102 68 1 84
0.501997 0.192725 0.031115 68 1 84
-0.622635 0.048376 0.345828 68 1 84
0.057484 0.119853 -0.301131 139 213 70
0.633018 -0.351842 0.132022 42 117 142
0.289206 -0.313636 -0.188773 68 1 84
-0.637966 -0.026533 0.411776 68 1 84
-0.503733 -0.059275 -0.089687 68 1 84
-0.209563 0.454025 -0.190195 60 77 138
-0.188057 0.096745 -0.250713 68 1 84
0.131336 0.068786 -0.247090 35 136 141
0.243173 0.511766 -0.101031 68 1 84
0.389183 0.525662 0.174468 68 1 84
0.387923 0.048826 -0.175466 47 105 141
0.103569 0.317519 -0.253993 59 186 117
0.226611 -0.328910 -0.183895 68 1 84
0.456186 0.042178 -0.113186 36 134 141
-0.548646 0.030536 0.017213 68 1 84
-0.619875 -0.571048 0.204946 68 1 84
0.278854 0.090179 -0.228493 30 156 137
0.403143 0.522517 0.249814 68 1 84
-0.276086 -0.276341 -0.182921 68 1 84
-0.402467 -0.290773 -0.113920 68 1 84
-0.163636 0.589451 -0.185765 69 50 127
0.366849 0.268902 -0.114324 38 127 142
-0.057595 0.270944 -0.303462 89 199 100
0.605295 0.143739 0.346113 68 1 84
0.048916 0.453366 -0.260075 32 143 140
0.604349 0.149729 0.402054 68 1 84
0.421891 -0.194278 -0.142600 50 98 141
0.449974 0.374569 0.069193 68 1 84
0.600155 -0.456087 0.077570 65 65 134
-0.612751 -0.047491 0.212883 68 1 84
0.228584 -0.358477 -0.184139 68 1 84
0.244297 0.578512 0.006470 68 1 84
0.587363 -0.057450 0.062205 36 133 141
0.294070 -0.462028 -0.277691 68 1 84
0.271906 -0.356768 -0.183715 68 1 84
0.142413 0.236420 -0.259471 116 208 84
0.567284 -0.310731 0.005611 57 84 139
-0.413089 0.500144 0.154268 68 1 84
-0.557578 0.312195 0.436798 68 1 84
0.656574 -0.316921 0.185080 47 179 123
-0.551234 -0.009761 -0.000190 68 1 84
-0.030189 -0.429439 -0.322312 68 1 84
-0.330257 0.562298 0.126650 68 1 84
-0.067367 0.275984 -0.303489 35 169 130
-0.592485 -0.059581 0.080182 68 1 84
-0.569297 0.122060 0.156283 68 1 84
-0.265757 -0.291888 -0.187543 68 1 84
0.408534 0.472955 0.107656 68 1 84
0.539448 -0.014922 -0.017144 47 106 141
0.623448 -0.140438 0.131819 31 162 134
0.437704 0.497420 0.268574 68 1 84
0.117133 0.019987 -0.308105 58 83 139
0.553973 0.071345 0.086297 72 29 111
-0.426831 -0.075842 -0.167658 68 1 84
-0.527529 0.256142 0.110073 68 1 84
-0.656024 -0.184661 0.466273 42 118 142
0.516956 -0.020837 -0.054552 34 138 141
0.603659 0.100822 0.267764 68 1 84
-0.119032 -0.076337 -0.351339 68 1 84
-0.339799 -0.531788 -0.265954 68 1 84
-0.126915 0.625185 -0.163139 49 101 141
-0.037716 -0.455257 -0.332648 68 1 84
-0.303105 0.279528 -0.173090 71 24 106
0.695591 -0.434507 0.388945 134 212 73
0.085797 -0.076165 -0.360320 58 82 139
0.616714 0.080706 0.458173 68 1 84
-0.352860 0.267190 -0.143540 68 1 84
-0.651258 -0.536741 0.306061 62 72 136
0.341092 -0.491463 -0.276987 68 1 84
-0.022802 0.101019 -0.325866 38 128 142
0.511234 -0.440678 -0.113206 68 1 84
0.707174 -0.471548 0.456400 231 228 25
0.185636 0.010635 -0.250582 36 132 141
0.447793 -0.127997 -0.145874 36 134 141
-0.647288 -0.095675 0.406846 68 2 85
0.542950 0.016094 0.002901 55 89 140
-0.140522 -0.334945 -0.177153 68 1 84
-0.046225 -0.200964 -0.359195 68 1 84
0.667642 -0.534409 0.223896 68 1 84
0.077214 0.078211 -0.269713 87 198 101
-0.444697 -0.474939 -0.173095 68 1 84
0.593473 -0.509710 0.068662 68 1 84
-0.048726 0.612622 -0.226211 31 146 140
0.022293 0.387800 -0.241401 50 181 122
-0.455696 0.463759 0.228461 68 1 84
-0.532390 0.327575 0.225131 68 1 84
0.602974 -0.399418 0.070239 70 48 125
0.574118 -0.457776 0.022685 72 28 110
-0.358008 0.469072 -0.021331 68 1 84
0.584337 -0.472399 0.048309 72 35 116
0.598954 -0.521385 0.073251 68 1 84
0.270924 -0.187596 -0.196907 68 1 84
0.490329 -0.328497 -0.061975 68 1 84
-0.543529 -0.493457 0.010787 68 1 84
-0.368762 -0.345010 -0.125326 68 1 84
0.098267 -0.450200 -0.322060 68 1 84
-0.317990 -0.473664 -0.252297 68 1 84
0.296794 -0.021473 -0.231759 56 86 139
0.513830 0.366210 0.255161 68 1 84
-0.271155 0.122208 -0.229745 68 1 84
-0.642606 -0.079261 0.534116 70 45 124
0.372323 0.406136 -0.024916 68 1 84
0.127333 0.017852 -0.263943 36 134 141
-0.406325 0.475105 0.070037 68 1 84
-0.106883 -0.223077 -0.279278 68 1 84
0.628767 -0.034546 0.249932 55 88 140
0.514551 0.328471 0.178895 68 1 84
-0.510775 0.173178 0.014959 68 1 84
0.579137 0.203987 0.528385 68 1 84
0.111064 0.052926 -0.252900 39 125 142
0.111130 0.035794 -0.280587 47 106 141
0.355040 0.371161 -0.070997 68 1 84
0.510561 -0.089728 -0.080604 40 174 127
-0.593620 0.162738 0.301958 68 1 84
-0.219061 0.090824 -0.242894 68 1 84
-0.384610 0.443425 -0.006057 68 1 84
-0.193915 0.605768 -0.088773 71 40 120
0.440459 -0.069636 -0.149105 45 110 142
0.055399 0.231014 -0.292278 202 224 30
-0.498855 0.368049 0.147865 68 1 84
0.576941 -0.336271 0.017679 68 55 129
-0.596271 -0.452071 0.117390 68 1 84
-0.536898 0.221170 0.109484 68 1 84
0.487164 0.105077 -0.049727 58 83 139
0.560263 -0.076576 -0.006309 39 124 142
0.100907 0.369843 -0.224959 48 180 122
0.638324 -0.296107 0.134992 30 152 138
0.512602 -0.179238 -0.070376 30 159 136
0.250423 -0.264401 -0.189099 68 1 84
-0.504683 -0.473717 -0.085335 68 1 84
-0.679870 -0.387270 0.510630 31 148 139
-0.296072 -0.395875 -0.188283 68 1 84
0.415618 -0.325832 -0.098039 68 1 84
0.121269 -0.103004 -0.285901 65 65 134
0.280401 0.157331 -0.214181 33 140 141
0.212484 0.104704 -0.241957 33 166 133
-0.521287 0.387558 0.387488 68 1 84
0.254560 0.190316 -0.218340 54 184 119
0.423988 0.489598 0.194722 68 1 84
-0.537868 0.025480 -0.010841 68 1 84
0.668857 -0.198365 0.309636 46 178 124
0.399917 -0.022293 -0.177140 35 135 141
0.535522 0.342860 0.328923 68 1 84
-0.634942 -0.042371 0.554753 68 1 84
-0.464613 -0.414450 -0.127388 68 1 84
0.577999 -0.257405 0.019333 54 91 140
-0.048424 -0.258451 -0.325516 68 1 84
-0.628606 -0.029634 0.320465 68 1 84
-0.246136 -0.468717 -0.274634 68 1 84
0.589973 0.210568 0.421297 68 1 84
0.689342 -0.404225 0.367249 73 193 109
-0.258433 0.539477 -0.096569 68 1 84
0.632898 -0.081454 0.207332 37 131 141
-0.310082 -0.210310 -0.181832 68 1 84
-0.457942 0.322117 0.016855 68 1 84
0.315377 0.466852 -0.047551 68 1 84
-0.068149 -0.140422 -0.384131 68 1 84
-0.609183 0.115377 0.330340 68 1 84
-0.253555 -0.095800 -0.235982 68 1 84
0.589791 0.169820 0.288470 68 1 84
-0.657585 -0.160102 0.377880 71 37 117
-0.653369 -0.305228 0.226708 66 64 133
-0.130488 -0.094652 -0.304748 68 1 84
-0.637205 -0.044086 0.506381 69 8 91
-0.552394 0.251839 0.198684 68 1 84
0.258903 0.171083 -0.220314 38 172 129
0.026736 0.259298 -0.294446 159 217 56
0.489182 0.393787 0.208296 68 1 84
-0.658439 -0.243053 0.486942 38 128 142
-0.485162 -0.374476 -0.067398 68 1 84
-0.562954 -0.074812 -0.005840 68 1 84
0.134340 0.437224 -0.215985 33 140 141
-0.071026 -0.143165 -0.378839 68 1 84
-0.021549 -0.100890 -0.440799 68 1 84
0.605899 -0.502341 0.094022 68 1 84
-0.522325 -0.340592 -0.016113 68 1 84
-0.621214 -0.401972 0.169361 66 64 133
-0.458323 -0.316628 -0.055554 68 1 84
0.167472 0.042794 -0.245459 35 169 130
-0.533008 -0.548120 -0.005324 68 1 84
-0.458156 0.448623 0.166163 68 1 84
-0.093266 -0.015173 -0.409317 68 1 84
-0.158325 0.268501 -0.256586 64 67 135
-0.662150 -0.283316 0.498220 63 69 135
0.585789 -0.516394 0.047772 68 1 84
-0.637810 -0.288760 0.189470 60 77 138
0.514821 0.420570 0.418802 68 1 84
-0.522695 0.379981 0.423829 68 1 84
0.651493 -0.265181 0.176772 32 143 140
-0.000044 0.285142 -0.302794 64 189 114
-0.139302 0.585226 -0.213961 53 93 140
0.401948 -0.371991 -0.175027 68 1 84
-0.156580 0.515165 -0.235989 48 103 141
0.041954 -0.193237 -0.347750 68 1 84
-0.685715 -0.480680 0.445566 31 162 134
-0.239866 0.347238 -0.180252 61 76 137
0.513066 -0.454921 -0.112854 68 1 84
-0.553353 -0.485950 0.030462 68 1 84
0.622775 0.069852 0.368531 68 1 84
-0.060250 -0.288677 -0.297610 68 1 84
-0.254299 0.516740 -0.123890 68 1 84
-0.191896 0.407208 -0.202627 71 42 121
0.439362 -0.275735 -0.086369 53 93 140
0.058912 0.596470 -0.226690 47 106 141
-0.473932 -0.238950 -0.091258 68 1 84
-0.490638 -0.173466 -0.106399 68 1 84
0.598895 -0.011788 0.161680 55 89 140
0.308550 0.121455 -0.209667 38 127 142
0.365115 -0.528019 -0.269129 68 1 84
-0.616696 -0.027531 0.263235 68 1 84
0.445804 0.202623 -0.062418 65 66 134
0.458928 0.452315 0.236737 68 1 84
-0.525774 0.061628 -0.018560 68 1 84
0.359263 0.546608 0.144231 68 1 84
-0.309370 -0.171292 -0.197312 68 1 84
0.589010 0.192556 0.322878 68 1 84
-0.260816 0.286914 -0.185643 71 24 106
-0.568481 -0.417362 0.044716 68 1 84
-0.572211 0.244033 0.290906 68 1 84
0.501845 0.076918 -0.039680 50 99 141
-0.562700 0.298298 0.448872 68 1 84
-0.239644 0.435396 -0.162656 62 73 137
0.064011 0.245636 -0.281081 154 216 60
0.305079 0.312597 -0.148514 50 99 141
0.556808 0.038039 0.056810 45 110 142
-0.585220 0.227486 0.364123 68 1 84
-0.594681 -0.357218 0.082582 71 20 102
-0.365960 0.058199 -0.197176 68 1 84
-0.311773 -0.153785 -0.203945 68 1 84
-0.612133 0.117081 0.386428 68 1 84
0.244491 0.593529 0.058174 68 1 84
0.538321 0.103188 0.064424 71 40 120
-0.036919 0.392416 -0.247147 50 181 122
0.675090 -0.235844 0.435021 83 197 103
-0.518994 0.311507 0.137420 68 1 84
-0.461831 -0.489613 -0.155886 68 1 84
0.675444 -0.230740 0.402973 54 184 119
-0.080166 -0.459958 -0.328508 68 1 84
0.256295 0.074192 -0.238413 35 168 131
-0.311769 -0.074589 -0.224402 68 1 84
-0.613076 -0.086897 0.160951 68 1 84
-0.624415 0.008320 0.322234 68 1 84
0.122604 0.471917 -0.230074 30 153 138
0.014199 0.614374 -0.223277 42 117 142
0.163893 0.589570 -0.128638 72 25 107
0.517437 0.045319 -0.028686 55 88 140
0.449975 0.244779 -0.029946 71 18 101
-0.006862 0.119970 -0.320437 109 206 88
-0.482219 0.438626 0.314016 68 1 84
0.516812 -0.498338 -0.102018 68 1 84
0.595405 -0.121798 0.053179 37 171 129
-0.290255 -0.428176 -0.245403 68 1 84
-0.515335 0.219590 0.049907 68 1 84
-0.151485 -0.163038 -0.260993 68 1 84
-0.089886 0.148398 -0.319175 35 137 141
-0.572169 0.080012 0.137051 68 1 84
-0.548944 0.295226 0.241027 68 1 84
-0.157297 0.010623 -0.259998 61 75 137
-0.551731 0.303337 0.286360 68 1 84
0.497423 0.325047 0.123430 68 1 84
0.113892 0.425316 -0.224589 33 141 140
0.327742 0.164490 -0.188190 42 118 142
0.625567 -0.238061 0.105624 35 168 131
-0.422401 -0.414535 -0.172505 68 1 84
0.120291 0.325717 -0.236000 39 173 128
0.412445 0.435362 0.063010 68 1 84
0.551850 0.051443 0.055250 50 98 141
-0.324973 -0.547429 -0.274882 68 1 84
0.421517 -0.471173 -0.223235 68 1 84
-0.619467 -0.393803 0.160958 68 55 129
-0.218949 0.315656 -0.204178 61 75 137
0.217747 -0.313290 -0.187106 68 1 84
-0.493209 -0.401393 -0.076892 68 1 84
-0.016166 0.639718 -0.183978 39 124 142
0.606604 0.139764 0.471617 68 1 84
-0.237037 0.012603 -0.243312 68 1 84
-0.607531 -0.077709 0.136887 68 1 84
0.667125 -0.167535 0.410456 32 164 133
-0.369078 -0.257503 -0.147059 68 1 84
0.468923 -0.398280 -0.149213 68 1 84
-0.458053 -0.238807 -0.103301 68 1 84
-0.551247 -0.070462 -0.025929 68 1 84
-0.624990 -0.388447 0.175842 52 95 141
-0.533819 0.356704 0.450721 68 1 84
0.086642 0.341650 -0.242443 77 194 107
-0.371513 0.494116 0.030830 68 1 84
-0.421004 -0.028693 -0.171362 68 1 84
-0.237599 0.046034 -0.240979 68 1 84
0.517155 -0.487303 -0.102500 68 1 84
0.411709 0.418588 0.045618 68 1 84
0.663384 -0.190040 0.277886 41 175 127
0.596587 0.189487 0.394312 68 1 84
-0.001764 0.299012 -0.299834 35 169 130
0.606455 -0.364552 0.074121 61 74 137
-0.545127 0.310091 0.251061 68 1 84
0.383705 -0.210380 -0.153781 55 89 140
