ply
format ascii 1.0
element vertex 1270
property float x
property float y
property float z
property uchar red
property uchar green
property uchar blue
end_header
-0.615342 -0.038855 0.366233 71 15 98
-0.440354 -0.483252 -0.143630 68 1 84
-0.700673 -0.459064 0.483010 30 156 137
0.587851 0.080380 0.448300 57 85 139
0.515921 -0.126486 -0.032631 68 2 85
-0.283120 0.115505 -0.206703 71 15 98
0.336758 0.203559 -0.142742 68 1 84
-0.196635 -0.160546 -0.198561 68 1 84
0.583269 -0.019218 0.126934 72 35 116
0.570460 0.112591 0.502745 54 90 140
-0.612227 -0.173159 0.187305 72 30 112
-0.141211 0.273764 -0.250115 71 40 120
-0.579282 0.256388 0.396486 68 1 84
0.610927 -0.328991 0.193816 44 112 142
0.680566 -0.351736 0.406638 30 158 136
0.112122 -0.321423 -0.332656 68 1 84
0.550688 -0.498719 -0.001771 41 120 142
-0.614557 -0.062215 0.434183 72 30 112
0.109074 -0.252068 -0.378482 68 1 84
-0.604298 0.060313 0.355905 68 1 84
-0.497190 -0.113590 -0.072242 68 1 84
0.607585 -0.128454 0.156604 61 76 137
0.566252 0.190072 0.365126 71 21 103
-0.514910 -0.350026 0.014835 72 33 114
0.156728 -0.207705 -0.244096 68 1 84
0.060405 -0.032535 -0.452091 68 1 84
0.327200 0.226825 -0.146183 68 1 84
0.600429 -0.174602 0.132343 51 97 141
-0.061559 -0.083163 -0.398377 68 1 84
0.023911 -0.532549 -0.269178 68 1 84
-0.512374 0.197186 0.069493 68 1 84
0.558684 -0.104410 0.034379 70 47 124
0.613977 -0.122257 0.577867 30 153 138
-0.528018 -0.346244 0.030980 72 29 111
-0.068832 -0.125548 -0.426051 68 1 84
-0.100793 -0.125441 -0.340589 68 1 84
0.674089 -0.281761 0.515162 59 186 117
0.431096 -0.461276 -0.146858 72 35 116
-0.489009 0.452805 0.296350 68 1 84
-0.199492 -0.246017 -0.175002 68 1 84
0.505609 0.109056 0.024626 68 1 84
-0.154855 0.315368 -0.240666 68 55 129
0.386341 0.512427 0.041022 68 1 84
-0.661923 -0.194485 0.366870 62 72 136
-0.615102 -0.338228 0.200716 66 64 133
0.238554 0.388612 -0.155716 68 1 84
-0.571648 -0.215211 0.063172 68 3 87
-0.139735 -0.187349 -0.218525 68 1 84
-0.304562 0.000520 -0.199694 68 1 84
-0.574928 0.261963 0.354175 68 1 84
-0.363828 0.048980 -0.171649 68 1 84
-0.672097 -0.323853 0.342700 52 95 141
-0.579301 -0.005912 0.183542 71 18 101
-0.650055 -0.194015 0.336921 67 59 131
0.565222 0.109938 0.202823 65 66 134
0.075901 -0.436898 -0.271149 68 1 84
-0.245574 0.425393 -0.160189 52 95 141
-0.325063 -0.450552 -0.195598 68 1 84
0.649891 -0.184559 0.547357 31 147 139
0.231883 0.220657 -0.175805 68 1 84
0.563546 0.208929 0.366360 69 5 88
-0.425815 0.460481 0.036899 68 1 84
-0.668315 -0.344319 0.335036 52 95 141
-0.093549 -0.134811 -0.340766 68 1 84
-0.123810 0.364190 -0.247736 65 66 134
0.409031 0.430241 0.027386 68 1 84
-0.604110 0.010047 0.451479 69 8 91
-0.081696 0.302333 -0.283973 69 53 128
0.017518 -0.196509 -0.464662 68 1 84
0.458109 0.372684 0.081483 72 28 110
-0.585250 -0.465810 0.145017 62 72 136
0.376231 0.523658 0.034643 70 9 92
-0.242198 -0.256087 -0.165742 68 1 84
0.226835 0.204583 -0.202723 68 1 84
-0.503234 -0.007780 -0.043236 68 1 84
0.109791 -0.403155 -0.241958 68 1 84
0.549735 0.038285 0.064814 68 1 84
0.237221 0.662525 0.021034 59 81 138
0.658041 -0.402798 0.423522 51 182 121
0.592401 -0.509160 0.139168 39 125 142
0.277433 0.060791 -0.183526 68 1 84
0.180736 0.594822 -0.188945 60 77 138
-0.693444 -0.473909 0.437187 36 134 141
0.615011 -0.087763 0.240524 48 104 141
0.358957 0.092474 -0.147511 68 1 84
0.208407 -0.469056 -0.213016 68 1 84
-0.418765 0.524896 0.086042 68 1 84
-0.355941 -0.430835 -0.184845 68 1 84
0.530885 -0.053579 -0.010356 69 6 90
-0.109460 -0.201917 -0.243729 68 1 84
-0.633548 -0.106399 0.379909 65 65 134
-0.128091 -0.073658 -0.263921 68 1 84
-0.220767 0.433209 -0.177097 51 97 141
-0.510854 -0.338249 0.012971 72 25 107
-0.006007 -0.068584 -0.395747 68 1 84
-0.556862 0.301532 0.424254 68 1 84
-0.353494 -0.504730 -0.196920 68 1 84
-0.017814 -0.550348 -0.274748 68 1 84
0.619545 -0.343362 0.227897 42 118 142
-0.259542 -0.376795 -0.137435 68 1 84
0.395701 0.288675 -0.061571 71 18 101
0.376487 0.220181 -0.100444 68 1 84
-0.581354 -0.480693 0.131591 65 65 134
-0.232355 -0.437447 -0.187026 68 1 84
0.581811 -0.302426 0.115145 51 96 141
0.158124 0.452417 -0.202939 65 66 134
0.481801 -0.020068 -0.064118 68 1 84
0.551301 -0.488012 -0.003449 44 114 142
0.478064 0.437886 0.338803 71 15 98
0.600292 -0.121820 0.132089 54 91 140
-0.411143 0.424597 -0.012212 70 11 94
0.124189 0.153229 -0.302287 68 1 84
-0.335890 -0.074003 -0.180745 70 14 97
0.147227 -0.525868 -0.258801 68 1 84
0.087616 0.336834 -0.273386 68 1 84
-0.606638 -0.020741 0.525814 67 59 131
0.642961 -0.216024 0.297948 32 144 140
-0.338492 0.118142 -0.177007 68 1 84
0.522138 -0.256800 0.029980 51 97 141
-0.600368 0.119453 0.405302 68 1 84
0.528110 -0.526477 -0.065759 56 87 140
-0.550817 0.111227 0.129459 68 1 84
0.112767 -0.347031 -0.287260 68 1 84
0.377355 -0.396197 -0.137926 70 12 95
0.096057 -0.286116 -0.381279 68 1 84
0.276035 0.191599 -0.189460 68 1 84
0.537509 -0.542983 -0.039347 51 97 141
0.467102 0.440654 0.379783 70 48 125
-0.027569 -0.167758 -0.453846 68 1 84
0.107742 -0.369895 -0.278859 68 1 84
-0.559554 0.287686 0.446451 68 1 84
0.601140 0.038120 0.333064 59 81 138
-0.602101 0.086113 0.384599 68 1 84
0.569598 0.169867 0.365658 71 43 122
0.548329 -0.508660 -0.009701 40 122 142
-0.506298 0.419351 0.343224 68 1 84
0.085980 -0.056024 -0.350638 68 1 84
0.293607 0.379156 -0.112041 71 24 106
0.002426 0.689104 -0.126946 39 126 142
-0.371133 0.119600 -0.155115 68 1 84
0.585235 -0.507556 0.117413 45 111 142
0.598124 0.080227 0.344578 70 48 125
-0.618409 -0.219451 0.197819 69 50 127
-0.181797 0.091541 -0.256510 68 2 85
-0.128364 -0.055272 -0.255462 68 1 84
0.633719 -0.371433 0.278997 40 123 142
-0.008885 0.653924 -0.181363 41 120 142
0.305014 -0.202097 -0.146835 70 11 94
0.581187 0.115505 0.429063 57 84 139
-0.275099 0.557628 -0.126357 60 77 138
0.569647 0.086095 0.203395 68 57 130
0.600544 -0.057720 0.177674 57 84 139
-0.344884 -0.329109 -0.132774 68 1 84
-0.118222 -0.458002 -0.211334 68 1 84
-0.603301 -0.033328 0.285801 72 33 114
-0.415125 0.265429 -0.069406 68 1 84
-0.182759 0.026057 -0.230625 71 21 103
0.493596 -0.300526 -0.001768 54 90 140
-0.600888 0.106250 0.384789 68 1 84
-0.082199 -0.537724 -0.276159 68 1 84
0.547959 0.007953 0.041210 70 12 95
0.471194 -0.220333 -0.048344 66 62 133
0.495940 -0.296725 0.001351 51 97 141
0.546252 -0.448240 -0.018478 54 90 140
-0.695168 -0.364669 0.484343 39 124 142
-0.034818 -0.528842 -0.272675 68 1 84
0.585476 -0.000098 0.585317 44 114 142
0.392826 0.553538 0.136884 68 1 84
0.172313 -0.119999 -0.300266 68 1 84
-0.046865 0.112187 -0.330458 68 1 84
0.177059 -0.431417 -0.181420 68 1 84
0.525310 0.334607 0.311474 68 1 84
-0.204848 0.510009 -0.193262 36 132 141
0.082760 -0.043683 -0.442311 68 1 84
0.207750 0.434467 -0.171731 67 60 132
-0.479985 -0.104388 -0.090458 68 1 84
-0.622241 -0.069283 0.389507 69 53 128
0.650989 -0.138595 0.361416 49 100 141
-0.461013 -0.470377 -0.121405 68 1 84
-0.130477 -0.253701 -0.199426 68 1 84
-0.289037 -0.265988 -0.157193 68 1 84
-0.305067 -0.420351 -0.153296 68 1 84
0.188891 0.268062 -0.195870 71 22 105
0.440945 -0.370344 -0.102336 71 21 103
-0.600726 0.028716 0.482911 69 8 91
0.417929 0.523133 0.314929 71 15 98
0.124412 0.666642 -0.162034 64 68 135
-0.040705 -0.212931 -0.373996 68 1 84
0.530333 0.198585 0.141540 68 1 84
-0.637277 -0.311211 0.275090 66 62 133
0.251440 0.652190 0.015506 61 75 137
0.593722 -0.162562 0.114371 45 110 142
0.462908 -0.338819 -0.042356 66 61 132
-0.595502 -0.147775 0.124699 70 14 97
0.212551 0.603656 -0.146355 61 75 137
-0.572776 -0.250475 0.076268 72 35 116
-0.382054 -0.395770 -0.127556 68 1 84
-0.584862 -0.052696 0.153266 71 18 101
0.606293 -0.016608 0.422120 64 68 135
-0.336335 0.227662 -0.156814 68 1 84
0.310422 0.566885 -0.027239 71 42 121
0.665027 -0.211224 0.499483 31 147 139
-0.619481 -0.148036 0.485719 53 93 140
-0.262645 0.085263 -0.212345 71 18 101
0.010311 -0.099096 -0.502765 68 1 84
0.483795 0.098592 -0.014301 68 1 84
0.304991 -0.354450 -0.117200 72 30 112
-0.418152 -0.270650 -0.095485 71 15 98
0.400363 -0.567333 -0.184741 72 29 111
-0.088421 -0.096272 -0.396447 68 1 84
0.357686 -0.398918 -0.134097 70 14 97
0.552563 0.251526 0.403974 69 6 90
0.445008 0.493339 0.289016 72 28 110
0.201008 0.322911 -0.199091 68 1 84
0.115105 -0.374415 -0.222961 68 1 84
-0.477790 0.031835 -0.064766 68 1 84
-0.555218 0.296390 0.317783 68 1 84
-0.057474 -0.092146 -0.432310 68 1 84
0.649598 -0.181158 0.541988 30 151 138
0.603153 0.018686 0.328714 71 39 119
0.171974 0.085977 -0.256948 68 1 84
0.563370 0.209035 0.364979 68 2 85
-0.347081 0.108609 -0.173163 68 1 84
0.348025 -0.144429 -0.139861 68 2 85
-0.599835 0.059122 0.291407 68 1 84
-0.319732 -0.334940 -0.136735 68 1 84
0.118840 -0.071281 -0.445868 68 1 84
0.437245 0.491362 0.338565 72 28 110
0.609251 -0.084325 0.512190 38 128 142
-0.510552 0.166367 0.054937 68 1 84
0.109824 -0.366874 -0.264860 68 1 84
-0.316763 0.596248 -0.019985 71 40 120
0.551070 0.259011 0.355976 68 1 84
0.145436 -0.079239 -0.405298 68 1 84
-0.447615 -0.092450 -0.118355 68 1 84
0.037181 -0.487666 -0.268122 68 1 84
-0.152279 -0.017263 -0.228839 68 1 84
0.183572 -0.246655 -0.185849 68 1 84
-0.132956 -0.254122 -0.197394 68 1 84
0.147183 -0.242780 -0.245582 68 1 84
0.122598 0.080642 -0.302291 68 1 84
0.549619 -0.516135 -0.005478 44 112 142
-0.565848 -0.166246 0.041689 68 1 84
0.477271 0.426113 0.378805 70 45 124
-0.427905 -0.477783 -0.150702 68 1 84
0.657032 -0.510196 0.400494 71 192 110
0.488034 -0.186399 -0.044591 72 34 115
0.077320 0.042394 -0.325377 68 1 84
0.608301 -0.042878 0.278261 69 54 129
-0.056912 0.050279 -0.319545 68 1 84
0.381714 -0.455581 -0.162997 68 2 85
-0.352206 -0.146927 -0.161134 68 1 84
-0.334389 -0.432206 -0.192786 68 1 84
-0.612135 -0.193535 0.178293 71 39 119
-0.373412 0.027372 -0.166764 68 1 84
-0.377312 0.478387 -0.028229 69 5 88
-0.604183 -0.008524 0.396913 72 29 111
-0.046026 -0.047736 -0.309095 68 1 84
0.578956 -0.074902 0.081205 67 59 131
0.052528 0.453078 -0.245552 44 113 142
-0.077260 0.656594 -0.195891 38 129 142
-0.681437 -0.373699 0.400577 46 107 142
-0.202242 0.451264 -0.189164 46 108 142
0.078554 -0.041312 -0.439687 68 1 84
-0.161711 -0.319605 -0.153198 68 1 84
-0.543568 0.328038 0.281901 68 1 84
-0.576180 0.200020 0.489374 68 1 84
-0.298393 -0.568448 -0.241230 68 1 84
-0.145935 -0.376757 -0.142768 68 1 84
0.608887 -0.005391 0.377119 68 55 129
0.565710 0.081307 0.167327 72 25 107
0.421070 -0.080730 -0.116436 70 11 94
0.051790 -0.377200 -0.332678 68 1 84
0.263004 0.184206 -0.200299 68 1 84
-0.605917 -0.016643 0.304263 72 33 114
0.517743 -0.441430 -0.067231 60 77 138
0.669223 -0.338552 0.371200 30 153 138
-0.398675 0.378551 -0.047346 68 1 84
0.150485 -0.094488 -0.417402 68 1 84
-0.548092 -0.046023 0.021200 68 1 84
0.253171 -0.477394 -0.204048 68 1 84
0.594343 -0.399862 0.146071 38 129 142
0.616073 -0.072966 0.459636 44 112 142
0.237309 0.386891 -0.157210 68 1 84
0.064476 -0.361062 -0.345799 68 1 84
0.465763 0.230131 0.020719 68 1 84
0.519743 -0.471155 -0.080233 67 60 132
-0.603877 -0.027717 0.290254 72 26 108
0.521106 0.346120 0.319362 71 42 121
-0.630333 -0.332715 0.251314 60 78 138
0.009490 0.228312 -0.286577 68 2 85
-0.563671 0.105476 0.171827 68 1 84
0.055586 0.337788 -0.280742 71 20 102
-0.335668 0.575195 -0.005385 71 37 117
-0.556146 -0.538934 0.068990 71 44 123
-0.081358 -0.342475 -0.189725 68 1 84
-0.472557 -0.138877 -0.096708 68 1 84
-0.196467 -0.364934 -0.125022 68 1 84
0.602531 -0.434827 0.172966 32 145 140
-0.549825 -0.523265 0.049893 72 34 115
0.316351 -0.432280 -0.173558 68 1 84
0.347363 0.139755 -0.146101 68 1 84
-0.171466 0.186459 -0.249649 68 1 84
-0.305433 -0.002241 -0.199348 68 1 84
0.042936 0.605036 -0.231002 41 121 142
-0.587408 0.162212 0.473919 68 1 84
-0.670362 -0.260040 0.331120 63 69 135
0.629097 -0.141843 0.259302 40 122 142
0.053432 -0.024331 -0.434178 68 1 84
0.119341 -0.219018 -0.385273 68 1 84
-0.512060 0.397886 0.276649 68 1 84
0.494264 0.357222 0.472460 72 25 107
0.421633 -0.090859 -0.115564 70 9 92
-0.245024 0.332503 -0.172450 65 66 134
0.082480 -0.259594 -0.418339 68 1 84
-0.167856 0.055505 -0.248949 71 17 99
-0.282743 -0.070138 -0.198087 72 25 107
0.473996 0.289730 0.055809 68 1 84
-0.595150 -0.239378 0.120658 71 40 120
-0.510638 -0.178046 -0.045305 68 3 87
0.269371 -0.422224 -0.167728 68 1 84
0.428448 0.528242 0.223020 69 6 90
0.451764 -0.263365 -0.056460 69 52 127
0.604454 -0.008938 0.449507 60 78 138
0.572224 0.055113 0.567852 46 108 142
-0.275386 0.018165 -0.207921 68 1 84
-0.171584 0.380756 -0.217994 64 67 135
-0.505750 0.333812 0.119469 68 1 84
-0.667142 -0.404750 0.364612 46 109 142
0.320062 0.615399 0.083479 71 42 121
-0.416882 -0.493258 -0.164024 68 1 84
-0.587109 -0.381577 0.133828 69 53 128
-0.623393 -0.441510 0.264738 45 111 142
-0.517729 -0.222428 -0.015868 68 1 84
0.275636 0.440450 -0.114492 71 40 120
-0.569133 0.216023 0.264507 68 1 84
-0.471111 -0.286719 -0.037366 68 2 85
-0.195061 0.123648 -0.257099 68 3 87
-0.074876 0.684858 -0.141161 47 106 141
0.052927 0.198086 -0.295293 68 1 84
-0.019575 0.556688 -0.246964 35 137 141
-0.510180 -0.096122 -0.055513 68 1 84
-0.579656 -0.515060 0.123085 57 85 139
0.112367 -0.401980 -0.234304 68 1 84
0.625471 -0.191698 0.217739 43 115 142
0.112429 0.067389 -0.304604 68 1 84
0.108662 -0.004270 -0.303536 68 1 84
0.421371 -0.345072 -0.071080 70 45 124
-0.606904 -0.122638 0.200892 71 18 101
-0.253038 -0.572826 -0.259160 68 1 84
0.362975 0.470162 -0.013190 68 3 87
-0.517367 0.034893 0.000808 68 1 84
0.099613 -0.000080 -0.313172 68 1 84
-0.308530 0.615105 0.015986 72 32 113
0.516762 -0.393506 -0.039982 63 69 135
0.075311 0.489176 -0.245596 43 116 142
0.043132 0.160194 -0.323142 68 1 84
0.423648 0.522438 0.192902 68 1 84
0.541061 -0.185796 0.025252 66 62 133
0.257385 -0.466326 -0.189199 68 1 84
-0.603869 0.056181 0.417692 68 1 84
0.022360 -0.026396 -0.436971 68 1 84
0.514223 0.332562 0.445380 72 33 114
-0.493163 0.177204 0.022469 68 1 84
-0.043624 -0.086241 -0.321050 68 1 84
0.434954 0.403781 0.052701 68 2 85
0.024695 0.207608 -0.292261 68 1 84
-0.074647 -0.013643 -0.300503 68 1 84
-0.449974 0.371712 0.029230 68 1 84
-0.612808 -0.124761 0.244861 71 40 120
-0.187994 -0.158867 -0.202135 68 1 84
0.516093 -0.302851 0.022647 53 93 140
-0.665410 -0.517071 0.340701 38 128 142
-0.244101 -0.400212 -0.139768 68 1 84
0.625270 -0.393778 0.251607 39 126 142
-0.662832 -0.419537 0.358634 47 106 141
-0.284344 0.163433 -0.206258 68 1 84
0.106426 -0.065446 -0.418245 68 1 84
0.645170 -0.177507 0.555191 31 147 139
0.160618 -0.010931 -0.283995 68 1 84
0.620646 -0.142181 0.210292 49 102 141
-0.527400 -0.512131 -0.010940 70 9 92
0.115042 0.397799 -0.238201 70 49 126
0.632440 -0.091556 0.347224 52 95 141
0.062046 -0.088497 -0.507398 68 1 84
0.588183 0.019357 0.513964 42 119 142
0.337557 -0.293953 -0.120960 70 47 124
0.596514 0.096835 0.370556 72 30 112
-0.593113 -0.142423 0.117223 69 5 88
0.480903 -0.247807 -0.027112 61 75 137
-0.522299 0.316034 0.172260 68 1 84
0.487514 0.015251 -0.048567 68 1 84
0.368691 0.045683 -0.148904 68 1 84
0.097518 -0.371583 -0.310844 68 1 84
0.669797 -0.504372 0.516316 233 228 25
-0.239757 -0.288074 -0.158622 68 1 84
0.130586 -0.207997 -0.348206 68 1 84
0.382884 -0.226620 -0.115553 71 24 106
-0.334570 -0.546186 -0.221034 68 1 84
-0.038767 0.097796 -0.331604 68 1 84
-0.558518 0.022479 0.099530 68 1 84
0.231659 -0.216305 -0.168418 68 1 84
-0.674412 -0.251917 0.490916 53 93 140
0.461687 0.446264 0.385159 71 38 118
-0.694973 -0.538363 0.476630 32 164 133
0.345737 0.610504 0.124154 68 1 84
-0.660596 -0.351413 0.302807 52 95 141
0.511011 0.373814 0.329085 72 26 108
-0.010917 -0.386897 -0.289238 68 1 84
0.408676 -0.024727 -0.125367 68 1 84
0.586821 -0.021519 0.143925 66 61 132
0.562245 -0.375799 0.058659 49 102 141
0.237647 -0.381781 -0.117567 71 20 102
-0.413499 0.216091 -0.084833 68 1 84
-0.428598 0.412002 0.010739 68 2 85
-0.604385 -0.059703 0.276629 69 54 129
-0.066844 -0.075808 -0.327285 68 1 84
0.376579 0.003927 -0.147014 68 1 84
0.031360 0.474331 -0.252669 39 124 142
0.604423 0.000060 0.435703 60 78 138
0.451323 0.367915 0.059694 68 1 84
0.330311 -0.138200 -0.147308 70 12 95
0.372311 -0.400275 -0.146822 68 3 87
-0.604832 -0.022675 0.484965 70 48 125
-0.245243 0.628316 -0.073741 66 64 133
0.612428 -0.125256 0.181088 57 85 139
0.077714 0.358440 -0.272111 72 32 113
-0.072905 0.251102 -0.285498 71 15 98
0.497330 0.398549 0.359253 71 17 99
0.126635 -0.004033 -0.288965 68 1 84
-0.557290 -0.463349 0.061506 71 37 117
-0.380560 0.386461 -0.061664 68 1 84
0.414120 0.379515 -0.002467 68 1 84
0.439367 0.513741 0.237856 70 14 97
-0.574359 -0.479533 0.111413 59 81 138
0.607362 0.027142 0.356873 58 82 139
-0.589057 -0.018093 0.229618 71 20 102
0.668529 -0.345066 0.377206 30 157 136
-0.530623 0.100505 0.067553 68 1 84
0.621311 -0.108408 0.265597 52 94 141
-0.078234 -0.151516 -0.354534 68 1 84
-0.611707 -0.032015 0.382119 71 22 105
0.149612 0.420202 -0.213422 59 81 138
-0.610165 -0.085853 0.279744 66 61 132
-0.007585 -0.391988 -0.290223 68 1 84
-0.315120 -0.528616 -0.221722 68 1 84
0.049564 0.287258 -0.298547 70 9 92
0.675383 -0.216404 0.441575 38 127 142
0.564177 0.101213 0.542361 59 80 138
-0.298546 -0.403776 -0.137202 68 1 84
-0.289590 0.165424 -0.203323 68 1 84
-0.610476 -0.231130 0.166797 69 52 127
0.627806 -0.504330 0.238304 31 148 139
0.068927 -0.283232 -0.410012 68 1 84
0.449499 0.479085 0.183133 68 1 84
0.568154 0.171382 0.428043 71 42 121
-0.145909 0.510420 -0.225532 33 141 140
0.678773 -0.246887 0.442170 36 132 141
-0.163495 0.195805 -0.234346 68 1 84
-0.121913 0.639592 -0.213555 38 129 142
-0.067583 -0.466652 -0.246867 68 1 84
-0.683461 -0.408010 0.409279 38 128 142
-0.216240 0.149761 -0.242362 69 6 90
-0.620585 -0.224344 0.206160 67 58 131
-0.486615 -0.405641 -0.052882 68 1 84
0.090641 -0.086708 -0.496788 68 1 84
-0.028859 0.361152 -0.279289 68 57 130
0.035427 -0.129045 -0.504481 68 1 84
0.649242 -0.153195 0.331990 41 120 142
0.222126 -0.153749 -0.184824 68 1 84
0.478326 0.116576 -0.013359 71 37 117
-0.226734 0.132035 -0.237114 70 14 97
0.139503 0.019545 -0.259881 68 1 84
-0.007429 0.315202 -0.293554 72 30 112
-0.563352 0.109920 0.172511 68 1 84
0.113156 -0.068283 -0.416914 68 1 84
0.607969 0.014807 0.389828 60 77 138
0.584962 -0.372586 0.115349 44 114 142
0.617376 -0.076316 0.434615 47 105 141
0.354371 -0.249108 -0.124565 71 44 123
-0.280685 0.542265 -0.125735 52 95 141
-0.084036 -0.159396 -0.312990 68 1 84
-0.367027 -0.505930 -0.193766 68 1 84
-0.046758 0.581867 -0.243161 40 122 142
0.075596 -0.551213 -0.269943 68 1 84
-0.301964 -0.352996 -0.135428 68 1 84
0.455014 0.028965 -0.079303 68 1 84
0.486648 -0.564813 -0.116324 71 42 121
0.618540 -0.131834 0.572934 30 151 138
-0.150280 -0.294994 -0.167166 68 1 84
-0.535405 0.350749 0.327013 68 1 84
0.259938 0.648001 0.027936 71 39 119
0.159667 0.669790 -0.127569 50 99 141
0.123600 -0.305627 -0.248232 68 1 84
0.196958 0.556859 -0.177867 62 72 136
0.498084 -0.429323 -0.083394 65 65 134
-0.516641 0.300037 0.132891 68 1 84
0.573533 -0.152972 0.071137 57 84 139
-0.473431 0.085519 -0.048435 68 1 84
0.514216 0.296672 0.501631 71 40 120
0.648463 -0.445079 0.317051 32 145 140
0.258336 -0.479821 -0.204879 68 1 84
-0.449837 0.480571 0.128962 68 1 84
-0.090369 -0.299689 -0.209174 68 1 84
0.145666 -0.463696 -0.233590 68 1 84
-0.603548 0.040692 0.308157 68 1 84
-0.476293 0.420213 0.146226 68 1 84
-0.610711 -0.047755 0.441256 72 35 116
-0.161677 0.079390 -0.263529 70 14 97
-0.531949 -0.537867 0.004848 71 22 105
0.425437 0.484352 0.115521 68 1 84
-0.346771 -0.455199 -0.188261 68 1 84
-0.464204 0.278173 -0.001164 68 1 84
0.011591 -0.076560 -0.497377 68 1 84
-0.160330 0.190705 -0.246934 68 1 84
-0.567519 0.195060 0.243630 68 1 84
0.200916 0.326669 -0.198811 68 2 85
-0.387743 -0.151887 -0.147171 68 1 84
-0.290287 -0.410624 -0.141468 68 1 84
-0.316411 0.212766 -0.175374 68 1 84
-0.666442 -0.265294 0.321969 62 73 137
-0.314327 0.609170 0.004403 71 38 118
-0.682706 -0.546846 0.406194 30 155 137
0.221561 -0.482872 -0.226378 68 1 84
-0.649513 -0.211034 0.479724 64 67 135
0.462665 0.406513 0.114841 69 8 91
-0.635997 -0.349724 0.260861 58 82 139
-0.593831 0.094421 0.491891 68 1 84
-0.114855 0.213602 -0.242640 68 1 84
0.513233 -0.414086 -0.057235 65 65 134
0.176872 -0.390353 -0.153966 68 1 84
0.030697 -0.176761 -0.481797 68 1 84
-0.367335 -0.508708 -0.194883 68 1 84
-0.634716 -0.108416 0.353665 67 60 132
-0.033939 -0.419114 -0.247991 68 1 84
0.163829 -0.008266 -0.238965 68 1 84
-0.274166 -0.126550 -0.187678 68 1 84
-0.181492 0.430265 -0.202719 47 105 141
0.271168 -0.548990 -0.246539 68 1 84
-0.540514 0.338751 0.361195 68 1 84
-0.310097 0.390919 -0.114355 69 52 127
0.621048 -0.444521 0.219456 32 143 140
-0.620674 -0.380404 0.230232 59 81 138
-0.564497 -0.054447 0.060306 68 1 84
-0.570793 -0.144199 0.052093 71 15 98
0.175673 0.498319 -0.190536 56 86 139
-0.635573 -0.150862 0.426002 68 55 129
-0.454530 0.019118 -0.099548 68 1 84
-0.428810 -0.270079 -0.086891 71 17 99
-0.684094 -0.264596 0.429288 63 69 135
0.553210 0.142732 0.540767 52 95 141
-0.105588 -0.158347 -0.262778 68 1 84
0.497578 0.329312 0.144177 68 1 84
0.383242 0.555644 0.096219 70 45 124
0.398420 -0.568289 -0.185943 72 25 107
-0.686078 -0.302466 0.422311 54 91 140
0.669346 -0.341415 0.374326 30 156 137
0.065424 0.088437 -0.326336 68 1 84
-0.291808 0.285067 -0.150445 68 1 84
0.659488 -0.357024 0.368907 30 156 137
0.121265 -0.434589 -0.230779 68 1 84
-0.038521 0.164919 -0.319296 68 1 84
0.180164 0.505922 -0.186399 46 109 142
-0.415387 0.229167 -0.078675 68 1 84
0.490413 0.133275 0.013719 68 1 84
0.668728 -0.522692 0.492384 151 216 62
-0.357452 0.327831 -0.106923 68 1 84
0.561627 0.158402 0.493429 63 69 135
0.013491 -0.024255 -0.403946 68 1 84
0.005214 0.690180 -0.122841 38 127 142
0.636971 -0.479184 0.284387 33 141 140
-0.131895 -0.087113 -0.244070 68 1 84
-0.406652 0.226722 -0.089423 68 1 84
-0.367638 -0.491478 -0.187594 68 1 84
-0.298740 -0.258511 -0.156649 68 1 84
-0.364694 0.295039 -0.113954 68 1 84
-0.333256 -0.541736 -0.219889 68 1 84
-0.505254 0.416439 0.287328 68 1 84
-0.635139 -0.151017 0.427422 70 48 125
0.217731 0.247628 -0.160995 70 11 94
0.404980 -0.078732 -0.125504 71 39 119
0.481405 0.428739 0.352521 72 28 110
-0.454602 -0.544842 -0.149703 69 5 88
0.494421 0.360398 0.163882 68 1 84
0.314143 -0.260544 -0.134978 72 25 107
-0.633738 -0.378090 0.261325 54 91 140
-0.617312 -0.289884 0.197277 69 53 128
0.560434 -0.195545 0.060981 69 52 127
-0.486624 -0.165045 -0.077543 68 1 84
0.577099 0.034707 0.163389 69 52 127
0.651937 -0.193745 0.553465 30 153 138
-0.564013 0.000617 0.101457 68 1 84
-0.431035 0.139654 -0.088224 68 1 84
0.180283 -0.029023 -0.288832 68 1 84
0.118408 0.569487 -0.230719 50 99 141
-0.560603 0.018628 0.105742 68 1 84
0.660201 -0.292021 0.331183 31 162 134
0.605166 0.009838 0.423001 65 65 134
0.316184 -0.072427 -0.164633 68 1 84
0.651236 -0.402244 0.383006 42 176 126
-0.026701 -0.223731 -0.390420 68 1 84
-0.425586 0.349333 -0.034441 68 1 84
0.590116 0.023519 0.257937 70 45 124
-0.232611 -0.327294 -0.149501 68 1 84
0.514891 0.285066 0.513999 66 64 133
0.285570 -0.435860 -0.172720 68 1 84
-0.607894 -0.007935 0.339008 72 30 112
0.605714 0.058042 0.375577 70 48 125
-0.536232 0.121018 0.094107 68 1 84
0.205758 0.156741 -0.246737 68 1 84
-0.054240 -0.198679 -0.351811 68 1 84
0.130471 -0.071234 -0.320903 68 1 84
0.439397 -0.214314 -0.080116 72 30 112
-0.208264 0.399736 -0.191080 60 77 138
0.085570 -0.002675 -0.330183 68 1 84
0.526762 -0.274664 0.038991 46 109 142
0.596044 -0.039660 0.173124 66 62 133
0.185116 -0.174225 -0.208093 68 1 84
0.322603 0.616842 0.097786 71 18 101
-0.113032 0.654888 -0.196064 33 140 141
0.501077 0.386331 0.375219 70 47 124
-0.501633 0.409178 0.242606 68 1 84
0.279756 -0.326154 -0.126428 72 29 111
0.547577 0.206709 0.223916 68 1 84
-0.342905 0.305081 -0.124207 68 1 84
-0.159010 0.615499 -0.206405 38 127 142
0.499567 0.265770 0.107567 68 1 84
-0.632323 -0.396230 0.268680 46 107 142
0.241593 -0.006846 -0.192286 68 1 84
-0.330352 0.219156 -0.164541 68 1 84
0.556903 0.115415 0.167267 68 1 84
-0.141423 0.335126 -0.245622 70 47 124
-0.658210 -0.259852 0.312255 65 66 134
0.572237 -0.022856 0.082367 71 37 117
0.539208 0.294661 0.394476 71 37 117
-0.587582 -0.426212 0.147231 64 68 135
-0.578114 0.133014 0.240551 68 1 84
0.385633 0.209677 -0.094458 68 1 84
0.181937 0.217353 -0.199469 68 1 84
-0.231262 0.191166 -0.209287 68 1 84
0.244127 -0.137056 -0.177268 68 1 84
0.154073 0.048434 -0.251873 68 1 84
0.628386 -0.134770 0.276568 37 130 142
0.576447 0.111205 0.472478 57 85 139
0.247559 0.607487 -0.086330 45 111 142
-0.670576 -0.489709 0.366669 35 135 141
0.578002 0.011892 0.138327 69 50 127
0.091444 -0.067539 -0.389984 68 1 84
0.594881 -0.048688 0.535794 40 122 142
-0.481340 -0.236757 -0.053623 68 1 84
-0.532199 0.358741 0.299273 68 1 84
0.552845 -0.334798 0.062210 48 103 141
-0.598313 -0.510438 0.167735 55 88 140
0.425796 0.538046 0.244187 68 1 84
-0.692156 -0.353371 0.461255 45 110 142
0.496111 -0.223142 -0.018595 64 67 135
0.503385 0.370456 0.256987 68 1 84
-0.547147 0.123489 0.125269 68 1 84
-0.253773 0.283880 -0.165341 68 1 84
0.573772 0.087484 0.239063 72 34 115
0.378219 0.274379 -0.083345 68 1 84
-0.656132 -0.387692 0.330102 47 106 141
0.632168 -0.431150 0.260414 31 147 139
0.067653 -0.375193 -0.331398 68 1 84
-0.679949 -0.519647 0.393776 33 142 140
-0.086322 -0.054033 -0.321736 68 1 84
-0.683443 -0.256533 0.433330 64 67 135
-0.597494 -0.021707 0.271194 71 24 106
-0.155172 0.110431 -0.277585 71 18 101
-0.212470 0.596703 -0.181198 39 125 142
0.135411 0.341903 -0.249537 68 1 84
-0.593656 0.165940 0.383760 68 1 84
0.621606 -0.256700 0.212291 35 136 141
-0.217084 0.135506 -0.243651 69 5 88
-0.608172 -0.050938 0.292556 70 49 126
0.672595 -0.272870 0.517065 62 188 115
0.493286 0.411791 0.266826 68 1 84
-0.387043 0.207515 -0.115813 68 1 84
-0.308372 -0.057467 -0.192897 69 6 90
-0.589828 -0.305316 0.123945 65 66 134
0.652144 -0.159463 0.453642 33 140 141
-0.587568 -0.002988 0.235028 71 20 102
-0.297020 0.615132 -0.029263 63 71 136
-0.252279 -0.040008 -0.209084 68 1 84
-0.023808 0.584482 -0.236312 41 120 142
0.675316 -0.296201 0.557303 64 189 114
0.057859 0.289843 -0.296569 71 15 98
-0.470242 0.474584 0.269704 68 1 84
-0.465448 0.298405 0.008589 68 1 84
-0.622091 -0.185270 0.236577 72 32 113
-0.236387 -0.320631 -0.150651 68 1 84
0.590991 0.102538 0.404710 67 58 131
0.101239 0.673932 -0.171595 58 82 139
0.517739 0.045403 0.008623 69 5 88
0.669593 -0.506903 0.507810 246 230 31
0.394560 0.560284 0.237666 68 1 84
0.652184 -0.166591 0.331905 41 120 142
-0.665887 -0.489346 0.351241 36 134 141
-0.628151 -0.389664 0.255128 55 89 140
-0.431075 0.445020 0.035274 68 1 84
0.128371 0.472994 -0.216404 46 108 142
-0.540637 0.057532 0.065057 68 1 84
0.323581 -0.499055 -0.208084 68 1 84
0.087329 0.201573 -0.278546 68 1 84
0.638337 -0.247141 0.276201 32 165 133
-0.561104 -0.208756 0.042557 71 24 106
-0.092796 -0.192486 -0.269524 68 1 84
-0.079948 0.622779 -0.232411 40 123 142
0.438905 0.502134 0.201290 70 9 92
0.468751 0.434574 0.170939 68 1 84
0.189602 -0.131029 -0.208704 68 1 84
-0.363161 -0.413640 -0.164476 68 1 84
-0.186079 0.202666 -0.206218 68 1 84
-0.318992 0.247902 -0.157602 68 1 84
0.391256 0.558144 0.158244 72 28 110
0.261711 0.529944 -0.112161 46 109 142
-0.435474 -0.215352 -0.105326 68 1 84
0.114842 0.674308 -0.154318 60 77 138
-0.645095 -0.438196 0.332044 45 111 142
0.484090 0.435975 0.306518 68 1 84
-0.602774 -0.008442 0.492167 72 35 116
-0.575878 0.269497 0.375772 68 1 84
0.230378 -0.449264 -0.181243 68 1 84
-0.020477 -0.339918 -0.303525 68 1 84
-0.087619 -0.131566 -0.371203 68 1 84
-0.696130 -0.368020 0.495997 39 126 142
-0.383719 0.270339 -0.104177 68 1 84
0.516526 0.317535 0.217473 68 1 84
0.515335 0.275047 0.163976 68 1 84
0.290025 0.146772 -0.182982 68 1 84
-0.044104 -0.383136 -0.225077 68 1 84
0.551039 -0.257270 0.066220 56 87 140
-0.586828 -0.060632 0.155732 69 8 91
-0.401386 -0.313809 -0.099813 71 20 102
-0.236107 0.000735 -0.213650 69 6 90
0.623439 -0.202357 0.212137 44 112 142
0.454391 0.371982 0.071665 68 1 84
0.234283 -0.221053 -0.166113 69 5 88
0.396307 -0.066147 -0.131514 69 5 88
-0.413861 0.536845 0.132639 68 1 84
0.597467 0.037013 0.454664 60 78 138
0.296599 0.532475 -0.071802 53 93 140
-0.533468 -0.380594 0.029708 72 26 108
-0.636647 -0.431166 0.306354 45 110 142
-0.615787 -0.068081 0.306250 63 69 135
0.536592 -0.289359 0.050860 49 100 141
-0.029926 0.322273 -0.289995 71 42 121
0.618517 -0.242780 0.199578 39 124 142
-0.587050 -0.214905 0.095870 72 32 113
0.665761 -0.494205 0.454631 100 203 93
-0.499873 0.361594 0.122981 68 1 84
-0.110344 -0.189749 -0.246869 68 1 84
-0.587691 -0.198353 0.095235 72 35 116
-0.588659 0.113643 0.513466 68 1 84
0.168292 0.520856 -0.196219 53 92 140
-0.560271 0.195185 0.220689 68 1 84
0.531820 0.145906 0.109118 68 2 85
-0.657214 -0.487667 0.329420 40 123 142
-0.242107 0.531740 -0.165182 38 128 142
0.117998 -0.320009 -0.277252 68 1 84
-0.481212 -0.550650 -0.120885 71 22 105
0.368137 0.580732 0.109687 71 42 121
0.142423 -0.169763 -0.355865 68 1 84
0.310897 0.451454 -0.083248 72 32 113
-0.019934 -0.304525 -0.332183 68 1 84
-0.402699 0.427994 -0.022264 70 11 94
0.591786 0.006915 0.231269 70 49 126
-0.379088 -0.560860 -0.201383 68 1 84
-0.212573 -0.186983 -0.188819 68 1 84
-0.208954 -0.455506 -0.189672 68 1 84
0.500885 -0.444480 -0.087622 67 59 131
0.143952 0.593370 -0.208124 52 94 141
0.513485 0.263818 0.147584 68 1 84
0.509233 0.379993 0.326947 71 21 103
-0.015724 -0.145267 -0.478577 68 1 84
0.366643 0.134733 -0.133999 68 1 84
-0.250352 0.355198 -0.166759 62 72 136
0.121527 0.213757 -0.248427 68 1 84
-0.248901 0.622585 -0.078202 70 48 125
0.393138 0.021769 -0.135858 68 1 84
-0.145946 -0.278389 -0.177543 68 1 84
-0.616924 -0.349088 0.209739 63 71 136
-0.618136 -0.054131 0.388108 69 52 127
-0.140141 0.094507 -0.282598 68 1 84
-0.558702 0.273272 0.479881 68 1 84
0.616465 -0.172369 0.186915 49 100 141
-0.454563 0.392689 0.047836 68 1 84
0.660389 -0.219001 0.542614 46 178 124
-0.248587 0.287087 -0.168721 67 59 131
0.342048 0.311981 -0.101616 68 1 84
-0.555277 0.188982 0.190700 68 1 84
0.301477 0.526400 -0.067299 63 69 135
0.523652 -0.198775 0.005737 60 77 138
-0.181285 -0.286119 -0.163963 68 1 84
0.106724 -0.198934 -0.437260 68 1 84
-0.127884 -0.409369 -0.166215 68 1 84
-0.006231 0.539638 -0.250901 32 144 140
0.540604 0.205817 0.183000 68 1 84
0.188075 -0.412847 -0.163971 68 1 84
-0.301012 0.558735 -0.073653 70 48 125
-0.461324 0.302781 0.004007 68 1 84
0.648643 -0.359943 0.319277 34 139 141
0.439453 -0.284021 -0.064348 68 55 129
0.472657 -0.564048 -0.129973 71 42 121
0.516576 0.330836 0.439278 71 39 119
0.269970 0.491603 -0.109491 50 98 141
-0.220534 -0.329398 -0.147572 68 1 84
0.433754 0.430449 0.076303 72 29 111
0.007992 -0.253454 -0.411818 68 1 84
0.272336 0.227517 -0.167754 68 1 84
-0.418838 0.470903 0.031047 68 1 84
0.427403 0.314214 -0.014611 68 1 84
0.431973 0.514425 0.203562 68 1 84
0.194781 0.137720 -0.252907 68 1 84
0.281650 0.443433 -0.109577 60 77 138
-0.110678 0.653251 -0.199513 37 131 141
0.154903 0.371999 -0.228173 70 11 94
-0.213070 -0.460383 -0.191222 68 1 84
-0.637825 -0.117557 0.370295 69 54 129
-0.530886 0.299048 0.184237 68 1 84
-0.520230 0.337548 0.193321 68 1 84
0.036295 -0.486400 -0.268186 68 1 84
0.043292 -0.009814 -0.388024 68 1 84
0.125003 -0.293170 -0.259911 68 1 84
0.275885 0.545239 -0.093777 45 110 142
-0.478618 -0.034244 -0.084551 68 1 84
-0.135536 -0.334558 -0.155440 68 1 84
-0.213985 0.196178 -0.207014 68 1 84
0.118971 -0.241615 -0.355348 68 1 84
0.218167 0.317056 -0.183137 68 1 84
-0.277361 -0.206718 -0.170206 68 1 84
0.335649 0.338201 -0.096441 68 1 84
-0.048348 0.084710 -0.329489 68 1 84
-0.274122 -0.277407 -0.157070 68 1 84
-0.525163 -0.097938 -0.034031 68 1 84
-0.597599 0.094774 0.474752 68 1 84
0.590429 0.021358 0.502227 42 118 142
0.649326 -0.207501 0.318105 36 133 141
-0.607364 -0.007080 0.351298 72 32 113
0.678053 -0.293394 0.413411 32 145 140
0.350948 -0.026408 -0.158164 68 1 84
0.535764 -0.034711 0.001673 69 8 91
0.590445 -0.008083 0.546040 38 128 142
-0.531065 -0.400117 0.017490 70 14 97
0.568830 0.095596 0.527211 56 87 140
-0.435739 0.284522 -0.038247 68 1 84
0.397969 0.558504 0.222705 68 1 84
-0.684739 -0.260811 0.422791 63 69 135
0.613118 -0.063951 0.445092 49 102 141
-0.441522 -0.341240 -0.056233 69 5 88
-0.453968 0.284929 -0.013243 68 1 84
0.030934 0.522671 -0.256281 37 131 141
0.546234 -0.022413 0.023090 68 1 84
-0.402380 0.180041 -0.108369 68 1 84
0.524608 -0.531858 -0.071725 57 85 139
0.284680 -0.502843 -0.225792 68 1 84
-0.377749 -0.498904 -0.187035 68 1 84
0.442039 0.440979 0.105987 68 1 84
-0.292209 0.621416 -0.024352 66 64 133
0.285897 0.353676 -0.123019 68 1 84
-0.081471 -0.340067 -0.190784 68 1 84
-0.515707 -0.362295 0.011678 72 33 114
0.094171 0.463604 -0.231309 41 120 142
0.270039 0.596949 -0.064367 59 81 138
0.565921 0.101946 0.197791 67 58 131
0.007871 0.579740 -0.237261 41 120 142
0.485540 0.231941 0.054681 68 1 84
0.320649 0.328931 -0.108069 68 1 84
0.355040 0.174860 -0.132075 68 1 84
-0.379878 0.572248 0.133669 68 1 84
-0.579744 0.056727 0.218918 68 1 84
-0.266337 -0.166111 -0.180666 68 1 84
0.037308 0.507300 -0.257059 38 128 142
-0.379941 -0.414362 -0.163819 68 1 84
-0.160311 0.290903 -0.237739 69 54 129
0.574608 -0.088128 0.068219 71 40 120
-0.248968 0.142317 -0.223735 71 22 105
-0.446106 0.486064 0.118301 68 1 84
0.214474 -0.312866 -0.137692 68 1 84
0.217713 0.310189 -0.183766 68 1 84
-0.422608 0.470308 0.037934 68 1 84
-0.584763 -0.129726 0.091138 69 6 90
-0.423819 -0.561610 -0.172058 71 17 99
0.139709 -0.269588 -0.239129 68 1 84
0.601237 0.008560 0.457581 57 84 139
-0.547823 -0.115943 0.003590 68 1 84
0.297895 -0.217604 -0.146654 70 14 97
-0.027730 -0.349139 -0.268653 68 1 84
-0.521329 0.343065 0.206794 68 1 84
0.416760 0.541019 0.251640 68 1 84
-0.585571 -0.334094 0.121210 63 69 135
-0.269318 0.004025 -0.208751 68 1 84
-0.024229 0.489897 -0.257707 35 135 141
0.302857 0.166042 -0.174075 68 1 84
0.040207 0.011927 -0.349258 68 1 84
0.433710 0.506066 0.305716 72 26 108
-0.596048 -0.316520 0.139698 64 68 135
-0.666654 -0.499685 0.352875 32 144 140
0.154296 -0.145734 -0.356564 68 1 84
-0.313147 0.608035 -0.005483 72 32 113
0.288325 0.437443 -0.105525 61 76 137
0.053578 0.653605 -0.194783 46 107 142
-0.008877 -0.068795 -0.476139 68 1 84
0.248346 0.585861 -0.102447 36 133 141
-0.207068 -0.003643 -0.216902 68 1 84
-0.369205 0.225011 -0.128433 68 1 84
0.537644 0.200316 0.164832 68 1 84
-0.343929 -0.225110 -0.150958 68 1 84
0.515165 0.340989 0.273776 68 1 84
0.468107 0.445728 0.188795 68 1 84
0.435650 0.522795 0.268840 68 1 84
0.174011 0.378604 -0.212679 70 9 92
0.136684 -0.225185 -0.292448 68 1 84
-0.676380 -0.258066 0.516065 49 101 141
0.363218 -0.115117 -0.139407 68 1 84
0.370273 0.583570 0.187163 69 6 90
-0.261205 -0.432819 -0.187880 68 1 84
-0.681154 -0.500902 0.396100 36 134 141
-0.631855 -0.171819 0.516766 56 86 139
-0.572084 0.176742 0.242601 68 1 84
0.638844 -0.484703 0.330931 37 171 129
-0.467879 0.119480 -0.043632 68 1 84
0.480833 -0.399953 -0.095746 72 35 116
0.235111 0.643021 -0.070489 49 101 141
0.425326 -0.470638 -0.152141 71 22 105
-0.003906 -0.060707 -0.373609 68 1 84
-0.557969 0.202352 0.219968 68 1 84
0.557415 -0.354516 0.060082 49 100 141
0.297919 -0.365308 -0.116105 71 39 119
-0.693309 -0.362671 0.467364 40 122 142
0.453076 0.106543 -0.052508 68 1 84
-0.516005 0.318235 0.145943 68 1 84
0.206810 0.158623 -0.245758 68 1 84
-0.002597 -0.375911 -0.310419 68 1 84
-0.341173 0.018429 -0.185544 69 8 91
0.622697 -0.239206 0.211954 35 135 141
-0.479719 0.434295 0.187282 68 1 84
-0.374574 -0.052173 -0.165744 70 12 95
0.031945 -0.330179 -0.376019 68 1 84
-0.685314 -0.509038 0.409604 33 142 140
0.494175 -0.379836 -0.068448 69 50 127
-0.579034 0.258151 0.388691 68 1 84
0.493087 -0.034495 -0.054907 68 1 84
0.133555 -0.329943 -0.194206 68 1 84
-0.136124 0.587887 -0.228763 32 143 140
-0.065485 0.182483 -0.299513 68 1 84
0.611703 -0.034982 0.358510 54 91 140
0.134739 -0.327788 -0.194102 68 1 84
0.404262 0.258729 -0.058441 68 1 84
0.130541 -0.310069 -0.217878 68 1 84
-0.585032 -0.009979 0.210076 70 14 97
-0.297990 0.256561 -0.158889 68 1 84
0.484191 -0.279677 -0.012224 57 84 139
-0.582107 0.107329 0.247527 68 1 84
0.170006 -0.164821 -0.229735 68 1 84
0.617430 -0.424654 0.213521 30 152 138
0.373388 -0.203599 -0.124683 71 21 103
-0.407900 -0.277654 -0.101963 70 11 94
-0.591998 -0.112325 0.129662 69 6 90
-0.588676 -0.497967 0.148106 57 85 139
-0.116493 0.158029 -0.295279 68 1 84
0.040797 0.625345 -0.215505 43 116 142
-0.409750 0.390858 -0.026595 68 1 84
-0.563845 0.150235 0.193853 68 1 84
-0.226637 -0.016365 -0.213796 68 1 84
-0.344396 -0.020791 -0.183207 70 14 97
0.137494 -0.329171 -0.187589 68 1 84
-0.666512 -0.383422 0.352726 50 98 141
0.634588 -0.161624 0.572096 30 153 138
-0.615496 -0.261836 0.184901 68 55 129
0.452297 -0.281896 -0.051744 67 59 131
-0.454655 0.096792 -0.071108 68 1 84
-0.453804 0.392793 0.046499 68 1 84
0.026668 0.518878 -0.256400 36 133 141
0.176032 0.685695 -0.070915 62 72 136
0.198099 -0.515233 -0.251740 68 1 84
-0.407228 0.548124 0.158624 68 1 84
-0.101282 0.491862 -0.240538 35 136 141
0.077276 -0.028765 -0.368418 68 1 84
-0.392135 -0.435121 -0.165152 68 1 84
0.382443 -0.143732 -0.128063 68 1 84
0.202230 0.661595 -0.104010 55 89 140
0.502329 0.293228 0.135602 68 1 84
0.161938 -0.316947 -0.166461 68 2 85
0.566349 0.181112 0.433876 69 50 127
-0.613662 -0.031694 0.334680 71 24 106
-0.513856 0.211220 0.077893 68 1 84
0.582760 0.010131 0.577079 44 114 142
-0.407906 0.008354 -0.143194 68 1 84
-0.067586 -0.186369 -0.320096 68 1 84
-0.634445 -0.162300 0.304648 69 53 128
0.618701 -0.090851 0.283800 45 111 142
0.192608 -0.347920 -0.128082 68 1 84
0.657509 -0.390829 0.407236 53 183 120
-0.294240 0.393115 -0.126834 64 67 135
-0.328419 -0.303582 -0.140747 68 1 84
0.139466 -0.231548 -0.277239 68 1 84
-0.052726 0.591464 -0.240734 40 123 142
0.461919 0.260717 0.023025 68 1 84
0.167135 0.019592 -0.228109 68 1 84
-0.589766 -0.190193 0.100080 72 28 110
-0.599511 0.051723 0.482594 71 17 99
-0.597814 -0.464408 0.181532 62 72 136
0.162333 -0.133589 -0.328944 68 1 84
0.523154 -0.067651 -0.023480 68 1 84
-0.618230 -0.463092 0.242906 49 102 141
0.282934 0.362122 -0.123592 68 1 84
-0.527549 0.366570 0.365247 68 1 84
-0.018399 -0.246881 -0.377327 68 1 84
0.201445 -0.283004 -0.155737 68 1 84
-0.505371 -0.352292 0.003228 72 26 108
-0.638711 -0.295056 0.282518 61 76 137
0.644901 -0.255964 0.301513 39 125 142
-0.137959 0.402647 -0.228043 66 61 132
0.603746 -0.199630 0.146188 46 107 142
-0.030274 0.472022 -0.255519 40 123 142
-0.499511 -0.004340 -0.047569 68 1 84
-0.383785 -0.168197 -0.146010 68 2 85
-0.160850 0.272917 -0.234153 71 24 106
-0.245936 -0.007231 -0.211949 70 11 94
-0.267510 0.029416 -0.208658 68 1 84
0.123274 -0.155774 -0.457567 68 1 84
-0.307112 0.242170 -0.164219 68 3 87
-0.222746 0.319929 -0.188911 61 74 137
-0.389827 -0.030748 -0.157620 70 14 97
-0.022579 -0.446817 -0.258324 68 1 84
-0.589195 0.134905 0.275160 68 1 84
0.419720 -0.030358 -0.117418 68 1 84
-0.661394 -0.366620 0.319467 52 94 141
0.205707 0.629571 -0.135956 59 80 138
0.155479 -0.123031 -0.410510 68 1 84
-0.323121 0.125931 -0.185628 68 3 87
-0.576405 0.050377 0.202219 68 1 84
-0.604363 0.027292 0.449815 71 17 99
0.182434 0.475082 -0.186053 62 72 136
-0.361049 0.169628 -0.150246 68 1 84
0.123760 -0.420946 -0.220400 68 1 84
0.577719 -0.388584 0.092739 45 110 142
0.581506 0.023786 0.549831 39 124 142
0.559418 0.161224 0.228130 69 6 90
0.198253 0.676296 -0.077555 65 65 134
-0.187744 0.369626 -0.209774 67 59 131
-0.066497 -0.201716 -0.308839 68 1 84
-0.322420 0.382834 -0.108507 72 35 116
0.667448 -0.526067 0.470953 124 210 79
0.563913 0.213603 0.376876 68 1 84
0.325621 -0.397074 -0.129504 72 34 115
-0.017649 -0.003370 -0.345254 68 1 84
0.023137 0.690037 -0.124334 40 122 142
-0.594751 0.057632 0.516401 71 15 98
-0.638572 -0.186560 0.513482 58 83 139
0.557418 0.014092 0.065900 70 12 95
-0.344692 0.426148 -0.079441 70 11 94
-0.596004 0.151368 0.353833 68 1 84
0.602943 -0.006017 0.301747 55 89 140
-0.373336 0.160134 -0.141826 68 1 84
-0.586118 0.203752 0.349283 68 1 84
-0.596599 -0.433774 0.175825 60 77 138
-0.661463 -0.542443 0.337257 33 140 141
0.115499 -0.493598 -0.255591 68 1 84
0.475406 0.390945 0.132390 68 1 84
-0.085407 0.669408 -0.176485 36 133 141
-0.210181 0.166168 -0.240980 68 1 84
-0.569829 -0.079546 0.062734 68 1 84
0.564909 -0.075757 0.047359 72 32 113
0.611673 -0.362214 0.201369 49 101 141
0.483843 0.006740 -0.055416 68 1 84
-0.406464 0.095375 -0.130455 68 1 84
-0.599562 0.107038 0.448485 68 1 84
-0.512677 0.300325 0.121206 68 1 84
0.645371 -0.270284 0.300030 36 132 141
-0.123491 -0.103999 -0.269423 68 1 84
0.575215 -0.147370 0.073160 57 84 139
0.665191 -0.492553 0.451354 75 194 108
-0.283322 0.583509 -0.084542 70 48 125
-0.321886 -0.072847 -0.185741 69 8 91
-0.002801 -0.082331 -0.490544 68 1 84
-0.681628 -0.355823 0.399005 44 113 142
-0.471079 -0.115584 -0.099168 68 1 84
0.563186 0.196369 0.435843 71 21 103
-0.681176 -0.241770 0.382616 61 74 137
-0.604953 0.047683 0.326683 68 1 84
0.580934 -0.377180 0.103577 47 106 141
0.450318 -0.324592 -0.042717 66 62 133
-0.362517 0.578902 0.077799 68 1 84
0.080136 -0.043452 -0.462867 68 1 84
0.506047 0.304863 0.156557 68 1 84
0.575853 0.002355 0.117499 72 32 113
0.254348 0.026698 -0.190101 68 1 84
-0.565457 -0.041742 0.072373 68 1 84
0.155649 -0.221168 -0.240669 68 1 84
-0.104227 0.230313 -0.254735 68 1 84
0.177313 -0.315624 -0.156196 68 1 84
0.535269 -0.497788 -0.055524 54 90 140
-0.268080 0.602294 -0.080588 69 50 127
-0.591149 0.158242 0.458031 68 1 84
0.591214 -0.214419 0.120198 47 105 141
0.579238 -0.387859 0.097246 45 111 142
-0.609089 -0.012954 0.337652 72 32 113
0.528262 -0.327274 0.027022 59 80 138
0.108597 0.391293 -0.245166 66 62 133
-0.125488 -0.046039 -0.312188 68 1 84
-0.050854 0.149140 -0.322792 68 1 84
-0.266979 0.082375 -0.210555 71 20 102
0.263091 0.164972 -0.205771 68 1 84
-0.061579 0.170527 -0.310024 68 1 84
0.147544 0.267905 -0.239283 68 1 84
-0.538251 0.342656 0.323836 68 1 84
0.112344 -0.073315 -0.391382 68 1 84
-0.352411 -0.356668 -0.124338 68 1 84
-0.185407 0.148714 -0.262866 68 1 84
0.410659 -0.350215 -0.087279 72 35 116
-0.431567 0.532883 0.173620 68 1 84
0.442496 -0.047421 -0.101867 72 32 113
0.587439 0.056765 0.293860 71 39 119
0.459079 0.146642 -0.026401 68 2 85
0.567099 0.022598 0.102227 71 18 101
-0.610997 -0.082488 0.284297 68 55 129
0.565437 0.157990 0.475790 68 55 129
0.286483 0.387264 -0.115975 71 24 106
-0.429040 0.498809 0.070286 68 1 84
-0.524194 0.055172 0.024619 68 1 84
0.494139 -0.499422 -0.116901 61 75 137
-0.456418 0.490907 0.278567 68 1 84
0.566551 -0.427653 0.044608 51 96 141
0.583026 0.009198 0.590492 46 107 142
0.523630 0.092137 0.046655 68 1 84
-0.595701 -0.070380 0.200382 69 52 127
-0.088344 0.589402 -0.248137 36 134 141
-0.563930 0.267746 0.313028 68 1 84
-0.181359 0.459304 -0.202502 37 131 141
0.472803 -0.435123 -0.111386 71 42 121
0.327304 -0.523788 -0.222344 68 1 84
-0.283603 0.420863 -0.132955 49 100 141
-0.692762 -0.511419 0.440168 30 155 137
0.068102 -0.545640 -0.269560 68 1 84
-0.540038 -0.280615 0.040137 72 26 108
0.603694 -0.263699 0.159225 56 86 139
-0.433219 0.376559 0.001356 68 2 85
0.173413 -0.026354 -0.241021 68 1 84
-0.502463 0.195913 0.046096 68 1 84
0.655676 -0.185249 0.332775 34 138 141
-0.042684 -0.186175 -0.413127 68 1 84
0.152452 0.107175 -0.287048 68 1 84
-0.513433 0.391921 0.372618 68 1 84
-0.330545 -0.195053 -0.159573 68 1 84
0.639301 -0.499234 0.302254 30 155 137
-0.610413 -0.047725 0.446950 70 49 126
-0.100914 -0.117073 -0.359282 68 1 84
-0.275974 0.127124 -0.210946 72 29 111
-0.042183 -0.267784 -0.309102 68 1 84
0.013226 0.201603 -0.299977 69 8 91
0.521090 0.096519 0.044507 68 1 84
-0.553938 0.242399 0.228137 68 1 84
0.073906 0.034593 -0.328370 68 1 84
0.513838 -0.316483 0.014497 58 82 139
-0.688272 -0.326874 0.441336 49 102 141
0.581898 -0.132599 0.084798 59 81 138
0.137567 -0.494004 -0.250653 68 1 84
0.149127 0.006657 -0.255241 68 1 84
-0.486018 0.397134 0.129484 68 1 84
-0.553390 0.027027 0.081965 68 1 84
-0.443517 -0.313115 -0.057918 68 1 84
0.423886 -0.010156 -0.114039 70 14 97
0.194470 0.678134 -0.067183 57 85 139
0.338968 0.364496 -0.083607 68 1 84
-0.519240 0.375010 0.254199 68 1 84
0.525746 -0.218784 0.019287 63 69 135
-0.329388 -0.420282 -0.166593 68 1 84
0.149857 -0.152746 -0.383863 68 1 84
-0.271347 -0.024031 -0.207037 68 1 84
0.572698 -0.205050 0.084061 57 84 139
0.273353 0.397153 -0.125349 71 21 103
-0.107713 0.095974 -0.304316 69 6 90
-0.580203 -0.040140 0.140165 68 1 84
0.483549 -0.557371 -0.121009 71 40 120
-0.100185 -0.016787 -0.295372 68 1 84
0.314015 0.376388 -0.097389 68 1 84
0.056163 -0.194887 -0.475398 68 1 84
0.076582 0.535200 -0.252501 37 130 142
-0.447175 0.077739 -0.087959 68 1 84
-0.590794 -0.008116 0.250546 70 14 97
-0.639285 -0.145626 0.325256 71 42 121
0.366725 0.491775 0.003901 68 1 84
-0.699721 -0.488085 0.473404 32 164 133
-0.326439 -0.059198 -0.186629 69 8 91
0.041238 -0.286430 -0.410538 68 1 84
0.083376 -0.027456 -0.346536 68 1 84
-0.521743 0.393487 0.319884 68 1 84
0.227826 -0.503701 -0.243755 68 1 84
0.346558 -0.049342 -0.157067 68 1 84
0.496919 -0.537845 -0.112578 58 83 139
0.281704 0.640860 0.078103 72 35 116
0.558274 0.209580 0.298822 68 1 84
0.598298 -0.459593 0.160463 31 161 135
-0.565300 0.009991 0.119293 68 1 84
0.319185 -0.346137 -0.116038 66 61 132
0.401118 0.484251 0.046481 70 9 92
0.571200 0.163933 0.345991 64 67 135
0.166808 -0.036216 -0.308951 68 1 84
0.086241 -0.253655 -0.418440 68 1 84
0.679059 -0.385574 0.516901 112 206 86
-0.263837 0.641487 -0.004289 71 18 101
-0.509259 0.280699 0.101947 68 1 84
-0.000082 -0.302066 -0.369746 68 1 84
-0.463758 0.479589 0.200466 68 1 84
-0.405670 0.084002 -0.133882 68 1 84
-0.643454 -0.136593 0.354995 60 78 138
-0.621498 -0.394883 0.239311 58 83 139
0.313935 -0.288500 -0.127372 70 45 124
-0.649157 -0.225721 0.313380 64 68 135
0.588354 -0.364436 0.125693 42 118 142
0.198830 -0.101317 -0.202929 68 1 84
-0.428224 -0.094431 -0.132184 68 1 84
-0.655055 -0.540191 0.318969 32 143 140
-0.433443 0.083082 -0.103562 68 1 84
0.210733 -0.232843 -0.172580 69 6 90
-0.563206 -0.338614 0.079819 70 49 126
0.322547 0.550726 -0.021369 71 18 101
0.510609 -0.549751 -0.089748 65 66 134
0.334391 0.615929 0.126065 68 1 84
0.032569 -0.128685 -0.504392 68 1 84
-0.597017 0.035134 0.519387 71 21 103
-0.307877 0.016497 -0.198911 69 5 88
-0.586755 0.192226 0.439546 68 1 84
-0.302532 0.463548 -0.110459 54 90 140
0.477957 0.427840 0.370751 71 39 119
0.654101 -0.163272 0.441767 42 118 142
0.278492 -0.075418 -0.176455 68 1 84
0.146164 -0.093445 -0.423467 68 1 84
-0.279174 0.508972 -0.131733 50 99 141
0.419694 -0.402432 -0.153107 70 11 94
0.100594 -0.436540 -0.253535 68 1 84
0.443809 0.251308 -0.006310 68 1 84
0.424110 0.185518 -0.060288 68 1 84
-0.165698 -0.459263 -0.193703 68 1 84
-0.594752 0.019109 0.272668 69 5 88
-0.540646 -0.325909 0.048324 70 11 94
-0.120697 -0.294252 -0.183361 68 1 84
0.457548 0.309539 0.030823 68 1 84
-0.190666 0.228237 -0.186694 68 1 84
0.675456 -0.270740 0.394804 31 146 140
0.113240 -0.213647 -0.409177 68 1 84
-0.224236 -0.024350 -0.213718 68 1 84
-0.288230 0.579711 -0.081245 71 44 123
0.628525 -0.085061 0.374104 48 103 141
0.518805 -0.130458 -0.028303 69 5 88
-0.388818 -0.177269 -0.142285 68 1 84
-0.606218 -0.028182 0.504492 67 60 132
0.178405 -0.081392 -0.238150 68 1 84
-0.203441 0.008196 -0.219118 70 9 92
0.169320 -0.143933 -0.233611 68 1 84
0.008304 0.099654 -0.325216 68 1 84
-0.576499 0.016228 0.187206 68 1 84
-0.579384 -0.026321 0.157770 72 35 116
0.440552 0.192474 -0.034276 68 1 84
0.615951 -0.219065 0.186625 36 133 141
-0.004202 0.375399 -0.273669 71 43 122
0.678822 -0.379115 0.529133 105 204 91
-0.351625 0.589714 0.082419 68 1 84
-0.613712 -0.374133 0.203923 64 67 135
-0.062540 0.623137 -0.224079 38 128 142
-0.567695 0.290357 0.391945 68 1 84
0.394400 -0.149864 -0.122592 69 5 88
-0.123091 -0.094044 -0.310635 68 1 84
0.627596 -0.193480 0.224186 44 113 142
-0.333471 0.570531 -0.017620 72 29 111
0.584849 0.001234 0.567717 36 132 141
-0.128021 0.195114 -0.250418 68 1 84
0.144458 0.545281 -0.214500 53 93 140
