ply
format ascii 1.0
element vertex 1256
property float x
property float y
property float z
property uchar red
property uchar green
property uchar blue
end_header
0.148841 -0.213827 -0.248869 68 1 84
0.044614 0.108627 -0.321340 68 1 84
0.600650 -0.496129 0.002517 64 67 135
0.001206 -0.169043 -0.400419 68 1 84
0.248692 0.610067 0.011253 68 1 84
-0.583673 0.045801 0.439169 210 225 27
0.517094 -0.058358 -0.047174 67 58 131
0.481594 -0.214546 -0.108075 68 1 84
0.035231 0.099451 -0.321021 68 1 84
0.660770 -0.290630 0.201232 43 116 142
-0.237578 0.328213 -0.221454 68 1 84
0.136247 0.557775 -0.199844 68 1 84
-0.405189 0.425127 0.026297 69 53 128
-0.387549 0.529576 0.139280 53 92 140
-0.138945 0.123491 -0.296200 68 1 84
-0.519622 -0.152884 0.006079 30 155 137
-0.164154 0.374685 -0.256969 68 1 84
-0.376953 -0.001552 -0.127435 49 100 141
-0.470951 0.436451 0.207826 45 111 142
0.652387 -0.100310 0.466671 50 181 122
0.014962 0.010599 -0.443403 68 1 84
-0.568090 0.055825 0.512929 189 222 38
-0.621231 -0.390486 0.347853 81 196 104
-0.530449 -0.436122 0.094631 31 150 139
0.049250 0.014402 -0.303169 68 1 84
-0.226094 0.233131 -0.216403 68 1 84
-0.614400 -0.583573 0.372842 83 197 103
-0.589921 -0.051273 0.446598 231 228 25
-0.362739 0.553639 0.140431 56 87 140
-0.362904 -0.273831 -0.139287 58 83 139
0.466885 0.299525 0.118734 68 1 84
0.242553 0.115268 -0.210448 68 1 84
0.355675 -0.546746 -0.302613 68 1 84
0.232181 0.361964 -0.186425 68 1 84
0.553047 -0.138745 -0.025862 72 28 110
-0.102170 0.449792 -0.265984 68 1 84
0.485438 -0.446909 -0.161067 71 37 117
0.657576 -0.158460 0.335086 31 150 139
-0.108155 -0.053009 -0.383695 68 1 84
0.607691 -0.127292 0.124350 47 106 141
-0.092654 -0.439430 -0.250963 68 1 84
0.595842 -0.481960 -0.004064 71 44 123
0.030027 -0.067643 -0.439973 68 1 84
0.252375 0.592612 -0.019209 68 1 84
0.212388 0.642297 0.045027 68 1 84
0.315276 0.541837 0.051919 68 1 84
0.554643 0.049723 0.102523 50 99 141
0.398955 -0.417594 -0.190966 64 67 135
-0.595194 -0.223027 0.534786 134 212 73
0.463664 -0.533990 -0.239743 68 1 84
-0.200241 -0.559643 -0.326805 68 1 84
-0.386809 0.157522 -0.104357 68 55 129
-0.452372 -0.591706 -0.156307 71 39 119
0.472560 -0.557241 -0.233031 68 1 84
-0.439773 -0.217237 -0.109652 68 55 129
-0.270644 -0.386775 -0.154392 30 156 137
-0.297573 0.366328 -0.153587 68 1 84
-0.561973 -0.444420 0.189843 75 194 108
-0.384361 -0.545095 -0.215264 40 122 142
0.608631 -0.407311 0.052135 45 110 142
-0.509628 -0.602671 0.047870 40 122 142
0.333781 0.330678 -0.097023 68 1 84
0.602301 0.062605 0.264277 51 96 141
-0.225602 0.471780 -0.199243 68 1 84
-0.451395 -0.115427 -0.089434 72 34 115
-0.029813 0.356582 -0.325158 68 1 84
-0.602030 -0.241355 0.468704 107 205 89
-0.591097 -0.180212 0.543394 116 208 84
0.095755 -0.305339 -0.286838 68 1 84
-0.006452 0.052721 -0.378238 68 1 84
0.159734 -0.172860 -0.241223 68 1 84
-0.529265 0.322891 0.223310 32 144 140
0.280617 0.570643 0.016209 68 1 84
0.406812 -0.097409 -0.152143 68 1 84
-0.455810 0.368626 0.089348 58 82 139
0.464501 0.397407 0.193212 71 43 122
-0.204593 0.563226 -0.206898 68 1 84
-0.166287 -0.049283 -0.209297 51 96 141
0.662478 -0.184533 0.333280 30 153 138
-0.091717 0.054850 -0.295441 68 1 84
-0.565604 -0.390409 0.176171 79 195 105
0.677030 -0.284963 0.277247 50 98 141
0.340121 0.563240 0.213257 69 5 88
0.269516 -0.441444 -0.234099 68 1 84
-0.015963 0.359515 -0.322694 68 1 84
0.653825 -0.110594 0.518473 36 133 141
-0.592687 -0.148205 0.408385 165 218 53
-0.139723 -0.087564 -0.276648 68 1 84
-0.558990 -0.108778 0.155576 30 160 135
-0.538699 0.148737 0.163676 39 125 142
0.009423 0.508575 -0.272660 68 1 84
-0.007692 -0.302404 -0.336438 68 1 84
-0.226004 -0.293845 -0.168252 71 38 118
-0.511886 0.046681 0.050614 46 107 142
-0.557348 -0.470667 0.188401 61 187 116
0.378681 0.526337 0.193589 68 1 84
-0.605047 -0.316580 0.469254 126 210 78
-0.431366 0.338482 0.030710 65 66 134
-0.452525 0.379699 0.089040 63 69 135
-0.449379 -0.239092 -0.096135 62 73 137
0.617215 -0.061901 0.225536 53 93 140
-0.481697 0.429010 0.315608 31 163 134
-0.577990 -0.082130 0.278798 47 179 123
-0.475092 0.363344 0.125084 46 108 142
0.479320 0.426918 0.303321 69 53 128
0.626654 -0.183482 0.149320 57 85 139
0.094545 0.091739 -0.285322 68 1 84
0.122248 0.070362 -0.248779 68 1 84
0.491293 -0.391583 -0.096802 69 8 91
-0.405889 0.249439 -0.071204 62 73 137
-0.056532 -0.235560 -0.320519 68 1 84
-0.020625 0.274959 -0.335354 68 1 84
-0.176304 -0.466096 -0.213912 68 1 84
0.143678 -0.367395 -0.207322 70 47 124
-0.035378 0.175789 -0.347971 68 1 84
0.516805 0.264988 0.184611 68 1 84
0.501898 0.392457 0.440381 60 78 138
0.589869 -0.091862 0.087901 48 103 141
0.530581 0.192456 0.158263 54 91 140
0.526867 0.184141 0.145401 65 66 134
0.182568 -0.393285 -0.192009 68 1 84
-0.098631 -0.126109 -0.306456 69 5 88
0.215499 0.638245 0.017000 68 1 84
0.605307 -0.064152 0.176327 62 73 137
-0.574747 0.154967 0.454755 56 185 118
-0.292486 0.308303 -0.170672 68 1 84
0.208071 0.319007 -0.216398 68 1 84
0.366008 0.387087 0.006024 68 1 84
-0.225055 0.010204 -0.191809 50 98 141
-0.573003 0.031036 0.248250 44 177 125
-0.580225 -0.179956 0.266254 33 167 132
-0.494909 -0.480981 0.019773 44 112 142
0.591060 -0.404361 0.020155 44 114 142
-0.144003 -0.084263 -0.270866 68 1 84
-0.551704 -0.061286 0.131984 35 137 141
0.691789 -0.313251 0.366766 36 132 141
-0.618392 -0.477785 0.367722 81 196 104
-0.116751 0.279690 -0.332930 68 1 84
0.051557 0.019103 -0.368799 68 1 84
0.658308 -0.131459 0.493574 30 152 138
0.121828 0.033087 -0.274722 68 1 84
0.100444 0.273390 -0.296775 68 1 84
-0.489622 0.415251 0.348964 32 144 140
0.595747 0.131426 0.499969 30 153 138
0.665151 -0.163929 0.417701 30 156 137
0.330271 -0.083111 -0.177314 68 1 84
0.208548 -0.441974 -0.281905 63 69 135
0.328311 -0.307570 -0.163255 68 1 84
0.153193 0.653869 -0.070994 68 1 84
-0.139636 0.299610 -0.322122 68 1 84
0.507456 -0.283730 -0.058077 72 29 111
-0.416881 0.482353 0.090882 61 74 137
0.562646 -0.542250 -0.100431 70 47 124
0.438969 -0.312920 -0.107796 68 1 84
0.302635 0.462603 -0.038197 68 1 84
0.725294 -0.473523 0.469810 49 100 141
-0.527235 -0.016837 0.063250 48 103 141
0.428976 0.458071 0.194981 68 1 84
0.508220 -0.375065 -0.069407 68 1 84
-0.265093 -0.551083 -0.298129 72 34 115
-0.369847 0.374864 -0.061682 69 8 91
-0.536254 0.338587 0.286908 31 149 139
0.284698 -0.214990 -0.179861 68 1 84
-0.437078 -0.191498 -0.113924 71 44 123
0.656740 -0.124274 0.500394 31 146 140
-0.352792 0.123411 -0.137721 66 62 133
0.212194 -0.228052 -0.196046 68 1 84
-0.027127 0.051407 -0.359931 68 1 84
0.566009 -0.494240 -0.076748 68 57 130
-0.481038 -0.278129 -0.045458 56 87 140
0.598635 -0.073892 0.137952 47 105 141
0.724101 -0.467411 0.444840 41 120 142
0.515503 -0.204946 -0.080332 68 55 129
0.589518 -0.554931 -0.035023 64 68 135
-0.446370 0.061135 -0.051990 59 81 138
-0.084575 0.507718 -0.268560 68 1 84
-0.055213 -0.298260 -0.287859 68 1 84
-0.071587 -0.387035 -0.225252 68 1 84
0.395873 -0.426887 -0.204235 49 102 141
0.411513 -0.180619 -0.155330 68 1 84
0.172820 0.628774 -0.096547 68 1 84
0.676840 -0.304223 0.265553 46 109 142
0.551247 0.002265 0.058179 70 45 124
0.277765 -0.336341 -0.163847 68 1 84
-0.524726 0.244919 0.161752 35 136 141
-0.100625 -0.066850 -0.386214 68 1 84
0.569413 -0.071018 0.044057 54 90 140
0.614922 0.091742 0.400770 49 102 141
-0.558140 0.127645 0.526767 105 204 91
0.634517 -0.098002 0.261613 39 124 142
0.126858 0.051661 -0.238723 68 1 84
-0.503208 -0.249824 -0.023450 52 94 141
-0.174859 0.292390 -0.294947 68 1 84
0.022526 0.239060 -0.307358 68 1 84
0.545787 0.307804 0.461965 61 76 137
-0.546570 0.298852 0.260062 31 146 140
0.105121 -0.400316 -0.285814 68 1 84
-0.541622 0.253029 0.201304 34 138 141
0.609201 0.121291 0.418895 38 129 142
-0.286116 -0.464225 -0.170067 35 169 130
0.382854 0.216173 -0.083154 70 11 94
-0.528019 0.184031 0.150286 49 101 141
-0.631679 -0.584274 0.422929 81 196 104
0.316747 0.395549 -0.074265 68 1 84
-0.503535 -0.300164 0.002698 45 110 142
-0.481331 -0.284094 -0.041957 58 82 139
-0.277056 -0.541866 -0.279542 60 78 138
0.541948 0.149439 0.147495 71 37 117
0.110482 -0.248694 -0.283622 68 1 84
0.639464 -0.051017 0.524383 55 88 140
-0.273010 0.551461 -0.136359 68 1 84
-0.130939 -0.077568 -0.318194 68 1 84
-0.552879 0.036355 0.158574 38 128 142
0.611536 0.059711 0.314464 47 105 141
0.028763 -0.201868 -0.383001 68 1 84
0.388931 0.500357 0.165453 68 1 84
0.401381 0.278198 -0.029229 68 1 84
-0.150384 0.314933 -0.307849 68 1 84
0.120573 0.507092 -0.220174 68 1 84
-0.232373 0.620834 -0.114897 68 1 84
-0.407783 0.502299 0.102233 65 65 134
-0.132576 0.561533 -0.249143 68 1 84
-0.557230 -0.252243 0.119745 30 151 138
-0.594219 -0.178821 0.514447 228 227 24
-0.584117 -0.281162 0.213781 32 144 140
-0.373544 0.334731 -0.078024 70 48 125
0.082233 -0.297266 -0.312294 68 1 84
-0.589837 -0.053286 0.422210 170 219 50
-0.561363 0.058357 0.193194 31 149 139
0.587709 -0.382461 0.023559 41 121 142
0.392487 0.024423 -0.134446 68 1 84
0.070497 0.639313 -0.201315 68 1 84
-0.495782 -0.610798 -0.007502 52 94 141
0.703928 -0.404932 0.336370 39 124 142
-0.277281 0.169208 -0.213887 72 34 115
-0.454970 0.051345 -0.042409 52 94 141
0.583076 0.229506 0.399854 62 72 136
0.461152 -0.257892 -0.103057 68 2 85
0.150250 0.314558 -0.267994 68 1 84
0.532991 -0.041770 -0.014534 71 42 121
0.368741 0.537698 0.198406 68 3 87
-0.241577 -0.426398 -0.157083 37 131 141
-0.528135 -0.522720 0.096441 32 143 140
-0.618237 -0.367938 0.495397 126 210 78
-0.123628 -0.239469 -0.230877 72 32 113
0.106681 0.289090 -0.302901 68 1 84
-0.006315 -0.182871 -0.392592 68 1 84
0.584064 -0.447139 -0.012833 44 112 142
0.054074 -0.304907 -0.332889 68 1 84
0.646891 -0.080413 0.515053 46 108 142
-0.586676 -0.097453 0.485856 212 225 26
-0.423475 0.497627 0.174472 40 122 142
0.185455 0.651970 0.002790 68 1 84
0.438947 0.209705 -0.007025 68 1 84
0.558339 -0.543418 -0.110863 70 49 126
0.099286 0.393324 -0.263462 68 1 84
0.440935 -0.427892 -0.172040 67 58 131
-0.222824 0.621321 -0.130240 68 1 84
0.580945 0.215368 0.331719 65 66 134
-0.562383 0.214029 0.459020 64 189 114
0.435426 0.015604 -0.104111 68 1 84
0.020339 0.649597 -0.206158 68 1 84
0.593907 -0.478314 -0.006911 71 42 121
-0.553127 0.298251 0.315925 30 157 136
-0.428747 0.190047 -0.052057 53 93 140
0.555425 0.301996 0.346798 57 84 139
-0.548450 -0.279680 0.102236 31 149 139
-0.530264 0.029621 0.086780 48 104 141
-0.482483 0.416884 0.209787 42 117 142
-0.561082 -0.119672 0.164930 30 157 136
-0.029815 -0.291706 -0.328416 68 1 84
0.520118 -0.546481 -0.186708 71 15 98
-0.016839 -0.294085 -0.337110 68 1 84
-0.412190 -0.317219 -0.089704 46 109 142
-0.592155 -0.142123 0.466783 243 229 30
-0.151725 0.259783 -0.305095 68 1 84
-0.559738 -0.081407 0.167565 31 150 139
0.484115 0.420382 0.421036 60 77 138
-0.409587 0.173067 -0.079331 55 89 140
-0.574812 -0.149250 0.246672 38 172 129
-0.183456 0.517121 -0.235920 68 1 84
-0.573397 -0.200030 0.207139 54 184 119
-0.622744 -0.387078 0.501712 126 210 78
-0.603685 -0.319905 0.432860 57 185 118
0.458752 0.416289 0.204442 70 48 125
-0.377375 0.538117 0.115529 64 68 135
0.163138 0.091844 -0.242656 68 1 84
-0.485078 0.426153 0.299227 39 173 128
-0.205558 -0.467321 -0.207246 54 90 140
-0.564737 -0.077377 0.194859 31 163 134
0.509288 -0.442241 -0.132529 68 2 85
0.354973 0.188816 -0.122980 68 1 84
-0.519172 -0.466463 0.068520 35 135 141
-0.618819 -0.370939 0.493874 119 208 82
-0.446065 -0.431287 -0.038804 45 110 142
-0.429944 0.494922 0.243479 41 120 142
0.115817 0.039714 -0.263513 68 1 84
-0.130127 -0.080173 -0.315292 68 1 84
-0.577680 0.173073 0.432635 85 198 102
0.559769 0.259800 0.281453 69 52 127
-0.399259 0.500926 0.068762 69 52 127
-0.583690 0.096089 0.379141 68 190 112
0.369275 -0.455541 -0.239725 69 54 129
-0.606480 -0.341474 0.386480 68 190 112
-0.423458 -0.009383 -0.091518 66 64 133
-0.319167 0.532006 -0.072512 68 1 84
0.628594 -0.051377 0.287628 36 133 141
-0.595140 -0.179357 0.454684 167 219 51
-0.273944 0.527209 -0.144518 68 1 84
-0.590180 -0.180193 0.328010 44 177 125
-0.604623 -0.315111 0.464250 121 209 81
0.631597 -0.165303 0.179913 55 89 140
-0.595502 -0.274785 0.377441 54 184 119
0.119906 -0.084753 -0.313909 68 1 84
0.646494 -0.087803 0.354442 36 132 141
0.238524 0.603261 -0.029538 68 1 84
-0.615528 -0.374972 0.407061 48 180 122
0.610172 0.115763 0.417485 38 128 142
0.301772 0.354951 -0.123398 68 1 84
-0.138627 0.347937 -0.291841 68 1 84
0.186891 0.462397 -0.174379 68 1 84
0.171184 0.320671 -0.247873 68 1 84
-0.430826 -0.464545 -0.085272 34 137 141
0.626609 -0.042735 0.288013 34 139 141
-0.538598 0.252952 0.193654 32 144 140
0.717516 -0.479830 0.368346 47 179 123
0.725380 -0.492775 0.445250 46 109 142
-0.505037 0.253863 0.125621 37 130 142
0.133685 0.102380 -0.262935 69 6 90
-0.426498 -0.599500 -0.195377 61 74 137
0.525387 -0.490047 -0.162242 71 17 99
0.612403 0.051988 0.518614 43 116 142
-0.637772 -0.549776 0.435872 87 198 101
-0.068505 -0.258077 -0.288153 68 1 84
-0.607780 -0.332500 0.454160 96 201 96
-0.521984 -0.127108 0.016109 33 141 140
-0.456936 0.057853 -0.038244 56 86 139
-0.267756 -0.557022 -0.300941 68 2 85
-0.593660 -0.216755 0.411661 103 204 92
-0.124475 0.188650 -0.308865 68 1 84
0.673874 -0.482370 0.172546 31 146 140
0.360558 -0.081511 -0.167614 68 1 84
0.416346 -0.261295 -0.131054 68 1 84
-0.312954 0.555904 -0.061877 68 1 84
0.563939 -0.015194 0.076633 72 30 112
0.446945 0.192770 -0.003594 68 1 84
-0.332155 0.540681 -0.037666 68 1 84
-0.138659 0.094502 -0.281625 68 1 84
0.183468 -0.246641 -0.207449 68 1 84
0.006986 -0.442802 -0.322227 68 1 84
0.605782 -0.211139 0.081359 69 50 127
0.219565 0.637409 0.027339 68 1 84
-0.203402 -0.323900 -0.166209 56 86 139
-0.439143 0.118965 -0.050663 45 111 142
0.141700 0.019750 -0.279109 68 1 84
0.618950 -0.182654 0.126102 66 62 133
-0.573064 -0.239222 0.176694 36 170 130
0.329615 0.230824 -0.137409 68 1 84
0.051002 0.317569 -0.339115 68 1 84
0.372847 0.040611 -0.143123 68 1 84
0.425675 0.063720 -0.094549 68 1 84
-0.414310 -0.492648 -0.135713 34 139 141
-0.601088 -0.303088 0.329948 37 171 129
-0.041977 0.437571 -0.275521 68 1 84
-0.359720 0.107254 -0.131979 69 50 127
0.127332 0.615768 -0.177782 68 1 84
0.543844 0.051217 0.076411 70 47 124
-0.080868 -0.530856 -0.334476 68 1 84
0.672344 -0.200098 0.516879 32 145 140
-0.450296 -0.356261 -0.037419 60 77 138
0.253377 -0.182316 -0.195554 68 1 84
-0.552609 0.139186 0.196294 32 144 140
0.688160 -0.295258 0.431316 40 174 127
0.570547 0.266836 0.392185 52 94 141
-0.607312 -0.511399 0.339981 81 196 104
-0.043971 0.522769 -0.268993 68 1 84
0.373845 -0.178042 -0.168604 68 1 84
0.598154 0.110660 0.513876 34 137 141
0.297215 -0.188497 -0.183749 68 1 84
0.246212 0.622088 0.084635 68 1 84
-0.190720 0.165055 -0.276816 68 1 84
0.604209 -0.335599 0.060909 47 105 141
-0.520836 0.369947 0.276165 31 148 139
0.140577 0.286006 -0.266542 68 1 84
0.614296 0.073912 0.349474 42 117 142
-0.135728 -0.074042 -0.315024 68 1 84
-0.485501 0.038004 -0.000339 52 94 141
0.608214 0.041718 0.274539 42 118 142
-0.337620 0.553432 -0.010684 68 1 84
0.343607 0.003122 -0.164908 68 1 84
-0.422064 -0.035903 -0.097886 62 73 137
0.332034 0.466858 0.013621 68 1 84
-0.098423 0.002630 -0.271336 68 1 84
-0.349541 0.230484 -0.138203 68 2 85
0.110295 -0.419378 -0.296794 72 33 114
0.040344 0.584867 -0.250300 68 1 84
-0.474317 -0.351281 -0.012727 58 82 139
-0.588751 -0.321854 0.219167 34 167 132
0.327069 0.560388 0.123843 68 1 84
0.203855 -0.479851 -0.327750 68 1 84
-0.556132 0.274931 0.273690 34 138 141
0.313902 -0.046381 -0.180095 68 1 84
0.315916 0.189597 -0.159314 68 1 84
0.243832 0.606991 -0.011129 68 1 84
0.601398 0.157426 0.436644 36 132 141
0.568932 -0.549205 -0.084136 71 43 122
-0.446953 -0.242125 -0.097385 60 78 138
0.303685 0.438910 -0.056170 68 1 84
0.267813 0.247020 -0.203358 68 1 84
0.601154 0.005047 0.216875 44 112 142
-0.564268 0.243510 0.428698 112 206 86
-0.534857 -0.419242 0.102109 40 174 127
0.352344 -0.216952 -0.168062 68 1 84
-0.483869 -0.537800 -0.035230 35 136 141
0.206231 0.644142 0.029570 68 1 84
0.023389 -0.512279 -0.342959 68 1 84
0.518509 -0.280725 -0.049412 72 34 115
0.565820 0.278287 0.399912 46 108 142
-0.322808 0.180410 -0.172575 66 61 132
-0.287391 -0.486422 -0.233888 32 164 133
0.696541 -0.344889 0.422252 30 155 137
0.685735 -0.275301 0.436265 53 183 120
-0.137075 0.244059 -0.300337 68 1 84
0.512260 0.066170 0.022704 65 65 134
0.155071 -0.097340 -0.235457 68 1 84
-0.478994 0.385888 0.150845 43 115 142
-0.125855 -0.010355 -0.281081 71 22 105
0.020934 -0.517695 -0.342730 68 1 84
-0.181311 0.510653 -0.237477 68 1 84
-0.587405 -0.127705 0.492141 207 225 28
-0.376294 -0.034978 -0.132250 65 65 134
0.293239 0.515438 -0.012373 68 1 84
-0.329172 0.518657 -0.062673 68 1 84
0.693837 -0.469441 0.249603 71 192 110
-0.466056 0.372180 0.112149 49 102 141
-0.000826 -0.381326 -0.308262 68 1 84
0.027884 -0.075701 -0.438358 68 1 84
0.226813 0.429273 -0.155609 68 1 84
-0.166237 0.366650 -0.260446 68 1 84
-0.363184 -0.136632 -0.152599 71 15 98
-0.545249 -0.326737 0.104554 30 159 136
0.689708 -0.500793 0.226153 32 145 140
-0.367495 0.535757 0.032240 72 26 108
-0.521703 -0.542529 0.077684 34 138 141
-0.574261 0.176908 0.293411 31 150 139
-0.495113 0.412361 0.274633 33 142 140
0.136758 -0.412808 -0.271284 72 32 113
0.512751 -0.104353 -0.074779 64 68 135
-0.412356 0.513187 0.216807 41 121 142
-0.380878 -0.118875 -0.141442 70 49 126
-0.551563 0.303372 0.331988 31 150 139
-0.366014 0.107046 -0.126806 62 73 137
0.530635 0.281695 0.223112 71 20 102
0.628413 0.009528 0.360009 46 109 142
0.302349 0.570486 0.069107 68 1 84
0.725066 -0.476293 0.461229 46 109 142
0.328908 0.571827 0.222850 68 1 84
0.453724 0.330216 0.119624 71 21 103
-0.096289 -0.132493 -0.307448 68 1 84
-0.135024 0.341699 -0.299254 68 1 84
-0.214334 -0.417914 -0.158196 51 97 141
0.648899 -0.220343 0.195492 46 107 142
-0.581871 0.107794 0.427807 109 206 88
0.160322 0.329634 -0.257403 68 1 84
0.129070 -0.425577 -0.293556 72 28 110
0.693440 -0.427584 0.259935 37 130 142
-0.558280 -0.327484 0.139166 31 161 135
-0.270762 0.307060 -0.189800 66 64 133
-0.514059 -0.228753 -0.007275 49 100 141
0.481340 0.427182 0.336308 71 44 123
0.690298 -0.306239 0.377407 39 126 142
0.262135 -0.097649 -0.195031 68 1 84
-0.515618 -0.025057 0.034498 52 94 141
-0.601855 -0.366868 0.300977 38 172 129
-0.127100 0.235074 -0.296693 68 1 84
0.182065 0.563690 -0.148708 68 1 84
0.073889 -0.145367 -0.364461 68 1 84
-0.574741 -0.106841 0.262122 44 177 125
0.609562 -0.180450 0.099305 68 55 129
-0.569808 -0.213443 0.167131 30 157 136
0.209372 0.634475 -0.011198 68 1 84
-0.584279 -0.090142 0.312343 53 183 120
-0.059370 -0.127526 -0.389613 68 1 84
0.186385 -0.391257 -0.185277 68 1 84
-0.597253 -0.266160 0.529100 121 209 81
-0.566725 0.218482 0.275839 31 150 139
-0.284858 -0.171127 -0.180056 71 17 99
-0.171581 -0.139852 -0.207593 68 1 84
-0.025274 0.608647 -0.236420 68 1 84
0.143462 0.529374 -0.198025 68 1 84
0.391537 0.519940 0.233671 72 34 115
-0.085134 -0.215362 -0.281173 68 1 84
0.677683 -0.255714 0.325230 42 119 142
-0.575741 -0.074247 0.264067 39 173 128
-0.235771 -0.144691 -0.189221 68 1 84
-0.322124 -0.213355 -0.167498 68 1 84
0.364642 0.224295 -0.100745 68 1 84
0.084793 0.516454 -0.246996 68 1 84
0.285585 -0.208521 -0.181402 68 1 84
0.065790 0.584731 -0.241788 68 1 84
-0.445916 0.475810 0.208331 48 103 141
0.371790 -0.119590 -0.168317 68 1 84
0.572552 0.175756 0.242743 71 38 118
-0.371827 0.280446 -0.105672 68 1 84
-0.526504 -0.012304 0.063197 48 103 141
-0.514003 0.170298 0.111000 49 101 141
0.383347 0.201011 -0.087949 68 1 84
-0.515574 0.364645 0.413627 30 154 137
0.314959 -0.489904 -0.305678 67 59 131
-0.128832 0.062656 -0.268746 71 22 105
0.717170 -0.459688 0.379200 33 141 140
-0.550148 0.018420 0.145876 47 106 141
-0.529524 -0.070562 0.049551 43 116 142
-0.506227 0.379222 0.228549 31 149 139
-0.153663 0.112605 -0.281161 68 1 84
0.158297 0.307017 -0.258005 68 1 84
-0.563109 0.076446 0.207784 31 146 140
0.578966 0.082793 0.190951 49 100 141
-0.590222 -0.117152 0.361074 109 206 88
-0.290483 0.144448 -0.198171 71 15 98
0.408845 -0.056878 -0.143528 68 1 84
-0.520867 -0.287207 0.033039 39 125 142
0.687569 -0.271170 0.501863 31 150 139
0.612894 0.060208 0.485466 33 141 140
0.006042 -0.065954 -0.447505 68 1 84
-0.350021 0.466461 -0.051256 71 18 101
-0.532462 -0.229786 0.040624 36 134 141
0.322322 0.565454 0.124925 68 1 84
-0.374022 -0.621618 -0.240122 68 1 84
-0.519125 0.170335 0.123784 49 100 141
-0.228714 -0.508273 -0.269555 68 1 84
0.454982 -0.442894 -0.179663 71 39 119
0.133277 0.524295 -0.208413 68 1 84
0.687945 -0.290140 0.444063 43 177 125
0.247948 -0.275534 -0.167558 68 1 84
-0.237928 -0.562084 -0.320971 68 1 84
0.581470 0.233083 0.419810 56 87 140
-0.582031 0.115754 0.351015 68 190 112
0.634766 -0.026173 0.528826 53 93 140
-0.560968 0.143452 0.509318 103 204 92
0.346965 0.554627 0.183060 69 5 88
-0.571489 0.067222 0.494221 225 227 24
-0.324664 0.416938 -0.103537 68 1 84
-0.565313 0.256653 0.393422 69 191 111
-0.539178 0.196355 0.178019 37 130 142
-0.572713 -0.512515 0.280083 105 204 91
0.489324 0.385490 0.233478 58 82 139
-0.578069 0.134577 0.302003 30 159 136
0.668768 -0.340347 0.212253 53 93 140
-0.589186 -0.258331 0.254190 30 156 137
0.423159 -0.230286 -0.137449 68 1 84
-0.485504 0.305152 0.107855 48 104 141
0.550436 -0.146214 -0.032845 72 30 112
0.673791 -0.298014 0.252761 41 120 142
-0.045989 0.393488 -0.284383 68 1 84
0.249470 0.378050 -0.164794 68 1 84
-0.170747 -0.464210 -0.214129 68 1 84
-0.257529 -0.008192 -0.181646 69 52 127
0.025057 0.048176 -0.320506 68 1 84
0.168184 -0.368105 -0.181283 68 1 84
-0.066683 -0.010294 -0.318919 68 1 84
-0.043738 0.119982 -0.326819 68 1 84
0.562632 0.039805 0.117459 62 73 137
0.342855 -0.205717 -0.172665 68 1 84
0.229618 0.631531 0.037256 68 1 84
0.607227 -0.071160 0.177910 63 69 135
0.063744 0.619338 -0.221450 68 1 84
-0.486677 -0.629647 -0.032733 57 85 139
0.523870 0.353378 0.282996 56 87 140
-0.270321 0.569110 -0.126920 68 1 84
0.434055 -0.277552 -0.115177 68 1 84
-0.626296 -0.431702 0.415616 46 178 124
0.464041 0.212404 0.041479 68 1 84
0.022728 0.026128 -0.345301 68 1 84
0.494287 0.409583 0.360700 55 89 140
0.549747 0.297850 0.294901 66 61 132
-0.069243 -0.298348 -0.260846 68 1 84
0.262600 0.375064 -0.153929 68 1 84
-0.244086 -0.521611 -0.277362 67 59 131
-0.402793 0.449836 0.032017 70 45 124
-0.555227 -0.155843 0.113485 31 162 134
-0.561619 0.082529 0.203038 33 140 141
-0.555389 0.280535 0.278369 33 142 140
0.430599 -0.038638 -0.125642 68 1 84
0.091623 0.088619 -0.286210 68 1 84
0.075368 0.066463 -0.288661 68 1 84
-0.471994 -0.083144 -0.057061 67 59 131
-0.096649 0.186703 -0.325853 68 1 84
-0.256997 0.275674 -0.197497 70 12 95
0.093877 -0.174549 -0.322206 68 1 84
0.667215 -0.211629 0.321777 34 138 141
-0.516268 -0.496417 0.059975 32 144 140
0.592262 0.149225 0.307665 47 105 141
-0.541463 0.166991 0.175832 42 118 142
-0.267409 0.441821 -0.161717 68 1 84
-0.071302 -0.178720 -0.326920 68 1 84
-0.207313 0.200401 -0.259832 68 1 84
0.025968 0.489342 -0.270634 68 1 84
0.501182 0.349665 0.219164 71 37 117
-0.198496 -0.055637 -0.192696 36 134 141
0.605450 0.075305 0.295086 58 83 139
0.179826 0.187119 -0.267254 68 1 84
0.608512 0.093819 0.335473 34 137 141
0.681429 -0.250120 0.462226 36 134 141
-0.183592 0.612967 -0.190771 68 1 84
0.649800 -0.182270 0.242319 41 120 142
-0.105473 -0.065569 -0.379792 68 1 84
0.692926 -0.310545 0.483733 31 162 134
-0.584126 -0.157681 0.296621 32 164 133
0.621526 -0.265727 0.106133 57 85 139
-0.394927 -0.407908 -0.080299 48 104 141
-0.106938 -0.095876 -0.335849 68 1 84
0.053272 0.630793 -0.217049 68 1 84
0.491065 -0.508493 -0.217059 68 1 84
-0.488770 -0.510369 -0.004117 35 136 141
0.486626 0.361758 0.202172 71 38 118
0.172969 -0.396117 -0.206028 68 1 84
-0.144670 0.571924 -0.241276 68 1 84
0.694682 -0.336400 0.386771 31 147 139
-0.575112 0.205338 0.315912 33 141 140
0.686534 -0.282864 0.413656 62 188 115
-0.294062 0.351700 -0.161253 68 1 84
-0.351881 0.384075 -0.082467 68 1 84
0.157007 0.454000 -0.203277 68 1 84
0.696561 -0.380859 0.300653 45 110 142
0.248778 -0.436005 -0.222917 70 14 97
-0.044880 0.576412 -0.249708 68 1 84
0.140755 -0.241365 -0.249447 72 34 115
0.118272 0.435713 -0.234752 68 1 84
0.163349 0.389492 -0.229011 68 1 84
-0.463971 0.452485 0.251552 41 121 142
-0.574656 -0.236503 0.189782 33 167 132
-0.356186 0.133419 -0.134656 60 77 138
0.660408 -0.303002 0.194617 49 102 141
-0.604078 -0.330498 0.383371 44 177 125
-0.475495 -0.516977 -0.042214 40 122 142
0.659628 -0.517886 0.136134 53 93 140
-0.406448 0.361291 -0.005244 65 66 134
-0.459182 -0.359366 -0.026976 52 95 141
0.600963 -0.428514 0.028630 49 102 141
0.668896 -0.208253 0.345744 31 147 139
0.032693 -0.393067 -0.317189 68 1 84
-0.044866 -0.156029 -0.383864 68 1 84
-0.525478 0.321137 0.208872 36 134 141
0.685707 -0.276410 0.425029 66 190 113
0.104829 0.207756 -0.308444 68 1 84
-0.568877 -0.275508 0.161719 35 135 141
0.311575 -0.265849 -0.167563 68 1 84
-0.561509 -0.187487 0.135708 33 167 132
-0.214776 0.240708 -0.223706 68 1 84
0.355384 0.552515 0.237869 68 1 84
-0.551307 -0.409642 0.138318 43 177 125
-0.362787 0.317859 -0.102897 70 9 92
-0.261123 0.333036 -0.196875 68 1 84
0.324499 0.432981 -0.027255 68 1 84
0.304718 -0.181091 -0.183772 68 1 84
0.394436 0.518840 0.298127 66 61 132
-0.544786 0.247815 0.480857 100 203 93
-0.622414 -0.400353 0.424329 69 191 111
0.171338 0.160905 -0.266613 68 1 84
-0.046073 -0.121170 -0.406378 68 1 84
0.465650 0.432237 0.248855 72 25 107
0.205157 0.562174 -0.118440 68 1 84
-0.629730 -0.429766 0.450989 131 211 75
0.500397 -0.539376 -0.212015 71 22 105
-0.588994 -0.254389 0.261019 30 160 135
0.011687 -0.398983 -0.312581 68 1 84
0.680841 -0.246589 0.428536 34 138 141
0.444919 -0.321193 -0.102491 68 1 84
0.142846 0.313768 -0.275317 68 1 84
0.497032 -0.109685 -0.094482 68 1 84
0.379649 0.532275 0.257299 72 34 115
0.122333 0.375962 -0.262407 68 1 84
0.047946 0.025699 -0.384287 68 1 84
-0.506585 -0.519393 0.033272 34 137 141
0.297948 -0.104084 -0.186592 68 1 84
0.297466 0.591423 0.173771 68 1 84
-0.420882 -0.588133 -0.200668 54 90 140
-0.541176 -0.616618 0.169013 40 123 142
-0.055596 -0.463557 -0.308247 68 1 84
-0.526719 0.358608 0.278903 38 172 129
0.654042 -0.325063 0.169318 38 127 142
-0.270835 0.564407 -0.130434 68 1 84
0.492832 -0.442666 -0.150700 71 37 117
0.184155 -0.349714 -0.157320 70 49 126
0.666381 -0.177637 0.373882 35 137 141
-0.104682 0.586791 -0.241548 68 1 84
-0.014168 -0.201882 -0.381069 68 1 84
0.637411 -0.485565 0.102568 36 134 141
0.538366 -0.493751 -0.141963 72 29 111
-0.299734 0.593443 -0.017170 68 1 84
0.246037 0.280879 -0.210228 68 1 84
-0.080867 0.093542 -0.315099 68 1 84
0.172126 -0.484273 -0.330933 68 1 84
-0.622306 -0.413859 0.399585 77 194 107
-0.456054 -0.115472 -0.084479 72 29 111
0.496078 -0.259149 -0.077544 71 22 105
-0.426667 0.479808 0.118832 65 65 134
-0.262650 0.544933 -0.153447 68 1 84
-0.000870 -0.261636 -0.359212 68 1 84
-0.567660 -0.107382 0.209390 35 168 131
0.518565 -0.445428 -0.123364 72 28 110
-0.593296 -0.209751 0.406470 109 206 88
0.564101 -0.115512 0.004527 67 58 131
0.317551 0.517129 0.030094 68 1 84
-0.425521 -0.100548 -0.109296 72 30 112
-0.534502 -0.202778 0.041356 35 135 141
0.231247 0.306089 -0.207334 68 1 84
0.319155 0.517411 0.033080 68 1 84
0.469025 0.071502 -0.042835 68 1 84
0.537148 -0.547115 -0.156553 71 38 118
-0.573411 0.125662 0.274173 35 169 130
-0.308066 0.221435 -0.181599 72 35 116
0.504380 -0.321491 -0.051753 71 44 123
-0.128490 -0.174340 -0.238546 68 1 84
0.282119 -0.156383 -0.190466 68 1 84
0.369244 -0.240870 -0.157425 68 1 84
0.433572 -0.333542 -0.113088 71 40 120
-0.540102 0.068323 0.127833 42 117 142
-0.180711 -0.542006 -0.326177 68 1 84
-0.395032 -0.313570 -0.103627 60 78 138
-0.274313 -0.065245 -0.178470 65 65 134
0.342954 0.487566 0.048302 68 1 84
-0.288544 0.212582 -0.197659 69 8 91
-0.405436 0.266483 -0.063281 68 55 129
-0.563972 0.235500 0.437422 85 198 102
-0.122688 0.626168 -0.212548 68 1 84
0.322127 0.508787 0.030780 68 1 84
-0.561907 0.137702 0.226421 31 146 140
0.604989 0.081507 0.526013 32 144 140
-0.081304 0.106408 -0.319397 68 1 84
0.555258 0.297228 0.430809 45 110 142
-0.511927 -0.234845 -0.010302 46 109 142
-0.414725 0.340847 -0.000979 65 66 134
0.052403 0.633470 -0.215154 68 1 84
0.110595 0.672376 -0.093576 68 1 84
0.658670 -0.130291 0.446543 35 169 130
-0.406446 0.517474 0.191996 45 110 142
-0.375658 -0.186600 -0.149994 72 29 111
0.129454 -0.253547 -0.257608 69 5 88
-0.115062 -0.092482 -0.324193 68 1 84
-0.029831 0.336472 -0.343388 68 1 84
0.278773 -0.066542 -0.190829 68 1 84
-0.001748 -0.002857 -0.452873 68 1 84
0.377692 -0.465100 -0.246277 64 67 135
0.586869 0.211166 0.438327 48 104 141
-0.592783 -0.215185 0.383838 96 201 96
-0.578981 0.162501 0.324720 34 167 132
0.031569 0.015120 -0.332885 68 1 84
-0.100140 0.669068 -0.137485 68 1 84
-0.147959 0.379599 -0.262433 68 1 84
-0.605636 -0.359696 0.313863 46 178 124
0.557715 0.144652 0.180359 71 39 119
0.159675 -0.302349 -0.193041 61 75 137
0.400070 0.290125 -0.019627 68 1 84
-0.464514 0.314451 0.073606 49 100 141
-0.028461 -0.126384 -0.414186 68 1 84
0.550745 -0.086092 -0.008078 53 93 140
-0.280985 -0.477768 -0.229211 47 179 123
0.416499 0.486152 0.213946 68 1 84
0.251768 0.038074 -0.196723 68 1 84
-0.561458 0.271505 0.365226 53 183 120
-0.273321 0.601922 -0.072849 68 1 84
-0.460072 -0.320588 -0.045946 49 100 141
0.110017 0.504345 -0.229473 68 1 84
0.539282 -0.087832 -0.029128 40 122 142
-0.475890 0.151504 0.015936 52 94 141
0.201200 0.532787 -0.135409 68 1 84
-0.582034 0.113854 0.338228 75 194 108
-0.076243 0.338067 -0.332426 68 1 84
0.515275 0.370648 0.287667 68 55 129
-0.400762 -0.375077 -0.078861 51 96 141
-0.177198 -0.079375 -0.199019 47 106 141
0.544185 -0.107268 -0.030125 57 84 139
-0.526629 0.059170 0.086976 44 113 142
0.283107 0.338115 -0.152896 68 1 84
-0.250714 0.181121 -0.233036 68 1 84
-0.208929 0.271729 -0.248850 68 1 84
-0.404787 0.175577 -0.084607 61 75 137
-0.536967 0.333568 0.393943 37 171 129
-0.070622 0.327582 -0.339724 68 1 84
-0.519601 0.141457 0.109853 46 108 142
0.240547 -0.453030 -0.287843 60 78 138
-0.161043 0.608342 -0.212847 68 1 84
-0.497383 -0.571582 -0.009840 41 121 142
-0.542422 -0.224526 0.069923 38 128 142
-0.434562 0.474461 0.142512 61 76 137
-0.025906 -0.116636 -0.421437 68 1 84
0.002088 0.061743 -0.328981 68 1 84
-0.392058 -0.183330 -0.141903 70 12 95
0.439103 -0.404088 -0.141500 71 39 119
-0.026535 0.482623 -0.275333 68 1 84
-0.564001 0.236180 0.436591 89 199 100
-0.577050 -0.227824 0.211905 32 144 140
-0.613133 -0.499639 0.353440 85 198 102
0.169075 -0.062910 -0.215535 68 1 84
-0.382144 0.378481 -0.040382 71 24 106
0.145942 -0.404185 -0.247703 70 48 125
0.626048 -0.348688 0.101993 49 102 141
0.138258 0.432096 -0.224988 68 1 84
0.265999 0.593786 0.022490 68 1 84
0.332862 0.565148 0.177990 68 1 84
-0.405469 -0.179153 -0.134732 70 11 94
-0.166152 0.293726 -0.303398 68 1 84
-0.060462 0.028807 -0.393145 68 1 84
0.385182 -0.144860 -0.165788 68 1 84
0.580963 0.190877 0.492229 38 127 142
0.267954 -0.358138 -0.157837 68 1 84
-0.228930 0.023819 -0.194642 55 89 140
-0.029152 0.675872 -0.144980 68 1 84
0.190339 0.650105 0.006850 68 1 84
-0.454641 0.463295 0.287419 33 142 140
0.272653 -0.459927 -0.281158 53 92 140
-0.164917 0.566426 -0.234724 68 1 84
-0.415505 0.255112 -0.052997 71 44 123
0.455022 0.461346 0.350763 64 68 135
-0.442981 -0.029914 -0.076360 64 67 135
-0.111396 -0.318217 -0.191830 66 62 133
-0.550200 -0.508174 0.176081 30 158 136
-0.484008 -0.323963 -0.014935 46 108 142
0.125207 -0.437797 -0.306765 68 1 84
0.636350 -0.016658 0.384503 43 115 142
-0.024759 -0.434268 -0.302477 69 6 90
-0.382891 0.418878 -0.017267 68 57 130
-0.310755 0.077966 -0.165486 64 67 135
0.546798 -0.079332 -0.011643 46 107 142
0.541408 0.068400 0.084579 65 65 134
0.419341 0.407697 0.120768 71 17 99
-0.230071 0.210106 -0.235165 68 1 84
-0.444431 0.110851 -0.044874 51 97 141
-0.441578 -0.125086 -0.100905 71 40 120
0.636012 0.002173 0.418888 50 98 141
-0.565411 0.075468 0.518172 191 223 36
0.363794 0.316105 -0.057549 68 1 84
0.717584 -0.463299 0.379635 31 161 135
-0.554811 0.147420 0.527349 89 199 100
-0.355863 -0.610192 -0.256422 68 1 84
-0.533101 0.343477 0.278253 30 151 138
-0.483951 0.079306 0.007587 52 95 141
-0.566477 -0.405718 0.186323 100 203 93
0.379240 0.433755 0.074476 68 1 84
-0.569673 0.171465 0.269429 30 152 138
-0.605318 -0.328468 0.371467 53 183 120
0.520100 0.250258 0.180380 72 25 107
0.555586 -0.405438 -0.035750 63 69 135
-0.128393 -0.178163 -0.238189 68 1 84
0.112213 -0.312005 -0.253403 68 1 84
0.300084 0.188222 -0.174212 68 1 84
-0.000294 0.231528 -0.316385 68 1 84
0.346387 0.061758 -0.155573 68 1 84
-0.235110 -0.272701 -0.171070 68 1 84
0.337357 0.153551 -0.146512 68 1 84
-0.194484 -0.131903 -0.198948 71 44 123
0.697737 -0.382024 0.305386 46 108 142
0.498582 0.235086 0.130310 71 38 118
-0.082411 0.219080 -0.313038 68 1 84
-0.555361 0.004251 0.162846 38 127 142
0.661581 -0.378007 0.173130 61 75 137
0.526520 0.236665 0.182240 63 69 135
-0.478785 0.217493 0.051863 52 95 141
0.356912 0.546334 0.185163 68 3 87
0.156846 -0.376474 -0.199599 68 1 84
-0.300506 0.595913 -0.003266 68 1 84
-0.323164 0.552475 -0.042891 68 1 84
-0.482276 0.153294 0.027353 53 93 140
0.609750 0.108646 0.449253 36 134 141
-0.577622 0.171651 0.433727 79 195 105
0.045902 0.337808 -0.333296 68 1 84
-0.317830 0.087711 -0.162110 57 85 139
0.515917 -0.532264 -0.195426 72 32 113
-0.134654 -0.190825 -0.230419 68 1 84
-0.506437 -0.228478 -0.023147 49 100 141
0.499672 -0.434446 -0.134896 68 1 84
-0.571006 -0.022603 0.532805 225 227 24
0.464692 0.046796 -0.058848 68 1 84
0.487292 -0.289054 -0.072205 68 1 84
0.071309 0.003882 -0.325025 68 1 84
0.661008 -0.178326 0.332075 30 159 136
-0.505019 -0.294531 0.002428 45 111 142
0.596882 -0.436445 0.017102 47 106 141
0.254991 0.558024 -0.047995 68 1 84
-0.097041 -0.485967 -0.320713 68 1 84
-0.452193 0.233296 -0.000707 63 71 136
0.336201 -0.419734 -0.194857 66 62 133
-0.578029 -0.100406 0.538212 243 229 30
0.620073 -0.432697 0.070593 57 84 139
0.294163 0.593975 0.181439 68 1 84
0.670411 -0.267449 0.253907 40 122 142
-0.561291 0.185346 0.482205 109 206 88
-0.550504 0.157745 0.536835 59 186 117
-0.593470 -0.229448 0.350971 39 173 128
-0.254880 0.098871 -0.208272 61 75 137
0.371509 -0.394748 -0.157246 71 37 117
0.430403 -0.501338 -0.254231 68 1 84
-0.498369 -0.592610 -0.004048 43 116 142
-0.512492 0.147851 0.093307 50 98 141
0.019924 0.010758 -0.441011 68 1 84
-0.511746 -0.347936 0.042062 32 144 140
0.528590 0.318315 0.249848 67 60 132
-0.512646 0.219486 0.129513 42 119 142
0.127388 0.037686 -0.249150 68 1 84
-0.166925 0.056163 -0.235277 68 1 84
0.117183 0.340744 -0.290675 68 1 84
-0.518665 0.291152 0.167958 46 109 142
0.486765 0.241923 0.110580 68 1 84
-0.524078 -0.152678 0.015783 31 150 139
-0.535019 0.099220 0.129192 47 106 141
0.133682 0.144568 -0.282882 68 1 84
-0.260337 0.367492 -0.187406 68 1 84
-0.597167 -0.531252 0.318719 105 204 91
-0.453540 -0.010611 -0.060139 60 77 138
-0.084118 -0.380516 -0.206392 68 1 84
-0.546085 -0.199091 0.077557 33 141 140
0.148785 0.096148 -0.251509 68 2 85
-0.208661 0.522932 -0.215311 68 1 84
0.471353 0.436981 0.292180 66 61 132
0.334508 -0.161296 -0.178886 68 1 84
-0.524207 0.363007 0.358928 30 159 136
0.687138 -0.407828 0.249234 44 113 142
0.131499 0.245885 -0.273143 68 1 84
-0.027558 0.443444 -0.274704 68 1 84
-0.126503 -0.458817 -0.254005 72 32 113
-0.269925 -0.241004 -0.174151 72 35 116
-0.262402 0.388348 -0.179888 68 1 84
0.542228 -0.565219 -0.143316 72 32 113
0.666386 -0.322032 0.207227 39 125 142
0.681095 -0.452620 0.217748 36 134 141
-0.589781 -0.176308 0.326082 41 175 127
0.549010 -0.254548 -0.022658 63 71 136
-0.471112 0.431182 0.193377 48 104 141
0.286238 -0.459230 -0.270914 61 76 137
-0.412359 0.296994 -0.031366 71 44 123
0.619273 -0.337224 0.089394 50 99 141
0.478645 -0.541496 -0.229087 68 1 84
-0.145235 -0.019763 -0.301696 70 12 95
-0.256265 0.395097 -0.183504 68 1 84
0.518337 0.370403 0.309966 69 53 128
-0.288445 0.016617 -0.172958 64 68 135
0.034923 0.270569 -0.325846 68 1 84
0.647115 -0.087602 0.364377 33 141 140
0.670740 -0.455180 0.176335 41 120 142
-0.166244 -0.295352 -0.172731 69 52 127
-0.486077 0.075628 0.010187 53 92 140
-0.501113 0.206943 0.099406 49 102 141
0.283517 0.536101 -0.013652 68 1 84
-0.265392 0.500043 -0.159954 68 1 84
-0.587453 0.007302 0.419783 134 212 73
-0.373877 -0.486864 -0.168706 33 140 141
0.332643 0.059319 -0.164037 68 1 84
-0.484854 0.394537 0.176110 48 103 141
0.191568 -0.442808 -0.293145 61 75 137
0.303949 -0.022438 -0.182511 68 1 84
0.592836 0.040203 0.209772 35 135 141
0.184670 0.648344 -0.016913 68 1 84
0.474563 0.435296 0.310845 71 44 123
0.432791 0.393914 0.132379 68 1 84
-0.572794 -0.238211 0.175085 35 168 131
0.050203 -0.060694 -0.429642 68 1 84
0.701571 -0.369086 0.374361 38 128 142
0.342590 0.369639 -0.054832 68 1 84
0.281327 0.267293 -0.184718 68 1 84
0.487533 0.388123 0.232834 62 73 137
0.647144 -0.382851 0.138663 60 78 138
-0.084974 -0.442967 -0.264646 71 17 99
-0.538997 0.012032 0.104643 46 108 142
-0.256213 0.168779 -0.229777 68 1 84
-0.155072 0.235860 -0.280160 68 1 84
-0.223537 0.204806 -0.243845 68 1 84
-0.511867 -0.089519 0.004913 32 143 140
-0.587745 -0.002697 0.422660 114 207 85
0.087339 0.386853 -0.271911 68 1 84
-0.161830 -0.273469 -0.185764 72 28 110
0.575404 0.042983 0.158509 63 69 135
0.722906 -0.474387 0.422136 40 122 142
-0.512830 -0.325097 0.033543 31 147 139
-0.601369 -0.261711 0.446047 71 192 110
-0.509246 -0.360506 0.042136 33 142 140
0.315746 0.579042 0.191220 68 1 84
-0.501033 -0.384076 0.035362 32 144 140
0.161126 -0.504904 -0.334535 68 1 84
0.651866 -0.351011 0.155597 52 95 141
0.419363 0.494598 0.366203 42 118 142
-0.339651 -0.237758 -0.159065 69 5 88
-0.368555 0.400988 -0.049178 72 30 112
-0.442870 -0.108446 -0.095859 72 33 114
-0.532236 0.014808 0.087263 47 105 141
-0.323525 0.443475 -0.096179 68 1 84
0.509708 0.035809 -0.002859 70 49 126
0.669451 -0.218736 0.328840 43 116 142
0.538215 -0.072799 -0.022810 55 88 140
0.018075 -0.239584 -0.370724 68 1 84
-0.352681 -0.109216 -0.154400 71 39 119
0.298717 -0.379123 -0.159443 66 64 133
0.195200 0.121090 -0.239489 68 1 84
0.072843 -0.456769 -0.331602 68 1 84
0.030175 -0.281324 -0.351299 68 1 84
-0.561417 0.118315 0.216384 35 136 141
-0.569827 -0.024519 0.217442 30 153 138
-0.495215 -0.006186 0.002577 50 98 141
-0.466899 0.001428 -0.039969 51 96 141
0.426422 0.262558 0.002844 68 1 84
-0.568091 0.248221 0.359531 35 168 131
0.145067 0.489947 -0.202536 68 1 84
0.299204 0.405429 -0.090218 68 1 84
-0.339126 -0.036651 -0.153368 63 69 135
-0.556601 0.143639 0.523357 87 198 101
0.279740 0.375277 -0.136338 68 1 84
0.698322 -0.490610 0.266662 34 167 132
-0.520872 0.189261 0.135754 43 115 142
-0.115778 -0.072612 -0.354094 68 1 84
0.160418 -0.056795 -0.221977 68 1 84
-0.019640 0.056502 -0.338808 68 1 84
0.003004 -0.065556 -0.448076 68 1 84
-0.462158 -0.276726 -0.069025 54 90 140
-0.581876 -0.082785 0.300048 73 193 109
0.028565 -0.271941 -0.355551 68 1 84
0.528718 -0.160413 -0.068407 71 17 99
0.084960 0.604940 -0.219681 68 1 84
-0.338292 -0.114959 -0.161073 72 35 116
0.696777 -0.338327 0.484664 41 120 142
-0.641095 -0.570001 0.477915 56 185 118
-0.318523 0.589357 0.046895 68 1 84
-0.091484 -0.118568 -0.336970 68 1 84
-0.478710 -0.577914 -0.078708 46 108 142
0.520119 0.086696 0.053397 69 54 129
-0.155000 -0.102689 -0.216293 63 69 135
0.629175 -0.184594 0.155515 42 119 142
-0.183485 0.427340 -0.230792 68 1 84
0.615826 0.036441 0.511023 39 125 142
-0.410132 0.283416 -0.044171 70 49 126
0.113471 -0.139712 -0.298225 70 48 125
-0.071068 0.577355 -0.247491 68 1 84
-0.577406 0.192853 0.421854 47 179 123
0.156086 -0.299418 -0.199356 60 77 138
0.029552 0.471963 -0.268372 68 1 84
0.372757 -0.364121 -0.150381 68 1 84
-0.380131 0.264305 -0.100926 71 39 119
0.084027 -0.163466 -0.340943 68 1 84
0.544131 -0.014331 0.027408 71 39 119
0.109025 0.348446 -0.290866 68 1 84
-0.580748 0.162978 0.363442 43 177 125
0.091956 0.229830 -0.292168 68 1 84
0.676430 -0.252860 0.317965 42 119 142
0.201468 -0.185543 -0.213166 69 6 90
-0.576449 0.202286 0.417032 51 182 121
-0.543321 -0.003327 0.113107 51 96 141
0.061077 0.550096 -0.256095 68 1 84
0.688606 -0.298974 0.401516 32 165 133
0.152524 0.410122 -0.226004 68 1 84
-0.134477 0.610620 -0.222513 68 1 84
-0.153320 -0.046308 -0.306984 68 1 84
0.386480 0.443778 0.096192 68 1 84
-0.072143 0.113447 -0.323486 68 1 84
-0.332556 0.446915 -0.083081 68 1 84
0.098957 -0.385618 -0.283501 68 3 87
0.134411 -0.124378 -0.265111 69 6 90
0.478250 0.363560 0.189458 69 52 127
-0.121170 -0.017886 -0.339989 68 1 84
-0.491031 -0.173140 -0.052385 56 87 140
0.152125 0.583377 -0.174810 68 1 84
-0.572531 0.203278 0.295262 30 154 137
-0.047102 -0.313024 -0.292630 68 1 84
-0.487413 -0.623899 -0.032284 52 95 141
0.235559 0.005778 -0.200721 68 1 84
0.472207 0.380151 0.191933 67 60 132
0.316303 0.574360 0.148480 68 1 84
0.350930 -0.070814 -0.169644 68 1 84
-0.587544 -0.014833 0.439063 202 224 30
-0.126537 0.324955 -0.317947 68 1 84
-0.145800 0.527828 -0.255278 68 1 84
-0.581655 -0.486829 0.286915 100 203 93
-0.332156 -0.430782 -0.131611 32 145 140
-0.437121 -0.589012 -0.180355 62 72 136
-0.587665 -0.115933 0.329946 79 195 105
0.656477 -0.123198 0.522274 41 120 142
0.657296 -0.431356 0.148516 56 86 139
-0.419616 0.365052 0.023545 65 65 134
-0.057561 -0.427813 -0.273297 68 1 84
0.334519 -0.334947 -0.159719 68 1 84
0.089613 -0.251844 -0.315312 68 1 84
0.422581 -0.458585 -0.217577 71 40 120
-0.143563 -0.084071 -0.272856 68 1 84
0.216729 -0.359841 -0.139158 68 1 84
-0.214339 0.280451 -0.246529 68 1 84
-0.035511 0.141476 -0.336060 68 1 84
-0.589532 -0.256805 0.261116 30 156 137
-0.547779 0.029539 0.138931 46 109 142
-0.368459 0.131370 -0.123816 64 67 135
-0.496114 -0.447768 0.029583 32 145 140
-0.016326 -0.014729 -0.455795 68 1 84
-0.574025 -0.074941 0.563626 151 216 62
-0.445955 -0.521451 -0.112343 46 108 142
-0.121473 0.112979 -0.301062 68 1 84
-0.567500 -0.000022 0.210070 31 147 139
-0.444108 -0.581220 -0.167272 67 58 131
-0.038799 -0.486279 -0.332057 68 1 84
-0.566702 0.066364 0.223459 30 155 137
0.453447 -0.369278 -0.102117 71 18 101
0.651168 -0.108156 0.358376 31 148 139
0.056440 0.669335 -0.162531 68 1 84
0.063683 0.108067 -0.313874 68 1 84
0.088446 -0.314340 -0.296286 68 1 84
0.580467 0.208751 0.474759 44 114 142
0.411818 0.499864 0.243594 71 22 105
0.545948 0.263376 0.241845 70 48 125
0.635387 -0.041140 0.341521 31 147 139
0.101405 -0.203966 -0.304472 68 1 84
-0.528994 0.031332 0.084035 51 97 141
-0.584714 -0.068739 0.485826 253 231 36
-0.565997 -0.232711 0.142290 35 135 141
-0.468213 0.446366 0.284281 32 144 140
-0.114297 0.661205 -0.157537 68 1 84
-0.591209 -0.144471 0.372062 149 215 63
0.581187 -0.448235 -0.019030 52 95 141
0.681376 -0.249755 0.422474 36 133 141
0.607456 0.131437 0.423156 42 117 142
-0.631160 -0.434361 0.475870 199 224 31
-0.457114 -0.377320 -0.022465 47 105 141
0.644997 -0.054712 0.422245 31 161 135
0.618537 0.016385 0.307140 38 128 142
0.694831 -0.324679 0.482476 30 152 138
0.215474 0.147927 -0.235084 68 1 84
0.117352 -0.334752 -0.238683 72 28 110
-0.328303 -0.521046 -0.231252 32 145 140
-0.343656 0.395651 -0.088007 68 1 84
-0.319410 -0.374835 -0.146304 30 154 137
0.671597 -0.433339 0.200014 43 115 142
0.351508 -0.486834 -0.284110 70 49 126
0.010491 -0.381959 -0.312718 68 1 84
0.707246 -0.475416 0.316769 42 176 126
-0.569508 0.208513 0.283549 30 153 138
-0.371492 -0.059187 -0.137893 67 59 131
-0.496231 0.239342 0.102988 42 117 142
-0.139418 -0.027408 -0.330710 68 1 84
0.051141 -0.121949 -0.401925 68 1 84
-0.394566 0.376240 -0.019263 69 53 128
0.227907 -0.410825 -0.177841 68 1 84
0.684843 -0.260961 0.488546 30 157 136
-0.370200 0.464212 -0.020566 68 3 87
-0.191756 0.303894 -0.273889 68 1 84
0.465673 0.410663 0.212306 69 50 127
-0.090679 -0.159939 -0.299465 68 1 84
0.586977 0.172278 0.489403 30 153 138
-0.526730 -0.179713 0.019627 39 124 142
-0.045255 0.541856 -0.262863 68 1 84
0.420492 0.269242 -0.002623 68 1 84
-0.164422 -0.032606 -0.228550 65 65 134
-0.141164 -0.236082 -0.217494 69 5 88
0.646036 -0.334718 0.148766 40 122 142
-0.095486 -0.146140 -0.298397 68 1 84
-0.446169 -0.441640 -0.044895 48 103 141
-0.457287 -0.107284 -0.081062 71 37 117
-0.505077 -0.493919 0.035585 31 163 134
0.320781 -0.291541 -0.164401 68 1 84
0.184482 -0.199974 -0.222357 68 1 84
-0.582002 0.127942 0.372029 36 170 130
0.157318 -0.439554 -0.300291 68 57 130
-0.374607 -0.237767 -0.145200 71 15 98
-0.530450 0.314896 0.465331 56 185 118
0.606712 0.125756 0.383353 51 96 141
0.602775 0.095633 0.500721 38 127 142
-0.545205 -0.494809 0.151862 30 156 137
-0.324824 -0.102440 -0.165097 70 48 125
0.310495 0.571221 0.096507 68 1 84
0.127608 0.417899 -0.237538 68 1 84
-0.588018 -0.007917 0.398587 149 215 63
-0.199430 0.631887 -0.144843 68 1 84
0.185412 -0.501309 -0.332436 68 1 84
-0.593041 -0.334387 0.233947 30 151 138
-0.118412 0.199318 -0.301514 68 1 84
-0.168935 0.375341 -0.253423 68 1 84
-0.344647 0.385936 -0.091745 68 1 84
-0.571960 -0.054394 0.564995 154 216 60
0.553016 0.306800 0.342383 54 91 140
0.196393 0.462963 -0.164163 68 1 84
0.215944 -0.298404 -0.163218 68 1 84
0.518593 0.255675 0.181372 68 1 84
-0.567770 0.059375 0.513112 194 223 34
-0.559077 -0.025947 0.174143 30 152 138
0.180082 0.600333 -0.127211 68 1 84
-0.115637 -0.043044 -0.375200 68 1 84
0.050848 -0.021834 -0.432796 68 1 84
0.025654 0.356977 -0.321474 68 1 84
-0.512544 0.388410 0.300910 30 160 135
-0.523957 -0.065294 0.037796 47 106 141
-0.550500 0.232201 0.476361 96 201 96
-0.166091 0.321475 -0.291227 68 1 84
-0.364151 0.197502 -0.124053 71 44 123
-0.221927 -0.288228 -0.169365 71 21 103
0.328411 0.164166 -0.152174 68 1 84
0.365265 0.407698 0.025808 68 1 84
0.352598 0.481807 0.061182 68 1 84
-0.499154 -0.559773 -0.001369 39 126 142
-0.292120 -0.385994 -0.153277 36 170 130
-0.558418 0.049615 0.179355 32 145 140
-0.059585 0.446265 -0.273695 68 1 84
-0.026901 0.286338 -0.341681 68 1 84
-0.585542 -0.111135 0.316467 64 189 114
-0.479765 -0.374243 0.003836 55 88 140
0.382233 -0.497400 -0.278819 72 35 116
-0.570104 0.236716 0.310124 30 152 138
0.036120 -0.493257 -0.345929 68 1 84
-0.191193 0.574946 -0.212298 68 1 84
0.090197 0.229878 -0.292188 68 1 84
0.083009 -0.128095 -0.359271 68 1 84
-0.590301 -0.223246 0.307527 37 171 129
0.000328 0.629004 -0.226103 68 1 84
0.232055 -0.433881 -0.236465 69 52 127
0.463449 0.447523 0.398164 43 115 142
-0.199809 -0.109499 -0.196835 68 1 84
-0.600664 -0.300312 0.329681 43 177 125
0.539392 0.328670 0.305980 69 54 129
-0.185984 0.184908 -0.279108 68 1 84
0.275661 0.549658 -0.017573 68 1 84
0.022608 -0.095473 -0.432224 68 1 84
-0.555947 -0.207901 0.110792 31 162 134
0.508154 -0.449827 -0.142241 68 1 84
0.345984 -0.061126 -0.170398 68 1 84
0.229827 -0.064701 -0.201374 68 1 84
-0.506235 0.307667 0.152379 46 108 142
0.004731 0.530233 -0.269156 68 1 84
0.409871 0.155776 -0.074803 68 1 84
0.382173 -0.250835 -0.150478 68 1 84
0.214395 -0.342400 -0.145118 71 18 101
0.569547 -0.394266 -0.009070 59 80 138
-0.299393 0.107541 -0.179102 72 28 110
-0.390853 0.051514 -0.110360 71 43 122
-0.273570 -0.184671 -0.181909 70 9 92
0.542428 0.332191 0.365936 53 92 140
0.512388 -0.281308 -0.054605 71 39 119
0.572361 -0.020457 0.096454 69 54 129
-0.263670 0.515738 -0.160321 68 1 84
0.291535 -0.298848 -0.166422 68 1 84
0.454375 0.396503 0.174097 67 60 132
-0.520827 -0.507849 0.071341 32 143 140
0.160715 0.401532 -0.224434 68 1 84
0.046206 0.023954 -0.300325 68 1 84
0.593227 -0.006798 0.183392 49 100 141
-0.598802 -0.202661 0.497568 189 222 38
0.630424 -0.393916 0.104217 57 85 139
0.207031 -0.192030 -0.210048 69 8 91
0.222913 -0.053822 -0.202475 68 1 84
0.667765 -0.227734 0.288714 38 128 142
0.419750 0.493654 0.258065 70 14 97
-0.070821 -0.403288 -0.235841 70 14 97
0.529093 0.169493 0.138046 71 40 120
-0.049044 -0.395812 -0.265569 68 1 84
0.703256 -0.358972 0.474174 30 153 138
-0.071637 0.363471 -0.307706 68 1 84
-0.462418 0.393480 0.117271 66 64 133
0.447519 0.207952 0.007285 68 1 84
-0.186967 0.555698 -0.224646 68 1 84
0.475196 -0.447018 -0.169859 71 40 120
-0.041680 0.201285 -0.341661 68 1 84
0.208148 -0.240421 -0.192537 68 1 84
0.183451 0.380704 -0.218321 68 1 84
