ply
format ascii 1.0
element vertex 1289
property float x
property float y
property float z
property uchar red
property uchar green
property uchar blue
end_header
0.552455 0.251532 0.435478 68 1 84
0.516887 -0.513036 0.020134 68 1 84
0.506313 0.323095 0.380542 68 1 84
-0.094567 -0.193116 -0.233511 42 119 142
0.137023 -0.024394 -0.291937 68 1 84
0.380254 0.167280 -0.098457 68 1 84
-0.106193 0.206108 -0.243364 68 1 84
-0.109056 0.305695 -0.217097 68 1 84
-0.587839 -0.221671 0.079099 68 1 84
0.153536 -0.190993 -0.219283 51 96 141
-0.297776 0.518387 0.082939 46 109 142
0.647658 -0.276151 0.515649 68 1 84
-0.612696 -0.461239 0.184152 68 1 84
0.366248 0.514218 0.164250 63 69 135
-0.698537 -0.424958 0.449473 68 1 84
0.477977 -0.445589 -0.061357 68 1 84
-0.210351 0.346180 -0.136118 68 1 84
0.372166 0.388852 -0.018590 68 1 84
0.134486 -0.229969 -0.216532 48 104 141
0.626250 -0.404635 0.258956 68 1 84
0.163257 0.596657 -0.181740 68 1 84
-0.259398 0.508600 -0.011788 53 93 140
-0.035607 -0.469934 -0.278914 83 197 103
-0.585275 -0.514236 0.104732 68 1 84
-0.509803 0.085527 -0.009643 68 1 84
0.149208 -0.264188 -0.164658 57 84 139
0.426042 -0.202530 -0.070558 68 1 84
0.458275 -0.374924 -0.071997 68 1 84
0.135807 -0.430469 -0.216585 33 141 140
0.301418 -0.130259 -0.155939 68 1 84
0.256850 -0.331719 -0.121851 67 59 131
-0.444499 0.047668 -0.103854 68 1 84
-0.064345 0.495612 -0.208060 68 1 84
0.091713 0.145762 -0.276748 68 1 84
0.066540 -0.409597 -0.259060 37 130 142
-0.528384 0.296205 0.419198 68 1 84
0.430507 0.415624 0.067125 68 1 84
0.444965 -0.052414 -0.115709 68 1 84
-0.638071 0.136171 0.340791 68 1 84
-0.265893 0.194518 -0.155026 68 1 84
0.228255 0.440670 -0.175630 68 1 84
0.148885 0.064364 -0.215784 68 1 84
-0.683236 -0.090634 0.501753 68 1 84
0.647520 -0.367989 0.294817 68 1 84
-0.055276 -0.345440 -0.233906 87 198 101
0.228646 -0.465127 -0.212134 60 77 138
-0.389815 -0.353094 -0.163634 68 1 84
0.625976 -0.345481 0.239392 68 1 84
-0.112624 0.564395 -0.168020 68 1 84
-0.621919 0.020864 0.206955 68 1 84
0.615852 0.085161 0.452920 68 1 84
-0.115875 0.027198 -0.198538 68 1 84
-0.216635 0.342937 -0.131418 68 1 84
-0.226564 0.361075 -0.121019 68 1 84
0.252850 0.249998 -0.151270 68 1 84
0.176894 -0.236115 -0.162197 34 167 132
0.606280 0.085371 0.507683 68 1 84
-0.516833 0.274069 0.097717 68 1 84
-0.564499 0.229475 0.170065 68 1 84
-0.459147 0.004241 -0.097498 68 1 84
0.572141 0.192829 0.488736 68 1 84
0.398946 0.483954 0.137419 68 1 84
0.462791 -0.155617 -0.062587 68 1 84
0.375324 0.079806 -0.136622 68 1 84
-0.289366 0.490926 0.001116 69 52 127
0.640540 -0.055668 0.504079 68 1 84
-0.680556 -0.055729 0.515261 68 1 84
-0.310171 0.248884 -0.116446 68 1 84
-0.630870 0.025430 0.231996 68 1 84
-0.567223 0.251700 0.306604 68 1 84
-0.191339 0.269079 -0.150764 68 1 84
-0.458383 0.189823 -0.037987 68 1 84
-0.138760 0.072864 -0.209107 68 1 84
0.145311 0.283276 -0.242398 68 1 84
-0.444626 0.404640 0.188919 68 1 84
-0.670598 -0.007626 0.450096 68 1 84
0.206910 -0.181836 -0.169613 67 58 131
0.167832 -0.123560 -0.222870 68 1 84
0.439864 -0.056418 -0.119535 68 1 84
-0.425927 -0.347715 -0.131304 68 1 84
0.245051 0.447315 -0.159528 68 1 84
-0.478654 0.241820 0.003049 68 1 84
-0.415327 -0.469626 -0.156991 68 1 84
0.101145 0.003130 -0.320584 68 1 84
0.550908 -0.253458 0.037219 68 1 84
0.551554 -0.441016 0.084771 68 1 84
0.130778 0.410673 -0.213374 68 1 84
0.534274 0.031354 0.003225 68 1 84
-0.701442 -0.414603 0.480639 68 1 84
-0.098273 -0.173971 -0.237668 44 112 142
-0.658785 -0.063418 0.339411 68 1 84
-0.541955 0.280467 0.386038 68 1 84
0.644187 -0.210344 0.487576 68 1 84
-0.525443 -0.453974 -0.014872 68 1 84
0.183074 0.108793 -0.216591 68 1 84
0.067623 -0.135601 -0.354858 68 1 84
0.101386 -0.174374 -0.294118 68 1 84
-0.495989 0.339986 0.186694 68 1 84
-0.070433 -0.307197 -0.202409 100 203 93
0.595586 0.157954 0.195814 68 1 84
0.494242 -0.132323 -0.048633 68 1 84
0.633456 -0.049925 0.336271 68 1 84
0.322712 0.139497 -0.144547 68 1 84
0.363154 -0.372923 -0.128063 55 89 140
-0.020419 -0.375426 -0.271467 107 205 89
0.549466 0.222572 0.081348 68 1 84
-0.608752 0.058453 0.179720 68 1 84
0.322315 0.369561 -0.073380 68 1 84
0.223727 -0.166433 -0.165773 70 47 124
0.122672 0.261309 -0.244460 68 1 84
-0.493883 0.148217 -0.012566 71 22 105
-0.588406 -0.418191 0.103390 68 1 84
0.102260 -0.232244 -0.267066 71 38 118
-0.464093 -0.132560 -0.084335 68 1 84
-0.560627 -0.400775 0.049050 68 1 84
-0.662350 -0.097108 0.339661 68 1 84
-0.664075 -0.332383 0.297026 68 1 84
-0.562204 -0.022952 0.041189 68 1 84
0.607784 -0.387799 0.204877 68 1 84
-0.139648 -0.250966 -0.165054 134 212 73
-0.094912 0.610343 -0.134723 72 28 110
-0.014314 0.651200 -0.106506 61 75 137
-0.114963 -0.481304 -0.268599 38 172 129
-0.642866 0.108566 0.327704 68 1 84
0.088020 -0.279988 -0.267556 71 21 103
-0.189454 -0.014213 -0.205263 68 1 84
-0.013047 -0.205154 -0.340534 66 61 132
-0.498814 0.301240 0.085845 68 1 84
-0.673628 -0.160811 0.367503 68 1 84
-0.487222 0.341996 0.369220 72 35 116
0.013915 0.192985 -0.288111 68 1 84
0.133975 -0.421562 -0.203351 30 155 137
-0.077634 -0.425549 -0.246284 146 215 65
-0.597555 0.190657 0.462418 68 1 84
-0.145235 0.594665 -0.024033 105 204 91
0.003673 0.023743 -0.401884 68 1 84
-0.608899 -0.476908 0.170895 68 1 84
0.392271 -0.361376 -0.101871 54 91 140
0.068600 0.144781 -0.278914 68 1 84
-0.251128 0.403324 -0.093660 68 1 84
-0.658150 -0.064567 0.336155 68 1 84
-0.414725 -0.237041 -0.095052 70 14 97
-0.613069 -0.073709 0.157292 68 1 84
0.373318 -0.005509 -0.165503 68 1 84
-0.174703 -0.145055 -0.201043 65 66 134
-0.356354 -0.422226 -0.196434 68 1 84
0.624745 0.023714 0.314606 68 1 84
-0.498887 -0.020395 -0.054656 68 1 84
-0.448783 0.124352 -0.071179 68 1 84
0.648704 -0.194745 0.310484 68 1 84
-0.253275 0.484846 -0.047798 70 14 97
-0.549209 -0.290251 0.027271 68 1 84
-0.391596 0.052560 -0.149129 68 1 84
0.287875 0.239724 -0.116718 68 1 84
-0.565204 0.254298 0.342605 68 1 84
-0.040539 0.033905 -0.283255 68 1 84
-0.414152 0.112243 -0.106640 68 1 84
-0.693222 -0.407400 0.424980 68 1 84
0.464172 0.056273 -0.085333 68 1 84
-0.584055 -0.516784 0.101492 68 1 84
0.502798 -0.071565 -0.051169 68 1 84
0.639820 -0.166497 0.433163 68 1 84
0.292704 -0.509527 -0.204639 30 156 137
-0.019645 0.240525 -0.254277 68 1 84
0.226556 -0.461878 -0.210205 60 78 138
0.656121 -0.247540 0.423217 68 1 84
-0.572730 -0.163741 0.033932 68 1 84
0.651072 -0.252210 0.296269 68 1 84
0.150580 0.400079 -0.210586 68 1 84
-0.330316 -0.208264 -0.140026 71 15 98
0.291314 0.246503 -0.114349 68 1 84
-0.542792 0.281286 0.217769 68 1 84
0.581740 0.197326 0.439897 68 1 84
0.645372 -0.222303 0.537435 68 1 84
-0.243387 -0.480434 -0.244496 54 90 140
0.342552 -0.003781 -0.175568 68 1 84
0.005141 0.580871 -0.216653 68 1 84
0.448480 -0.442912 -0.099697 68 1 84
0.619962 0.078081 0.426863 68 1 84
-0.640791 0.102288 0.448271 68 1 84
-0.074588 0.003175 -0.321637 68 1 84
-0.513056 0.001411 -0.031669 68 1 84
-0.501284 0.162086 0.001342 68 1 84
-0.537759 -0.447195 0.007752 68 1 84
-0.100492 0.205540 -0.247109 68 1 84
-0.437658 0.316044 -0.006314 68 1 84
-0.059016 0.360048 -0.233504 68 1 84
0.566808 -0.441116 0.117607 68 1 84
0.633130 0.009087 0.482104 68 1 84
0.328103 0.498791 -0.006971 68 1 84
-0.227195 -0.363262 -0.140134 65 66 134
0.075201 0.386889 -0.224695 68 1 84
0.419401 0.458007 0.117589 68 1 84
-0.017916 -0.229278 -0.323643 57 84 139
-0.581983 0.038504 0.102676 68 1 84
0.585836 -0.314417 0.132726 68 1 84
-0.308048 0.045495 -0.197744 68 1 84
-0.699743 -0.397384 0.482610 68 1 84
0.457486 0.432784 0.183670 68 1 84
-0.503579 0.280002 0.064275 68 1 84
-0.574433 -0.293873 0.067499 68 1 84
0.410266 0.004703 -0.144340 68 1 84
0.583069 0.122466 0.129426 68 1 84
-0.354249 0.352274 -0.064234 68 1 84
0.311572 0.532341 0.039020 44 112 142
0.591261 0.210156 0.363648 68 1 84
0.617043 0.087147 0.400829 68 1 84
0.142217 0.129661 -0.244531 68 1 84
-0.342435 -0.284596 -0.128188 71 22 105
-0.400487 0.182363 -0.090269 68 1 84
0.611279 0.018979 0.219038 68 1 84
-0.517350 0.309189 0.346989 68 1 84
0.308443 0.351858 -0.092150 68 1 84
0.178386 -0.390566 -0.137686 30 155 137
-0.521534 0.005558 -0.019093 68 1 84
0.653391 -0.422769 0.313017 68 1 84
-0.002612 0.593051 -0.210475 68 1 84
0.063556 -0.498080 -0.275037 38 129 142
-0.444151 -0.279966 -0.070790 68 1 84
0.644576 -0.158957 0.481138 68 1 84
0.563316 0.026517 0.058058 68 1 84
-0.182798 -0.192999 -0.171547 57 185 118
0.304532 0.020669 -0.173223 68 1 84
0.092448 -0.406798 -0.242621 36 133 141
0.578782 0.112197 0.113220 68 1 84
0.137416 -0.135898 -0.250952 68 1 84
0.642679 -0.093573 0.549936 68 1 84
-0.243773 0.309736 -0.115427 68 1 84
0.428896 0.428489 0.081841 68 1 84
-0.558451 -0.460006 0.047464 68 1 84
0.065648 -0.189086 -0.336992 71 24 106
0.502544 -0.093114 -0.049166 68 1 84
-0.596235 0.180922 0.222972 68 1 84
0.042609 0.657116 -0.116154 56 86 139
0.048258 -0.235879 -0.328116 65 66 134
-0.299341 0.168445 -0.147319 68 1 84
0.651517 -0.461883 0.352904 68 1 84
-0.583972 -0.141388 0.057177 68 1 84
0.058721 0.209765 -0.278247 68 1 84
-0.472328 0.160350 -0.033385 68 1 84
-0.085683 -0.484048 -0.272761 100 203 93
0.134236 -0.416550 -0.194274 33 140 141
0.415066 0.382838 0.014957 68 1 84
-0.505716 0.284897 0.078945 68 1 84
-0.674322 -0.051571 0.422500 68 1 84
0.092366 0.562548 -0.220316 68 1 84
0.637508 -0.085990 0.390848 68 1 84
-0.682815 -0.183596 0.449944 68 1 84
0.569707 0.238922 0.400986 68 1 84
0.401153 0.431554 0.047276 68 1 84
0.555558 -0.352572 0.081614 68 1 84
0.667044 -0.294711 0.348940 68 1 84
0.487071 0.200158 0.000116 68 1 84
-0.668653 -0.446362 0.335006 68 1 84
0.633258 -0.516780 0.325681 68 1 84
0.095182 -0.443271 -0.254502 35 137 141
0.243874 0.578058 -0.097943 68 1 84
-0.587263 0.111100 0.139730 68 1 84
-0.465280 -0.171080 -0.079663 68 1 84
0.427996 -0.275182 -0.042680 68 1 84
-0.623229 -0.070035 0.187156 68 1 84
0.647712 -0.112063 0.532246 68 1 84
-0.120700 -0.468709 -0.263395 59 186 117
0.219138 -0.108587 -0.189965 68 1 84
0.225254 -0.207577 -0.140485 61 74 137
-0.080861 -0.098339 -0.316200 39 125 142
-0.326181 0.494235 0.053912 72 28 110
0.578664 -0.476840 0.163285 68 1 84
0.634085 0.007015 0.470801 68 1 84
-0.184125 0.492020 -0.131805 68 1 84
0.603609 0.083147 0.213094 68 1 84
0.168189 0.409059 -0.203982 68 1 84
-0.694988 -0.395704 0.438491 68 1 84
-0.600294 -0.327849 0.123836 68 1 84
-0.141042 -0.486012 -0.269721 44 177 125
-0.502450 0.295669 0.088135 68 1 84
-0.446248 0.022719 -0.109126 68 1 84
-0.405468 0.012210 -0.152509 68 1 84
0.182479 0.019075 -0.176779 68 1 84
-0.274648 0.516403 0.026942 67 60 132
0.264145 0.458998 -0.138712 68 1 84
-0.562138 -0.016412 0.043908 68 1 84
-0.564743 -0.005907 0.052786 68 1 84
0.321255 0.390318 -0.070736 68 1 84
0.664785 -0.313336 0.371733 68 1 84
-0.246098 -0.182519 -0.161268 30 155 137
-0.298428 0.235063 -0.122396 68 1 84
-0.703476 -0.490515 0.467101 68 1 84
0.605209 0.127091 0.425714 68 1 84
-0.559065 0.259811 0.234433 68 1 84
-0.431520 -0.290563 -0.080352 68 1 84
-0.568434 0.139719 0.104552 68 1 84
-0.131275 0.602489 -0.052436 50 181 122
0.198743 -0.170230 -0.184115 66 62 133
0.326013 0.494321 -0.019684 68 1 84
-0.453801 0.379982 0.279200 68 1 84
-0.356147 0.161351 -0.122646 68 2 85
-0.484156 0.269632 0.021916 68 1 84
-0.521800 0.304036 0.352835 68 1 84
0.180702 -0.160808 -0.204901 71 40 120
0.084907 -0.491723 -0.271942 40 122 142
0.323269 -0.255722 -0.097453 69 5 88
0.508539 0.318089 0.375340 68 1 84
0.528104 0.322092 0.183713 68 1 84
0.111156 0.007382 -0.289989 68 1 84
-0.092681 -0.088360 -0.288976 59 81 138
-0.031865 -0.277555 -0.285587 40 174 127
-0.413436 -0.409616 -0.161002 68 1 84
0.635908 -0.030216 0.437886 68 1 84
-0.690589 -0.291254 0.463618 68 1 84
0.181520 -0.415325 -0.159878 31 150 139
0.608832 -0.041612 0.153011 68 1 84
0.560975 0.222084 0.108097 68 1 84
-0.243119 0.300234 -0.116752 68 1 84
-0.497469 -0.331873 -0.040948 68 1 84
-0.301056 0.214965 -0.128098 68 1 84
0.092738 -0.368762 -0.238592 68 57 130
0.165123 -0.503285 -0.253597 39 124 142
0.238819 -0.094796 -0.184580 68 1 84
-0.037919 -0.190544 -0.329064 72 34 115
-0.128159 -0.440544 -0.246546 48 180 122
0.047415 0.653146 -0.133292 71 22 105
0.524133 -0.384621 0.019248 68 1 84
0.640090 -0.375701 0.279653 68 1 84
-0.265084 -0.011649 -0.214519 68 1 84
0.521865 0.333888 0.198097 68 1 84
-0.196566 0.107443 -0.195403 68 1 84
0.469374 0.101459 -0.059060 68 1 84
-0.550130 -0.334375 0.034849 68 1 84
-0.562253 -0.420596 0.051831 68 1 84
0.207118 0.438854 -0.188740 68 1 84
0.003603 0.312853 -0.263291 68 1 84
-0.320897 -0.117086 -0.179477 68 1 84
-0.540189 0.286696 0.239010 68 1 84
-0.089913 -0.109398 -0.277235 56 86 139
0.106096 -0.003882 -0.330927 68 1 84
0.490606 0.386507 0.197643 68 1 84
0.293842 0.185042 -0.151677 68 1 84
-0.374280 -0.456894 -0.189325 72 28 110
0.551087 -0.195580 0.013348 68 1 84
-0.390232 -0.232312 -0.108090 71 20 102
-0.112038 -0.100642 -0.228020 57 85 139
-0.610634 -0.255687 0.135916 68 1 84
0.615325 0.090260 0.353675 68 1 84
0.621485 0.029259 0.290995 68 1 84
0.149326 -0.191643 -0.222881 46 109 142
0.206337 -0.443657 -0.195708 31 146 140
-0.411155 0.432816 0.235503 71 37 117
0.521613 0.330460 0.138376 68 1 84
0.592639 -0.033022 0.101650 68 1 84
-0.608741 0.185912 0.321508 68 1 84
-0.570790 0.022520 0.074078 68 1 84
-0.557516 0.103322 0.073333 68 1 84
0.232424 -0.475690 -0.219005 42 117 142
-0.285992 0.528571 0.095422 35 135 141
0.376742 0.161673 -0.102216 68 1 84
-0.442991 -0.032855 -0.117257 68 1 84
0.597609 -0.060754 0.098496 68 1 84
-0.052516 0.019281 -0.342010 68 1 84
-0.489159 -0.328961 -0.050468 68 1 84
-0.412436 0.117723 -0.105569 68 1 84
-0.554779 0.122069 0.073012 68 1 84
0.058172 -0.117795 -0.372453 68 1 84
-0.685784 -0.182076 0.501517 68 1 84
0.601425 0.121544 0.462674 68 1 84
-0.610248 -0.460624 0.174761 68 1 84
-0.107309 0.461847 -0.190987 68 1 84
0.180761 0.122716 -0.222143 68 1 84
-0.183462 0.011087 -0.193021 68 1 84
0.459675 0.423965 0.228764 71 22 105
0.161665 -0.268372 -0.151662 68 1 84
0.155027 0.064414 -0.211919 68 1 84
0.003038 0.214969 -0.278983 68 1 84
-0.063576 0.096113 -0.261359 68 1 84
0.284384 0.136179 -0.167778 68 1 84
-0.444253 0.279156 -0.017300 68 1 84
-0.553673 0.269466 0.336285 68 1 84
-0.065325 -0.332688 -0.211416 105 204 91
0.345622 -0.375186 -0.114373 30 152 138
0.087357 0.147153 -0.278304 68 1 84
0.264811 0.153633 -0.178158 68 1 84
0.482060 -0.449331 -0.055110 68 1 84
-0.261485 0.378433 -0.094344 68 1 84
0.600481 -0.363341 0.176596 68 1 84
-0.005655 -0.138967 -0.382445 71 18 101
0.134364 0.115522 -0.245203 68 1 84
-0.181541 0.567149 -0.045451 36 133 141
0.626610 -0.321985 0.229600 68 1 84
-0.216536 -0.172971 -0.172568 31 148 139
-0.541682 -0.371058 0.019177 68 1 84
-0.653842 -0.174694 0.277989 68 1 84
-0.576016 -0.043579 0.062145 68 1 84
-0.160700 0.055670 -0.191967 68 1 84
0.395704 0.058801 -0.138268 68 1 84
-0.203790 0.180522 -0.195346 68 1 84
0.459860 0.243663 -0.015389 68 1 84
-0.327580 0.495749 0.060013 71 37 117
0.449595 -0.241873 -0.047604 68 1 84
-0.210902 0.074218 -0.189366 68 1 84
0.614037 -0.329220 0.200264 68 1 84
0.579278 -0.037633 0.064635 68 1 84
-0.594816 0.209414 0.315027 68 1 84
0.431045 -0.334311 -0.053070 71 44 123
-0.046471 -0.322567 -0.245651 38 172 129
-0.488990 -0.133253 -0.067059 68 1 84
0.222809 0.020176 -0.165942 68 1 84
0.194314 -0.423443 -0.168463 32 145 140
-0.664506 -0.500873 0.320921 68 1 84
-0.564538 0.239233 0.188831 68 1 84
0.518671 0.315367 0.092900 68 1 84
0.605993 0.041947 0.208141 68 1 84
0.466551 0.421529 0.179203 68 1 84
0.317228 -0.050862 -0.179543 68 1 84
0.290476 -0.521902 -0.207721 64 189 114
-0.584811 0.205127 0.210636 68 1 84
0.468524 0.136369 -0.044535 68 1 84
-0.025410 0.486121 -0.219128 68 1 84
0.292876 0.199998 -0.138433 68 1 84
-0.065977 0.158963 -0.270433 68 1 84
0.468100 0.071791 -0.074952 68 1 84
0.474990 -0.239688 -0.032772 68 1 84
0.213767 0.609973 -0.079394 56 86 139
0.477768 0.274393 0.016483 68 1 84
-0.242137 0.313829 -0.115806 68 1 84
0.019049 -0.164704 -0.368900 72 32 113
-0.073872 -0.319491 -0.194697 69 191 111
-0.259032 0.156279 -0.171126 68 1 84
0.005747 -0.289782 -0.301009 42 117 142
-0.343917 0.180838 -0.121019 68 1 84
-0.403617 -0.140254 -0.124276 68 1 84
0.323595 0.242953 -0.091365 68 1 84
0.558053 0.204719 0.519515 70 14 97
0.197326 0.572380 -0.173169 68 1 84
-0.461369 0.303954 0.014074 68 1 84
-0.212649 -0.364349 -0.142006 63 69 135
-0.357594 0.139147 -0.132620 68 1 84
0.126087 0.419090 -0.214188 68 1 84
0.121058 -0.409768 -0.206598 33 140 141
-0.557699 -0.375704 0.045336 68 1 84
0.550113 0.258792 0.422890 68 1 84
-0.680808 -0.112129 0.446435 68 1 84
-0.189695 -0.173131 -0.182428 44 112 142
-0.682406 -0.302733 0.381187 68 1 84
-0.077140 0.395735 -0.213170 68 1 84
0.473819 -0.098749 -0.075841 68 1 84
0.254903 0.307054 -0.157206 68 1 84
-0.137507 0.327296 -0.191026 68 1 84
0.015762 -0.492734 -0.279940 30 158 136
0.607022 0.103779 0.246371 68 1 84
0.485333 -0.296794 -0.004130 68 1 84
0.596036 -0.437163 0.191142 68 1 84
-0.532658 0.214782 0.069931 68 1 84
0.202972 0.201113 -0.207663 68 1 84
-0.076096 -0.407937 -0.235271 141 214 68
0.378388 0.506224 0.186595 68 1 84
-0.392925 0.344841 -0.035436 68 1 84
0.470632 0.265637 0.005243 68 1 84
-0.575178 0.228216 0.212559 68 1 84
-0.062188 0.001476 -0.285582 68 1 84
0.234366 0.347055 -0.173490 68 1 84
0.437365 0.108241 -0.083070 68 1 84
-0.404191 0.415066 0.046110 68 1 84
0.629742 -0.352826 0.252540 68 1 84
0.480572 -0.130564 -0.059610 68 1 84
-0.158842 -0.326615 -0.133248 141 214 68
0.466585 -0.474974 -0.077972 68 1 84
-0.154276 0.589621 -0.015574 51 182 121
0.574159 -0.448095 0.137414 68 1 84
-0.141567 0.411569 -0.173370 68 1 84
-0.193707 0.548156 -0.066183 56 86 139
0.636071 -0.021797 0.501954 68 1 84
0.367569 0.149365 -0.111830 68 1 84
0.095830 -0.351621 -0.233566 63 71 136
0.252789 -0.134530 -0.166311 68 1 84
0.454551 -0.323851 -0.034868 68 1 84
0.184679 -0.166327 -0.199541 68 1 84
0.350120 -0.269687 -0.086275 71 24 106
-0.436459 -0.285354 -0.075982 68 1 84
-0.599842 -0.131441 0.102357 68 1 84
-0.005543 -0.051266 -0.426358 68 1 84
0.308291 0.383018 -0.086307 68 1 84
-0.463245 0.322738 0.031217 68 1 84
-0.579693 -0.327155 0.083330 68 1 84
0.655077 -0.400817 0.325921 68 1 84
-0.531947 0.241563 0.095284 68 1 84
-0.497458 0.308937 0.097292 68 1 84
0.207839 -0.317124 -0.123895 72 28 110
0.118103 -0.404192 -0.205336 41 121 142
-0.294847 0.428974 -0.051593 68 1 84
-0.249812 0.049055 -0.202666 68 1 84
-0.230687 -0.371779 -0.175474 71 37 117
0.599009 0.182952 0.265507 68 1 84
0.635969 -0.100834 0.341175 68 1 84
-0.366363 0.056617 -0.164798 68 1 84
0.340293 -0.304011 -0.101867 71 24 106
-0.601340 0.193229 0.278548 68 1 84
-0.636939 0.065559 0.269686 68 1 84
0.351959 0.520074 0.115935 57 85 139
-0.244998 0.159343 -0.177445 68 1 84
-0.496437 0.116021 -0.018800 68 1 84
0.037500 0.653820 -0.127627 69 54 129
0.109728 0.214591 -0.247365 68 1 84
0.048818 0.378144 -0.229523 68 1 84
0.330442 0.535840 0.128168 40 174 127
-0.621144 0.104019 0.234655 68 1 84
0.009042 0.426948 -0.221679 68 1 84
0.238831 0.498158 -0.163960 68 1 84
-0.434718 0.219598 -0.050894 68 1 84
0.290951 0.311300 -0.120480 68 1 84
0.371687 0.312707 -0.056859 68 1 84
-0.683443 -0.151856 0.465166 68 1 84
0.139538 -0.309236 -0.144505 68 1 84
-0.623095 -0.439948 0.207639 68 1 84
-0.304294 0.408276 -0.059359 68 1 84
0.321564 -0.000712 -0.178336 68 1 84
-0.584190 0.211512 0.470288 68 1 84
0.176444 -0.215321 -0.181192 52 94 141
0.624372 0.063693 0.425847 68 1 84
0.390717 0.009171 -0.155189 68 1 84
0.216639 0.338216 -0.191740 68 1 84
0.660637 -0.353110 0.371434 68 1 84
-0.536068 0.031583 0.014108 68 1 84
0.542230 0.297195 0.330428 68 1 84
0.085040 0.569312 -0.219559 68 1 84
-0.273333 0.012712 -0.211928 68 1 84
-0.341819 0.057235 -0.179422 68 1 84
-0.015798 0.553270 -0.218099 68 1 84
-0.665084 -0.219997 0.300508 68 1 84
0.029159 0.071388 -0.274170 68 1 84
-0.684415 -0.168919 0.482668 68 1 84
0.367573 -0.371260 -0.125107 47 106 141
0.488514 0.117288 -0.033047 68 1 84
0.292736 -0.407921 -0.181767 68 1 84
-0.121587 0.152750 -0.240828 68 1 84
-0.686226 -0.182765 0.509288 68 1 84
0.318356 -0.189982 -0.120634 68 1 84
0.459051 -0.432071 -0.086550 68 1 84
-0.684088 -0.180734 0.476591 68 1 84
0.255950 0.365356 -0.148797 68 1 84
-0.417257 0.163899 -0.083923 68 1 84
0.088603 -0.497514 -0.271533 41 120 142
-0.362414 -0.509259 -0.191998 68 1 84
-0.384052 0.331716 -0.050609 68 1 84
0.642006 -0.202780 0.401791 68 1 84
-0.401510 -0.462759 -0.171278 68 1 84
-0.519273 0.126092 0.016868 68 1 84
0.004435 -0.242508 -0.326911 46 107 142
-0.557393 -0.433057 0.043392 68 1 84
0.344744 -0.321142 -0.100506 43 116 142
-0.468726 0.365770 0.262899 68 1 84
0.594780 0.180672 0.218474 68 1 84
0.594009 0.000443 0.132314 68 1 84
-0.597109 -0.214111 0.099512 68 1 84
-0.233674 0.309448 -0.120452 68 1 84
0.263875 0.519248 -0.124535 68 1 84
0.593890 -0.001661 0.130441 68 1 84
0.383109 -0.119170 -0.131611 68 1 84
0.633970 -0.038712 0.528435 68 1 84
-0.667137 -0.125683 0.349605 68 1 84
-0.435439 0.366311 0.032480 68 1 84
0.455548 -0.281991 -0.025653 68 1 84
-0.017341 0.204484 -0.280754 68 1 84
0.087071 -0.091168 -0.363220 68 1 84
-0.459745 0.373094 0.276562 68 1 84
0.633632 -0.320233 0.249410 68 1 84
-0.619174 -0.152608 0.159567 68 1 84
-0.050272 -0.421618 -0.262668 167 219 51
0.021313 0.624545 -0.188990 68 1 84
-0.642198 0.029084 0.273534 68 1 84
0.642849 -0.170154 0.344973 68 1 84
-0.636422 -0.129184 0.221476 68 1 84
-0.316368 -0.340332 -0.135525 68 1 84
-0.623943 -0.446374 0.209344 68 1 84
-0.595921 0.202451 0.433508 68 1 84
0.105518 0.385081 -0.223776 68 1 84
-0.089714 -0.090538 -0.295269 49 100 141
0.628679 -0.329239 0.238778 68 1 84
-0.243729 0.194828 -0.168102 68 1 84
0.608655 -0.516666 0.260023 68 1 84
-0.553658 -0.496415 0.038153 68 1 84
-0.548958 -0.003940 0.023964 68 1 84
0.366002 0.091547 -0.134958 68 1 84
0.490719 0.348687 0.364728 61 75 137
0.597613 0.164907 0.414951 68 1 84
-0.544221 0.277224 0.425884 68 1 84
-0.101043 -0.032435 -0.325573 68 1 84
0.429572 0.373202 0.021322 68 1 84
-0.316294 0.470178 0.004476 66 61 132
0.342385 -0.132797 -0.140746 68 1 84
0.582965 0.185270 0.455388 68 1 84
0.584836 0.104659 0.130098 68 1 84
0.265301 0.496330 -0.131243 68 1 84
0.611166 0.075577 0.249618 68 1 84
-0.661320 -0.284069 0.274375 68 1 84
-0.481568 0.196232 -0.011243 68 1 84
0.538164 0.297156 0.343005 68 1 84
-0.365700 0.477384 0.084042 71 15 98
-0.348713 -0.264265 -0.123797 63 69 135
-0.548669 0.270064 0.449918 68 1 84
0.192595 -0.150892 -0.198487 68 1 84
0.286950 -0.418833 -0.183145 72 30 112
0.607790 -0.023841 0.166837 68 1 84
-0.284693 -0.163904 -0.167251 54 91 140
-0.521887 0.307823 0.282890 68 1 84
0.599866 0.131188 0.453262 68 1 84
-0.155096 -0.253557 -0.155145 51 182 121
0.448060 0.237258 -0.032107 68 1 84
0.075989 0.313049 -0.257514 68 1 84
-0.639844 -0.188056 0.218310 68 1 84
-0.487267 -0.099385 -0.070964 68 1 84
-0.661468 0.042411 0.418165 68 1 84
0.228315 -0.081673 -0.188858 68 1 84
0.313676 0.389122 -0.079671 68 1 84
-0.099080 0.332754 -0.219915 68 1 84
0.366780 0.142817 -0.114653 68 1 84
-0.443273 0.199410 -0.049534 68 1 84
-0.454437 0.371393 0.085198 68 1 84
0.665595 -0.286411 0.407498 68 1 84
-0.432002 0.085495 -0.101996 68 1 84
-0.083060 0.350528 -0.225137 68 1 84
0.449859 -0.167099 -0.066653 68 1 84
-0.365991 -0.313296 -0.113700 69 50 127
0.194284 0.326130 -0.210169 68 1 84
-0.118553 -0.021677 -0.251775 68 1 84
-0.361414 0.491848 0.133108 69 54 129
-0.196449 -0.015395 -0.208400 68 1 84
-0.080502 -0.016708 -0.366268 68 1 84
-0.012486 -0.422537 -0.276198 48 180 122
-0.607173 -0.160644 0.122651 68 1 84
0.083950 0.519958 -0.226083 68 1 84
-0.655535 -0.136242 0.306075 68 1 84
-0.171537 0.562496 -0.087342 67 60 132
-0.556986 0.265814 0.307872 68 1 84
-0.686045 -0.235141 0.462219 68 1 84
-0.120312 0.533447 -0.177155 68 1 84
0.620784 0.075297 0.438845 68 1 84
-0.645300 -0.020961 0.288808 68 1 84
0.449925 0.078983 -0.088905 68 1 84
0.537311 0.308234 0.314518 68 1 84
-0.595067 0.109966 0.159776 68 1 84
-0.627567 0.146725 0.409839 68 1 84
0.015196 -0.308749 -0.293676 30 151 138
0.080310 0.221705 -0.256979 68 1 84
-0.555130 -0.023038 0.027618 68 1 84
0.084696 -0.177123 -0.318256 68 1 84
0.544084 -0.501172 0.084694 68 1 84
0.123846 0.335906 -0.241247 68 1 84
0.184247 -0.481637 -0.242457 35 135 141
0.207332 -0.497896 -0.239980 32 164 133
-0.391637 0.401727 0.010801 68 1 84
-0.252247 0.229858 -0.137380 68 1 84
-0.572880 0.208863 0.167498 68 1 84
0.594586 -0.053687 0.094397 68 1 84
0.213996 0.589259 -0.140170 68 1 84
0.220861 -0.332446 -0.116669 55 88 140
-0.407121 0.267183 -0.058679 68 1 84
0.183056 -0.209265 -0.178429 47 105 141
-0.593117 0.191643 0.480655 68 1 84
-0.601641 0.173028 0.484100 68 1 84
0.264100 -0.117830 -0.170082 68 1 84
-0.050167 0.007310 -0.387193 68 1 84
-0.405645 -0.310527 -0.107685 69 54 129
0.596694 -0.393362 0.173712 68 1 84
-0.602909 0.080070 0.170845 68 1 84
-0.336595 -0.387101 -0.199735 70 14 97
-0.328573 0.242122 -0.112762 68 1 84
-0.509224 0.015529 -0.033792 68 1 84
0.176381 0.008626 -0.180024 68 1 84
0.497671 -0.441055 -0.026391 68 1 84
-0.171500 0.181161 -0.212320 68 1 84
0.048131 0.625780 -0.188458 68 1 84
-0.186237 -0.270156 -0.150548 34 138 141
0.224950 0.477481 -0.179099 68 1 84
0.230232 0.317510 -0.181185 68 1 84
0.537618 0.310029 0.231289 68 1 84
-0.103242 -0.325341 -0.153189 253 231 36
-0.335689 0.044073 -0.186783 68 1 84
-0.571557 -0.391323 0.068428 68 1 84
0.525838 0.201742 0.038570 68 1 84
-0.166139 0.518307 -0.139231 68 1 84
0.148765 0.026155 -0.226245 68 1 84
0.597239 -0.063039 0.095971 68 1 84
-0.453862 -0.476269 -0.117765 68 1 84
0.025211 0.617705 -0.196475 68 1 84
-0.030606 -0.500314 -0.282939 64 189 114
-0.132170 -0.458057 -0.259143 51 182 121
-0.134090 0.062062 -0.205656 68 1 84
0.063838 -0.013022 -0.396802 68 1 84
-0.653057 -0.028064 0.328531 68 1 84
-0.074484 0.002860 -0.349825 68 1 84
0.466707 -0.441944 -0.077582 68 1 84
0.362692 -0.258644 -0.079422 68 1 84
-0.021092 0.204030 -0.279962 68 1 84
0.229833 -0.389588 -0.134940 61 187 116
0.629807 0.039695 0.436703 68 1 84
0.605194 0.002912 0.180407 68 1 84
0.284479 0.421696 -0.115964 68 1 84
-0.525297 0.217249 0.056781 68 1 84
0.503659 0.265836 0.040870 68 1 84
-0.646996 -0.021885 0.299084 68 1 84
0.368939 0.153632 -0.109545 68 1 84
0.092681 0.236396 -0.242895 68 1 84
-0.620420 0.133785 0.482116 68 1 84
-0.589519 0.103281 0.142589 68 1 84
0.456201 0.352017 0.033160 68 1 84
0.470198 -0.431198 -0.070973 68 1 84
-0.094784 -0.184634 -0.236829 40 122 142
0.483389 -0.319995 -0.010096 68 1 84
0.337692 0.458619 -0.027712 68 1 84
-0.420862 0.434514 0.170755 72 28 110
-0.613881 0.158310 0.260320 68 1 84
-0.616741 0.116882 0.229420 68 1 84
0.259126 -0.239760 -0.117104 66 61 132
-0.673239 -0.091865 0.396757 68 1 84
0.215095 0.177590 -0.209093 68 1 84
-0.166334 0.556792 -0.107340 68 55 129
0.636449 -0.113545 0.331110 68 1 84
-0.196587 0.501028 -0.111911 68 1 84
-0.390226 0.430643 0.045257 68 1 84
0.300162 -0.263972 -0.107384 68 3 87
-0.686338 -0.205484 0.494348 68 1 84
0.526480 -0.454885 0.032501 68 1 84
0.429486 -0.394332 -0.112347 72 34 115
0.141913 0.640276 -0.136924 68 1 84
0.633496 -0.118440 0.252542 68 1 84
-0.117083 0.022285 -0.196934 69 6 90
0.441282 -0.142144 -0.082648 68 1 84
0.249846 0.240559 -0.150033 68 1 84
-0.170244 0.578605 -0.021875 30 154 137
-0.679742 -0.344818 0.368811 68 1 84
0.339400 -0.393574 -0.169700 68 1 84
-0.163601 -0.201328 -0.177925 38 172 129
0.486662 0.056605 -0.059034 68 1 84
0.529246 0.283798 0.426112 71 17 99
0.060837 0.225814 -0.263259 68 1 84
-0.352376 0.235343 -0.104482 68 1 84
-0.670185 -0.185629 0.336678 68 1 84
-0.337417 0.410310 -0.035850 70 9 92
-0.502969 -0.021188 -0.049696 68 1 84
0.306146 -0.366426 -0.104134 42 117 142
0.107397 -0.329560 -0.202463 42 118 142
-0.433392 -0.350989 -0.125124 68 1 84
-0.176347 -0.245652 -0.149540 124 210 79
0.644576 -0.217410 0.493777 68 1 84
-0.419010 -0.264761 -0.083925 71 15 98
0.578002 0.242418 0.347363 68 1 84
-0.519472 0.311040 0.269941 68 1 84
0.397615 -0.043782 -0.151168 68 1 84
-0.525014 -0.130207 -0.035594 68 1 84
0.489284 -0.099590 -0.060772 68 1 84
-0.608280 0.155137 0.492393 68 1 84
0.542784 -0.044120 0.001247 68 1 84
-0.251809 0.427662 -0.084834 72 29 111
-0.476127 0.254904 0.005688 68 1 84
0.430895 0.307575 -0.023198 68 1 84
0.016382 0.246127 -0.260307 68 1 84
-0.670919 -0.280073 0.315096 68 1 84
-0.060172 0.359653 -0.233239 68 1 84
-0.103605 -0.341814 -0.154875 241 229 28
-0.541464 -0.382550 0.017684 68 1 84
0.299195 -0.505053 -0.200691 33 167 132
-0.566325 -0.353753 0.060119 68 1 84
0.629603 -0.142696 0.211805 68 1 84
0.658945 -0.370280 0.450353 68 1 84
-0.162624 -0.452725 -0.253789 30 153 138
0.068051 0.098513 -0.270569 68 1 84
0.046528 -0.483482 -0.274372 30 158 136
0.194382 0.317478 -0.211528 68 1 84
-0.292055 0.191648 -0.141316 68 1 84
-0.592695 -0.363510 0.109815 68 1 84
0.008890 -0.487706 -0.279891 33 140 141
0.656855 -0.243414 0.335274 68 1 84
0.579397 0.125948 0.545288 68 1 84
0.211649 -0.454924 -0.208971 49 101 141
-0.233436 -0.207696 -0.148942 36 170 130
0.269643 0.233891 -0.132381 68 1 84
-0.121327 -0.233453 -0.193703 31 161 135
0.585354 -0.437216 0.162088 68 1 84
-0.560302 0.136768 0.087433 68 1 84
0.049548 -0.275405 -0.305676 61 76 137
0.132941 -0.316010 -0.148980 68 1 84
-0.666750 -0.419177 0.329228 68 1 84
-0.376142 0.075488 -0.150904 68 1 84
0.387806 -0.492380 -0.151547 68 1 84
-0.555175 -0.111184 0.004904 68 1 84
0.639412 -0.391372 0.278690 68 1 84
0.595857 0.194190 0.259545 68 1 84
0.590563 -0.323931 0.144811 68 1 84
-0.686353 -0.273395 0.426244 68 1 84
-0.644576 -0.129688 0.254029 68 1 84
-0.629072 -0.273506 0.180027 68 1 84
0.110324 -0.311107 -0.194864 58 83 139
-0.278468 -0.355582 -0.151894 70 49 126
-0.132799 -0.216988 -0.194524 40 174 127
-0.289193 -0.315894 -0.142329 68 1 84
0.639776 -0.174988 0.405645 68 1 84
-0.337027 -0.130534 -0.167468 68 1 84
0.437119 0.408733 0.067766 68 1 84
0.496366 -0.410757 -0.024078 68 1 84
0.319859 -0.443507 -0.181712 70 45 124
0.011123 -0.035305 -0.426999 68 1 84
0.242646 0.414641 -0.158848 68 1 84
0.545177 0.256364 0.458170 68 1 84
-0.304811 0.087045 -0.183084 68 1 84
0.664284 -0.332637 0.357234 68 1 84
0.640096 -0.153545 0.366044 68 1 84
0.576918 0.250482 0.306679 68 1 84
0.579007 0.175863 0.134120 68 1 84
0.336795 -0.075087 -0.170281 68 1 84
0.616069 0.049679 0.266882 68 1 84
-0.336010 0.504728 0.112479 61 75 137
-0.602983 -0.073184 0.126937 68 1 84
-0.094647 -0.494823 -0.275693 43 177 125
-0.224374 -0.468977 -0.247329 64 68 135
-0.109061 -0.318498 -0.149170 178 221 44
-0.576280 0.130526 0.118559 68 1 84
-0.646660 0.006074 0.295343 68 1 84
0.454003 -0.381322 -0.080054 68 1 84
-0.645564 -0.481942 0.268449 68 1 84
0.424592 0.395627 0.037944 68 1 84
0.114312 -0.356201 -0.187944 37 131 141
-0.351586 -0.204840 -0.135217 69 5 88
-0.367628 0.388534 -0.028013 71 15 98
-0.573436 0.241763 0.283619 68 1 84
0.438092 0.454611 0.194736 68 1 84
-0.252897 0.520113 -0.001285 41 120 142
0.513811 0.349139 0.228259 68 1 84
0.574750 -0.330971 0.116023 68 1 84
0.100813 0.652997 -0.118130 67 60 132
-0.496551 -0.280012 -0.033706 68 1 84
-0.551346 -0.413863 0.032790 68 1 84
-0.079696 0.218262 -0.247994 68 1 84
-0.569973 0.247950 0.348095 68 1 84
-0.336835 0.321185 -0.089504 68 1 84
0.600639 -0.425503 0.198703 68 1 84
0.337014 0.158940 -0.130142 68 1 84
0.414141 0.254744 -0.057504 68 1 84
0.251250 0.468808 -0.153400 68 1 84
-0.045405 -0.278172 -0.264980 32 164 133
0.272170 -0.358419 -0.105976 48 104 141
0.195377 0.621846 -0.092515 71 44 123
0.241364 -0.527838 -0.231712 32 164 133
0.620804 -0.040779 0.225519 68 1 84
-0.054280 -0.335313 -0.232098 87 198 101
-0.006901 -0.327535 -0.282128 30 158 136
-0.305024 -0.087073 -0.196921 68 1 84
-0.259319 0.492566 -0.032056 68 1 84
0.508386 -0.169045 -0.029285 68 1 84
-0.086771 -0.453778 -0.258674 129 211 76
0.228330 -0.184270 -0.152569 68 1 84
0.349588 -0.061581 -0.169690 68 1 84
-0.492487 0.021266 -0.054991 68 1 84
-0.418997 -0.453379 -0.156239 68 1 84
0.584641 0.058824 0.123410 68 1 84
0.526417 0.324871 0.169118 68 1 84
-0.361553 0.486429 0.102325 70 9 92
-0.551207 -0.320508 0.035092 68 1 84
0.306468 -0.057268 -0.180499 68 1 84
-0.617793 -0.306127 0.158409 68 1 84
0.393603 0.254131 -0.068682 68 1 84
-0.111303 0.016979 -0.207951 71 15 98
-0.635373 0.128520 0.408771 68 1 84
-0.197486 0.237855 -0.155770 68 1 84
0.286539 -0.503264 -0.206177 32 145 140
-0.354075 0.496163 0.127178 69 50 127
-0.601370 0.002319 0.141916 68 1 84
0.147849 0.643067 -0.122981 71 18 101
-0.433116 0.405295 0.237199 71 18 101
-0.107623 -0.045458 -0.290942 68 1 84
-0.007828 -0.047064 -0.426622 68 1 84
-0.573999 0.112997 0.107286 68 1 84
0.365308 0.239317 -0.080532 68 1 84
-0.663129 0.027972 0.448208 68 1 84
0.095407 0.434840 -0.218851 68 1 84
-0.587464 -0.465321 0.106547 68 1 84
0.447641 0.432567 0.254702 57 85 139
-0.568944 0.247463 0.269493 68 1 84
0.099497 0.230985 -0.241175 68 1 84
-0.357357 0.388918 -0.036818 68 1 84
-0.262729 0.497742 -0.022381 72 32 113
0.103230 0.570564 -0.216626 68 1 84
0.609233 -0.449181 0.236059 68 1 84
0.291096 -0.274049 -0.114885 68 1 84
-0.221219 -0.020393 -0.214954 68 1 84
0.427499 0.034630 -0.126255 68 1 84
0.567184 -0.250318 0.058315 68 1 84
0.490201 -0.000501 -0.066630 68 1 84
-0.082255 -0.332508 -0.180370 87 198 101
0.246850 0.306378 -0.164894 68 1 84
0.112480 0.048037 -0.238845 68 1 84
0.030752 -0.007856 -0.417082 68 1 84
-0.525944 0.258554 0.100700 68 1 84
-0.633852 -0.126901 0.212103 68 1 84
0.230645 -0.357621 -0.103745 66 64 133
-0.333775 0.501794 0.092498 55 88 140
0.541960 -0.329740 0.057530 68 1 84
-0.083929 -0.000686 -0.293425 68 1 84
-0.198951 0.256028 -0.146651 68 1 84
0.608859 0.136426 0.323907 68 1 84
-0.445052 0.029945 -0.108590 68 1 84
-0.614405 0.025378 0.186332 68 1 84
0.470745 0.039589 -0.083437 68 1 84
0.089313 -0.230264 -0.291531 66 61 132
0.270624 0.447767 -0.131497 68 1 84
-0.433007 -0.335379 -0.118058 68 1 84
-0.524026 0.070686 0.007520 68 1 84
0.577385 -0.130812 0.034932 68 1 84
-0.058074 0.604531 -0.179289 68 1 84
-0.382026 -0.068788 -0.164691 68 1 84
-0.379312 0.389236 -0.015981 69 5 88
0.536512 -0.149019 -0.011937 68 1 84
0.644018 -0.359307 0.286828 68 1 84
0.606812 -0.032524 0.151687 68 1 84
0.633802 -0.025253 0.389237 68 1 84
-0.651557 -0.208233 0.250988 68 1 84
-0.106741 -0.395163 -0.192365 91 200 98
-0.626074 0.136511 0.278042 68 1 84
-0.660677 -0.182403 0.304207 68 1 84
-0.311561 -0.278302 -0.143280 70 45 124
-0.015301 0.644010 -0.136658 71 37 117
-0.203931 0.089346 -0.190202 68 1 84
0.600070 -0.119368 0.080525 68 1 84
0.567628 -0.326148 0.102012 68 1 84
-0.197387 0.531191 -0.085463 69 54 129
-0.135743 0.589433 -0.110568 52 94 141
0.632492 -0.069883 0.302496 68 1 84
0.552298 -0.453324 0.088833 68 1 84
0.162600 -0.021968 -0.236625 68 1 84
-0.663999 -0.200271 0.306456 68 1 84
0.388317 -0.435923 -0.151288 71 39 119
-0.161654 0.370028 -0.166843 68 1 84
-0.543859 0.059440 0.036750 68 1 84
-0.623986 -0.439504 0.209765 68 1 84
-0.700658 -0.543550 0.462201 68 1 84
-0.527311 0.235010 0.075147 68 2 85
-0.041124 -0.078296 -0.410004 68 1 84
0.182212 -0.116859 -0.211306 68 1 84
-0.672801 -0.184542 0.350593 68 1 84
-0.353123 -0.302734 -0.121418 71 44 123
-0.500780 -0.030155 -0.053361 68 1 84
-0.479135 0.330033 0.077601 68 1 84
-0.624568 -0.033011 0.200159 68 1 84
-0.674981 -0.086246 0.411389 68 1 84
0.003173 -0.150137 -0.377393 72 35 116
0.378187 0.456948 0.043270 68 1 84
0.283501 0.526023 -0.083273 71 22 105
-0.453857 0.380586 0.262768 71 37 117
0.283435 0.465755 -0.113220 68 1 84
0.347631 0.175706 -0.115902 68 1 84
0.355704 0.521436 0.158565 39 125 142
0.423410 -0.057550 -0.131881 68 1 84
0.182755 0.600518 -0.164621 68 1 84
0.599776 0.194682 0.316425 68 1 84
0.346876 0.405121 -0.036469 68 1 84
-0.136510 -0.206298 -0.196594 30 155 137
-0.361031 0.294363 -0.085045 68 1 84
-0.445314 -0.389346 -0.123546 68 1 84
-0.275707 0.441495 -0.057566 68 1 84
-0.690063 -0.255194 0.493794 68 1 84
-0.649291 -0.103117 0.273903 68 1 84
0.602295 -0.031471 0.135486 68 1 84
0.564097 0.271800 0.264409 68 1 84
0.579241 0.131095 0.119408 68 1 84
-0.083661 0.538252 -0.199042 68 1 84
-0.453775 0.365291 0.070837 68 1 84
0.569620 0.263577 0.314924 68 1 84
0.020050 -0.408869 -0.275067 33 142 140
0.164184 0.636576 -0.118204 72 35 116
0.203120 0.216875 -0.188622 68 1 84
0.109110 -0.080733 -0.310929 68 1 84
-0.491131 -0.489936 -0.070502 68 1 84
-0.020709 0.243271 -0.252639 68 1 84
-0.127392 0.424233 -0.180791 68 1 84
0.521252 -0.016773 -0.025082 68 1 84
0.588769 -0.278054 0.120425 68 1 84
-0.354904 -0.484395 -0.197774 68 1 84
0.656461 -0.237802 0.346241 68 1 84
-0.271914 0.428459 -0.068901 68 1 84
-0.559056 -0.176630 0.010112 68 1 84
-0.020853 0.044868 -0.330755 68 1 84
-0.610804 -0.100068 0.144183 68 1 84
0.535531 0.257834 0.076494 68 1 84
-0.354434 0.360226 -0.059361 68 1 84
0.407587 -0.353784 -0.085192 66 62 133
0.602235 -0.339769 0.175078 68 1 84
-0.418321 -0.097636 -0.125704 68 1 84
-0.670921 -0.070773 0.392199 68 1 84
0.255913 -0.376220 -0.106854 50 181 122
-0.651455 0.058250 0.479799 68 1 84
0.269568 0.385723 -0.133233 68 1 84
-0.027816 0.629427 -0.162649 68 1 84
0.287865 0.016785 -0.173335 68 1 84
0.272085 0.564336 -0.042977 68 1 84
-0.263598 0.448201 -0.063653 70 12 95
-0.179111 0.442323 -0.145789 68 1 84
0.580617 -0.350934 0.128966 68 1 84
-0.552730 -0.438934 0.035088 68 1 84
-0.494348 -0.002861 -0.057373 68 1 84
-0.065384 -0.446200 -0.262429 136 213 71
-0.507360 0.160584 0.008438 68 1 84
0.437593 0.385857 0.043518 68 1 84
0.254224 0.101463 -0.178867 68 1 84
-0.086647 -0.450524 -0.256743 119 208 82
0.333511 -0.457311 -0.177732 62 72 136
-0.350407 -0.081639 -0.181124 68 1 84
-0.618523 -0.160355 0.156635 68 1 84
0.610329 0.116119 0.399108 68 1 84
0.637466 -0.075898 0.564891 68 1 84
-0.582267 -0.062641 0.070251 68 1 84
-0.607893 0.161457 0.479842 68 1 84
0.253187 0.494300 -0.147601 68 1 84
0.433473 -0.460768 -0.115387 68 1 84
-0.634172 -0.095219 0.217887 68 1 84
-0.208077 0.402675 -0.127411 68 1 84
0.508341 0.357721 0.205685 68 1 84
-0.144595 -0.456238 -0.257771 47 179 123
-0.413475 0.176120 -0.082626 68 1 84
-0.377067 -0.309949 -0.110178 72 30 112
-0.158796 0.186146 -0.218786 68 1 84
-0.623406 0.065543 0.223850 68 1 84
0.149360 -0.426336 -0.193884 38 127 142
0.412689 0.115184 -0.097473 68 1 84
0.434877 -0.082098 -0.116503 68 1 84
0.219851 0.604269 -0.090684 69 50 127
-0.574828 0.022618 0.082468 68 1 84
-0.509572 0.173882 0.014697 68 1 84
0.515946 -0.353202 0.013053 68 1 84
-0.099828 0.258562 -0.215889 68 1 84
0.111396 -0.052297 -0.332879 68 1 84
0.493844 -0.346789 -0.014651 68 1 84
-0.683807 -0.353650 0.389402 68 1 84
-0.635536 -0.543423 0.236525 68 1 84
-0.158519 -0.010956 -0.189157 68 2 85
-0.413604 -0.071350 -0.138023 68 1 84
-0.630614 -0.175922 0.191730 68 1 84
-0.384648 0.209670 -0.092913 68 1 84
0.387550 0.325859 -0.044210 68 1 84
0.204248 -0.346818 -0.105786 66 64 133
0.476846 0.372592 0.080285 68 1 84
-0.286930 -0.190384 -0.152947 30 155 137
-0.626035 0.114240 0.258299 68 1 84
-0.059065 0.230262 -0.242553 68 1 84
-0.130204 0.135242 -0.233140 68 1 84
0.644067 -0.078751 0.503126 68 1 84
-0.080958 0.624304 -0.118648 66 62 133
-0.644123 -0.320634 0.222602 68 1 84
0.605592 -0.087661 0.106340 68 1 84
-0.067143 0.321081 -0.242276 68 1 84
-0.408899 -0.125558 -0.124139 68 1 84
-0.624984 -0.376933 0.194515 68 1 84
0.087708 0.119437 -0.272721 68 1 84
0.264043 0.135385 -0.179273 68 1 84
-0.421506 -0.167440 -0.107803 68 1 84
0.311817 0.198152 -0.125615 68 1 84
0.516887 0.300971 0.398061 72 25 107
0.627845 0.050802 0.438942 68 1 84
-0.619945 0.049008 0.208481 68 1 84
-0.672888 -0.021440 0.475662 68 1 84
0.298939 0.234730 -0.108016 68 1 84
-0.208506 -0.298450 -0.155293 30 154 137
0.494767 0.017337 -0.058181 68 1 84
0.530227 -0.384258 0.030265 68 1 84
-0.247866 0.509853 -0.027147 60 77 138
0.339952 -0.335874 -0.101704 42 118 142
0.611233 -0.152780 0.113005 68 1 84
0.635557 -0.059292 0.539096 68 1 84
-0.607416 -0.187603 0.123846 68 1 84
0.173715 0.600565 -0.171661 68 1 84
0.597549 0.144120 0.200752 68 1 84
0.297331 0.355838 -0.104899 68 1 84
0.238806 0.380277 -0.163147 68 1 84
0.393498 -0.292867 -0.056155 68 1 84
-0.169611 -0.202411 -0.172806 35 168 131
-0.601517 -0.128650 0.107924 68 1 84
-0.411895 0.343381 -0.017450 68 1 84
-0.576012 0.184224 0.149598 68 1 84
-0.609140 0.102428 0.196266 68 1 84
0.602791 0.076214 0.531960 68 1 84
-0.259391 -0.075569 -0.208940 68 1 84
0.451910 -0.403221 -0.090033 68 1 84
0.650997 -0.218494 0.295823 68 1 84
-0.553240 -0.371247 0.038222 68 1 84
0.054664 -0.077314 -0.401755 68 1 84
0.253213 0.012246 -0.168512 68 1 84
0.174076 -0.255658 -0.149118 46 107 142
-0.408815 0.281321 -0.051138 68 1 84
0.261535 -0.323415 -0.125848 71 18 101
0.488529 0.390280 0.173405 68 1 84
0.304663 -0.051160 -0.181558 68 1 84
0.074359 0.654038 -0.128591 72 30 112
0.629575 -0.307512 0.231628 68 1 84
-0.080486 -0.345788 -0.187762 167 219 51
0.169919 0.609624 -0.165667 68 1 84
-0.544569 -0.071522 -0.003934 68 1 84
0.639889 -0.500226 0.332040 68 1 84
-0.560869 -0.420494 0.049369 68 1 84
-0.453625 -0.490652 -0.117221 68 1 84
0.643446 -0.232778 0.559090 68 1 84
-0.240103 -0.203924 -0.149602 34 167 132
0.330411 -0.353186 -0.102218 40 122 142
-0.164535 0.263965 -0.169050 68 1 84
0.455892 0.406911 0.298761 69 52 127
0.602052 0.183175 0.337318 68 1 84
0.006277 -0.514336 -0.281929 42 176 126
0.145777 -0.104987 -0.240619 68 1 84
-0.437914 0.146697 -0.072792 68 1 84
0.598309 -0.214077 0.101855 68 1 84
0.104618 0.569068 -0.216761 68 1 84
0.209219 0.397848 -0.186319 68 1 84
-0.552954 -0.246450 0.017223 68 1 84
-0.149784 -0.043281 -0.198499 71 20 102
0.514694 0.346737 0.262897 68 1 84
0.222633 -0.484834 -0.229884 34 138 141
-0.448823 -0.296011 -0.074779 68 1 84
-0.574354 -0.370665 0.074025 68 1 84
-0.637385 -0.336910 0.210775 68 1 84
0.145769 -0.008147 -0.283538 68 1 84
-0.590809 -0.170926 0.076406 68 1 84
-0.680276 -0.186152 0.409437 68 1 84
0.410749 0.095231 -0.109534 68 1 84
-0.053988 0.309029 -0.250828 68 1 84
0.352668 0.471035 0.011980 68 1 84
-0.687888 -0.267333 0.454009 68 1 84
0.282610 0.563053 0.049490 66 61 132
0.210907 -0.107216 -0.193921 68 1 84
0.213676 0.582848 -0.147884 68 1 84
-0.020474 -0.054307 -0.423930 68 1 84
0.417641 0.429882 0.067521 68 1 84
0.188045 -0.235331 -0.152654 40 122 142
-0.334055 0.145595 -0.141157 68 1 84
-0.417990 -0.209086 -0.103036 68 1 84
-0.652819 -0.003499 0.325755 68 1 84
0.603631 0.166419 0.361717 68 1 84
0.162200 -0.014628 -0.244345 68 1 84
0.625644 -0.405252 0.258101 68 1 84
0.385474 -0.254937 -0.070473 68 1 84
0.579451 -0.109981 0.041041 68 1 84
-0.210097 -0.443528 -0.237294 68 1 84
-0.554399 0.265059 0.416360 68 1 84
0.616042 -0.209621 0.159521 68 1 84
-0.676981 -0.199079 0.370875 68 1 84
0.595682 0.175175 0.216652 68 1 84
0.260983 -0.392443 -0.153275 40 122 142
-0.297457 -0.462525 -0.223866 69 53 128
0.570476 0.198311 0.119390 68 1 84
-0.612911 -0.197804 0.139117 68 1 84
0.505113 -0.480959 -0.010636 68 1 84
0.392039 0.475171 0.097650 68 1 84
0.457863 0.254965 -0.014001 68 1 84
-0.185018 -0.371079 -0.158327 45 110 142
-0.486160 0.353934 0.191621 68 1 84
-0.127278 0.177347 -0.237954 68 1 84
-0.055342 -0.306645 -0.231841 83 197 103
-0.448728 0.156435 -0.059328 68 1 84
-0.395338 0.365424 -0.019407 68 1 84
0.622646 -0.005231 0.561982 68 1 84
-0.140050 0.261650 -0.186796 68 1 84
-0.257662 0.085367 -0.188381 68 1 84
0.174405 -0.357576 -0.112464 54 90 140
0.024267 -0.464921 -0.274103 34 137 141
0.357279 -0.340787 -0.089947 49 101 141
0.603098 -0.015879 0.154087 68 1 84
0.635037 -0.161165 0.236218 68 1 84
0.307492 0.047570 -0.162882 68 1 84
0.383173 -0.237903 -0.079642 68 1 84
0.524350 -0.250787 0.009142 68 1 84
-0.088683 -0.029674 -0.357977 68 1 84
-0.156600 -0.391120 -0.175596 40 122 142
-0.693721 -0.393832 0.431505 68 1 84
-0.405211 -0.014108 -0.156317 68 1 84
0.216361 -0.237602 -0.132582 69 52 127
-0.197557 0.490035 -0.116931 68 1 84
-0.236386 0.498185 -0.057904 68 1 84
-0.536078 -0.338614 0.013181 68 1 84
0.546423 0.297733 0.312012 68 1 84
-0.131653 -0.319174 -0.138367 178 221 44
0.593100 0.127617 0.497810 68 1 84
0.303023 -0.535614 -0.202074 159 217 56
-0.616443 0.133105 0.241115 68 1 84
0.160303 -0.133275 -0.228608 68 1 84
-0.595062 0.203070 0.436805 68 1 84
-0.527606 -0.245111 -0.014713 68 1 84
0.545504 0.247642 0.483851 68 1 84
0.123335 0.542215 -0.217324 68 1 84
0.003664 -0.205863 -0.346934 71 21 103
0.562306 -0.061650 0.025405 68 1 84
-0.434974 0.414551 0.118209 68 1 84
0.639687 -0.258384 0.250038 68 1 84
0.101120 0.146347 -0.273490 68 1 84
0.551501 0.051975 0.040137 68 1 84
0.625944 -0.220159 0.198915 68 1 84
-0.134677 0.149197 -0.233656 68 1 84
0.106060 -0.271892 -0.227914 55 88 140
0.477567 -0.103120 -0.070787 68 1 84
0.652134 -0.464155 0.362090 68 1 84
-0.542550 -0.439578 0.016520 68 1 84
-0.064741 -0.292425 -0.218024 31 162 134
-0.249242 -0.239365 -0.143945 30 151 138
-0.649360 -0.266372 0.226662 68 1 84
0.010411 0.299172 -0.267791 68 1 84
-0.112283 0.127343 -0.239929 68 1 84
0.554075 -0.518987 0.109289 68 1 84
-0.366682 0.095059 -0.149060 68 1 84
0.415428 -0.505352 -0.128697 69 5 88
0.482229 0.033735 -0.070952 68 1 84
0.617993 0.022980 0.540220 68 1 84
-0.037545 0.515706 -0.215418 68 1 84
0.014495 0.219812 -0.277090 68 1 84
0.540390 -0.502155 0.074529 68 1 84
0.065243 0.387479 -0.225107 68 1 84
0.025280 0.220515 -0.275815 68 1 84
0.217942 0.534274 -0.174099 68 1 84
0.593851 -0.396482 0.167105 68 1 84
0.478781 -0.294885 -0.009053 68 1 84
-0.087241 -0.099214 -0.293394 46 108 142
0.063103 -0.148124 -0.353120 68 1 84
-0.377180 -0.485089 -0.184718 70 11 94
0.109723 0.268083 -0.252422 68 1 84
-0.004183 0.199091 -0.285154 68 1 84
-0.032810 0.194890 -0.280661 68 1 84
0.086859 0.007432 -0.299893 68 1 84
-0.701635 -0.406825 0.492715 68 1 84
-0.191029 0.021242 -0.193387 68 1 84
-0.660775 -0.194201 0.294819 68 1 84
-0.542995 0.027199 0.024810 68 1 84
-0.109480 0.612866 -0.090805 49 102 141
-0.522987 0.247755 0.078119 68 1 84
0.265780 0.513249 -0.124262 68 1 84
0.600408 0.091611 0.519292 68 1 84
-0.483823 0.109409 -0.037523 68 1 84
0.629483 -0.298262 0.228331 68 1 84
-0.525605 -0.010530 -0.016345 68 1 84
0.091580 -0.337777 -0.239368 71 39 119
-0.686865 -0.266658 0.439221 68 1 84
0.015858 -0.079726 -0.414185 68 1 84
-0.287955 -0.379714 -0.207955 68 1 84
0.617060 -0.469755 0.273021 68 1 84
-0.610829 0.178756 0.291857 68 1 84
0.056979 -0.094526 -0.389135 68 1 84
-0.443675 -0.211654 -0.088852 68 1 84
0.029451 -0.391142 -0.275799 47 106 141
-0.591662 0.204377 0.249529 68 1 84
0.615015 0.071877 0.278695 68 1 84
0.226107 -0.442711 -0.189657 41 120 142
0.353579 0.523172 0.161640 34 137 141
-0.515681 -0.271499 -0.016847 68 1 84
-0.067878 -0.130779 -0.334008 71 37 117
-0.223099 -0.100081 -0.206044 68 1 84
-0.119337 -0.026201 -0.205315 72 26 108
0.603069 0.150244 0.399773 68 1 84
0.578496 0.125374 0.549057 68 1 84
0.643276 -0.485084 0.335204 68 1 84
0.484356 0.377381 0.103250 68 1 84
0.138572 0.117589 -0.243299 68 1 84
0.274935 0.521467 -0.105119 68 1 84
0.045541 0.381827 -0.228072 68 1 84
0.034546 0.653039 -0.129354 70 48 125
0.548015 -0.494843 0.091733 68 1 84
0.105151 -0.305926 -0.209974 52 95 141
-0.423094 0.405009 0.066634 68 1 84
-0.202192 0.357117 -0.140118 68 1 84
0.070882 0.195388 -0.280624 68 1 84
0.645878 -0.179953 0.510366 68 1 84
0.343404 0.119090 -0.136677 68 1 84
0.075643 0.657302 -0.114210 63 69 135
-0.123789 -0.158083 -0.220975 70 45 124
-0.677917 -0.038517 0.517279 68 1 84
0.519078 0.151653 0.013794 68 1 84
0.486594 -0.495125 -0.044473 68 1 84
-0.385036 0.470644 0.198419 70 47 124
0.645464 -0.231927 0.532059 68 1 84
-0.095631 0.304034 -0.227463 68 1 84
0.434000 -0.312090 -0.032256 68 1 84
-0.369865 0.275160 -0.085254 68 1 84
-0.673451 -0.091146 0.398546 68 1 84
-0.209503 0.089826 -0.189578 68 1 84
-0.340744 0.434462 -0.009281 68 1 84
0.608892 0.128851 0.362660 68 1 84
-0.668894 0.001081 0.450297 68 1 84
-0.211762 -0.105111 -0.205227 68 1 84
0.173877 0.386702 -0.206174 68 1 84
0.403248 0.047147 -0.138744 68 1 84
-0.458315 0.324849 0.025506 68 1 84
-0.296934 -0.359392 -0.190819 71 15 98
-0.406468 -0.029325 -0.154048 68 1 84
0.386254 0.386075 -0.008878 68 1 84
-0.207777 -0.177466 -0.172115 31 161 135
-0.654098 -0.287677 0.241119 68 1 84
-0.397129 -0.238818 -0.102414 70 45 124
