ply
format ascii 1.0
element vertex 1244
property float x
property float y
property float z
property uchar red
property uchar green
property uchar blue
end_header
0.466853 -0.257615 -0.059763 68 1 84
0.563557 -0.467819 -0.038224 69 54 129
-0.423408 0.499678 0.030298 68 1 84
-0.304805 0.230853 -0.190430 68 55 129
0.155969 0.465935 -0.198715 68 1 84
0.159869 -0.412209 -0.170645 61 74 137
-0.086750 0.289707 -0.264127 44 113 142
0.131329 -0.154118 -0.284353 40 122 142
0.076898 -0.236365 -0.346383 37 130 142
-0.493115 -0.545075 0.053195 33 140 141
-0.389499 -0.422432 -0.069078 60 77 138
0.563100 0.264355 0.297772 68 1 84
0.151415 0.076115 -0.213771 52 94 141
-0.623565 0.097633 0.340873 38 128 142
0.629059 -0.366500 0.167137 52 94 141
-0.583247 0.282609 0.420465 31 146 140
0.139719 -0.395327 -0.191442 65 65 134
-0.043050 -0.246317 -0.293008 37 131 141
0.514842 0.109161 -0.017906 69 5 88
-0.566699 0.291487 0.154037 71 21 103
-0.635045 -0.030513 0.392364 30 157 136
0.632855 -0.024353 0.517426 70 45 124
-0.206522 0.427523 -0.199984 68 1 84
-0.027875 0.036754 -0.416852 159 217 56
-0.039028 0.627861 -0.249532 68 1 84
0.166865 -0.016075 -0.261669 38 172 129
0.347368 -0.414048 -0.156840 69 50 127
0.576878 0.172645 0.546835 69 8 91
-0.294173 -0.444182 -0.143950 68 3 87
-0.451596 0.304763 -0.051455 68 1 84
-0.653315 -0.349110 0.423170 32 165 133
0.346093 0.530906 0.037736 68 1 84
0.055490 -0.208658 -0.369521 55 88 140
0.682285 -0.466202 0.271603 30 160 135
0.563029 0.087237 0.062650 58 82 139
-0.377486 0.551383 0.032191 68 1 84
0.609675 0.071291 0.512832 63 71 136
-0.443765 0.519378 0.149749 68 1 84
-0.580189 -0.186092 0.069408 45 111 142
0.030329 -0.487013 -0.269105 63 71 136
-0.465889 0.491356 0.122048 68 1 84
-0.528819 0.237715 0.050507 69 6 90
-0.567271 -0.332495 0.117165 96 201 96
-0.641134 -0.231744 0.292543 57 185 118
0.726581 -0.220168 0.479153 55 89 140
-0.628958 0.009669 0.347385 32 145 140
-0.146480 0.287827 -0.229378 56 87 140
0.140643 -0.451602 -0.228769 48 103 141
0.347202 0.251855 -0.140939 61 76 137
0.717985 -0.405614 0.413704 66 190 113
-0.104997 0.622363 -0.247481 68 1 84
0.684861 -0.150444 0.444365 51 96 141
-0.562564 0.052290 0.077795 70 47 124
-0.059092 -0.313079 -0.199947 30 152 138
0.401434 0.538879 0.174081 68 1 84
0.317294 0.481430 -0.036984 68 1 84
0.150992 -0.080224 -0.242146 44 114 142
0.161959 0.000660 -0.224752 42 119 142
0.618691 0.027003 0.432224 53 93 140
-0.642140 -0.079635 0.511173 59 186 117
-0.078449 -0.072758 -0.382056 34 167 132
-0.324530 -0.548349 -0.178518 54 90 140
-0.570853 0.125151 0.128982 64 67 135
0.251979 0.603571 -0.029911 68 1 84
-0.269557 -0.308428 -0.154122 55 89 140
0.669826 -0.435533 0.251369 36 134 141
0.505469 0.402004 0.222876 68 1 84
0.347730 -0.299443 -0.143975 69 53 128
-0.305931 -0.148323 -0.173054 46 107 142
-0.006907 0.155209 -0.285033 37 171 129
0.220660 0.637528 0.012536 68 1 84
0.622994 -0.160289 0.124606 51 96 141
0.542560 0.049596 0.001725 71 38 118
0.399918 0.302569 -0.072594 68 1 84
0.140540 0.296755 -0.218270 65 65 134
-0.556280 -0.457340 0.169442 56 185 118
0.553176 0.090991 0.042164 72 34 115
-0.012076 -0.340129 -0.265454 38 172 129
0.509040 0.115067 -0.025559 68 1 84
0.377767 0.103121 -0.170239 71 43 122
0.495224 0.428578 0.372123 68 1 84
-0.027945 -0.233789 -0.328098 60 77 138
-0.536871 0.256862 0.071727 72 33 114
0.564918 0.263649 0.317640 68 1 84
-0.321586 -0.638757 -0.189054 181 221 43
-0.499141 0.020747 -0.062705 71 39 119
-0.510131 0.196608 0.000110 68 1 84
-0.633879 -0.230130 0.252925 31 163 134
-0.026768 0.073595 -0.310414 105 204 91
0.312892 -0.488405 -0.201293 63 71 136
-0.339382 -0.522510 -0.166712 57 85 139
-0.652611 -0.244778 0.382480 103 204 92
-0.387472 -0.058177 -0.169531 50 99 141
-0.662153 -0.407812 0.423731 47 179 123
-0.449284 0.280601 -0.064441 68 2 85
0.116354 0.021833 -0.286544 68 190 112
-0.538626 -0.331059 0.067873 73 193 109
-0.264954 -0.451931 -0.153832 69 53 128
-0.016678 0.173295 -0.290935 56 185 118
-0.185468 0.487352 -0.227959 68 1 84
-0.337590 0.571176 -0.008305 68 1 84
-0.568727 -0.147860 0.038102 54 90 140
0.186725 0.570647 -0.177758 68 1 84
-0.038157 -0.489822 -0.240940 57 85 139
0.429164 0.409495 0.053817 68 1 84
-0.417545 0.529017 0.073994 68 1 84
-0.643866 -0.122086 0.506235 81 196 104
-0.414738 0.424777 -0.039411 68 1 84
0.031232 0.263320 -0.257550 46 109 142
0.487897 -0.539231 -0.147891 54 90 140
-0.086129 -0.146320 -0.285892 79 195 105
-0.321995 -0.549228 -0.179883 53 93 140
-0.134792 0.279836 -0.234118 36 133 141
-0.232791 0.630122 -0.090443 68 1 84
0.732027 -0.380194 0.564233 41 121 142
-0.636584 -0.013043 0.464153 32 165 133
-0.223983 0.504195 -0.205645 68 1 84
0.350481 0.488843 0.008017 68 1 84
-0.508325 -0.503352 0.079577 30 153 138
-0.614868 0.163883 0.290861 38 129 142
0.107754 0.013251 -0.389724 61 187 116
-0.104355 0.087357 -0.252832 51 182 121
-0.638661 -0.394051 0.365836 34 167 132
-0.117815 0.636727 -0.225330 68 1 84
0.037602 0.601471 -0.265267 68 1 84
-0.517479 0.257011 0.034877 70 47 124
-0.406312 -0.111945 -0.146922 57 84 139
-0.485442 -0.159202 -0.079265 60 78 138
-0.561023 0.014773 0.053184 61 76 137
0.304885 0.157160 -0.186829 43 115 142
-0.615592 -0.113900 0.194139 30 158 136
0.510226 0.396627 0.405377 68 1 84
0.661031 -0.128668 0.265635 50 99 141
0.077303 -0.408659 -0.269824 59 81 138
-0.651966 -0.342723 0.455413 57 185 118
0.141965 -0.395963 -0.186525 69 50 127
0.046252 0.240285 -0.269852 32 144 140
-0.640487 -0.088720 0.424823 30 157 136
0.197478 -0.186113 -0.187207 67 59 131
0.693476 -0.291722 0.394924 37 130 142
-0.559160 0.306996 0.141935 69 52 127
0.027817 0.598769 -0.267599 68 1 84
-0.335626 -0.197855 -0.152181 53 93 140
0.600790 0.076524 0.576216 70 49 126
0.730574 -0.382744 0.537937 30 153 138
-0.092308 -0.505083 -0.215686 42 119 142
0.125062 -0.417839 -0.232721 64 67 135
-0.251955 -0.488836 -0.195442 45 111 142
0.119370 -0.232169 -0.292018 36 134 141
0.266601 -0.556269 -0.258024 46 178 124
-0.315897 -0.096181 -0.188039 44 113 142
0.034687 -0.200991 -0.376830 56 87 140
-0.352508 -0.539532 -0.162146 63 71 136
-0.631917 0.014006 0.397483 33 142 140
-0.443718 0.110574 -0.131284 71 40 120
-0.565406 0.360275 0.281015 71 22 105
-0.055024 0.011339 -0.392188 136 213 71
-0.596355 -0.030279 0.163690 44 112 142
0.238746 0.493966 -0.129548 68 1 84
0.193637 0.322332 -0.172808 68 1 84
0.546169 -0.295787 0.033852 68 1 84
-0.492023 0.199560 -0.032544 70 12 95
0.496414 0.311471 0.091600 68 1 84
0.527118 0.317065 0.502390 68 1 84
-0.078854 0.416013 -0.243512 68 1 84
-0.341560 0.060875 -0.199895 44 112 142
0.615471 0.050027 0.463800 64 67 135
-0.628167 0.058497 0.398221 34 138 141
0.449225 -0.367422 -0.079559 71 38 118
0.019746 0.055263 -0.396095 129 211 76
-0.582175 -0.024094 0.101840 55 89 140
-0.215005 -0.513808 -0.197865 39 126 142
0.294537 0.601691 0.078861 68 1 84
0.610338 0.029013 0.322533 68 57 130
-0.640532 -0.295342 0.294519 31 161 135
0.323346 0.258185 -0.151444 71 24 106
0.101463 -0.570517 -0.272925 34 137 141
0.651402 -0.070324 0.441430 66 62 133
0.612640 0.004347 0.188380 54 91 140
-0.049331 -0.150789 -0.362263 35 137 141
-0.554996 0.171336 0.092721 72 35 116
0.615192 0.052760 0.472599 62 72 136
-0.588208 0.292827 0.241771 72 30 112
0.245122 0.425491 -0.125806 68 1 84
0.497253 -0.528657 -0.138746 62 72 136
-0.639900 -0.053380 0.447988 32 165 133
0.541018 -0.210276 0.000787 68 1 84
-0.523327 0.089924 -0.008133 59 80 138
0.269244 0.416875 -0.105866 68 1 84
-0.055595 -0.088636 -0.411622 39 125 142
0.539190 0.130211 0.038838 71 18 101
0.452868 0.377091 0.064504 68 1 84
-0.626504 -0.373647 0.302386 32 144 140
0.568075 0.189901 0.245656 71 38 118
-0.009269 0.559454 -0.283567 68 1 84
0.611134 -0.001173 0.154180 51 97 141
0.389732 0.496678 0.069346 68 1 84
0.013140 0.201519 -0.295005 105 204 91
-0.113131 0.524867 -0.273116 68 1 84
0.338560 0.448628 -0.032125 68 1 84
-0.465973 -0.337073 -0.012108 36 133 141
0.473687 -0.427874 -0.125508 59 81 138
0.527166 0.290562 0.154649 59 80 138
-0.182932 0.525903 -0.239346 68 1 84
-0.017816 -0.236466 -0.337336 49 100 141
0.112207 -0.039024 -0.407897 32 164 133
-0.304466 0.279726 -0.169344 68 1 84
0.564588 -0.166262 0.013555 72 26 108
-0.096734 -0.371904 -0.138127 68 57 130
0.714986 -0.388863 0.403334 33 167 132
-0.180406 0.023990 -0.204040 44 112 142
-0.200962 0.343872 -0.199470 68 1 84
0.265029 -0.513635 -0.236072 35 135 141
0.293928 0.231832 -0.174826 45 110 142
-0.492565 0.182954 -0.038500 70 49 126
-0.307131 0.549788 -0.103232 68 1 84
0.536291 -0.279836 0.022521 68 1 84
0.090873 -0.094283 -0.414267 31 161 135
-0.379305 0.279142 -0.138600 70 14 97
0.490931 0.331509 0.096525 68 1 84
0.153980 -0.076392 -0.235270 41 121 142
0.089301 -0.033934 -0.445036 94 201 97
0.388203 -0.379129 -0.124714 71 22 105
0.449651 0.490763 0.208323 68 1 84
-0.660571 -0.535561 0.433514 87 198 101
0.123018 0.326094 -0.240809 57 85 139
0.647140 -0.060872 0.464381 59 80 138
0.155682 0.288531 -0.199838 70 11 94
-0.617735 0.164870 0.348136 40 123 142
-0.133382 -0.007380 -0.305998 144 214 67
0.607895 -0.349864 0.119736 72 26 108
-0.514067 0.431844 0.154862 69 8 91
0.131931 -0.096658 -0.288586 31 149 139
-0.643751 -0.219273 0.557585 61 187 116
0.537247 0.356257 0.366839 68 1 84
0.568056 0.240364 0.460803 72 26 108
-0.194770 0.235109 -0.216932 53 92 140
-0.155187 -0.378390 -0.134430 58 82 139
0.133152 0.559026 -0.234078 68 1 84
0.052171 0.035145 -0.381912 126 210 78
-0.095316 0.627443 -0.245568 68 1 84
0.574553 0.159408 0.261884 68 1 84
0.515497 0.200246 0.039560 70 49 126
-0.397416 -0.507185 -0.119933 41 120 142
-0.326963 -0.026755 -0.201873 38 172 129
-0.093501 0.571244 -0.276639 68 1 84
-0.022709 0.177822 -0.292564 62 188 115
-0.269732 0.078522 -0.209974 57 85 139
-0.429931 0.328485 -0.069818 68 1 84
0.244026 0.039526 -0.202312 44 112 142
-0.026920 -0.369613 -0.221693 32 144 140
0.463983 0.188486 -0.067385 72 35 116
-0.564066 0.007660 0.058217 53 92 140
-0.590895 0.100129 0.181954 33 142 140
0.207867 -0.103595 -0.198780 61 75 137
0.192638 -0.550217 -0.266350 33 167 132
-0.295584 0.195938 -0.201964 56 86 139
-0.591666 0.203912 0.493656 39 124 142
-0.076730 -0.101664 -0.347144 62 188 115
0.444411 0.401916 0.070914 68 1 84
-0.551680 0.272606 0.106692 69 6 90
-0.159770 -0.166699 -0.206882 42 117 142
-0.199463 0.390760 -0.201266 68 1 84
-0.324606 0.592342 0.022511 68 1 84
0.363607 0.559513 0.116071 68 1 84
0.637035 -0.118345 0.168216 39 126 142
-0.584802 0.229853 0.494419 44 114 142
-0.539925 -0.239122 0.015093 43 116 142
-0.226419 0.190048 -0.220832 40 122 142
-0.590868 0.284235 0.243618 72 35 116
0.371790 -0.216987 -0.129714 72 29 111
0.262547 0.410916 -0.113529 68 1 84
0.124270 0.227909 -0.258881 34 137 141
0.458545 0.465669 0.403454 68 1 84
0.427460 0.207380 -0.103958 71 22 105
0.308437 -0.532768 -0.241376 41 120 142
-0.380742 0.228904 -0.150799 71 44 123
-0.649543 -0.320772 0.357479 32 164 133
-0.643839 -0.217479 0.451344 83 197 103
0.509496 0.291369 0.104355 71 18 101
-0.597144 -0.351365 0.196276 66 190 113
0.181346 -0.401559 -0.145643 70 48 125
0.680263 -0.219453 0.326584 64 68 135
0.678938 -0.363765 0.308774 42 117 142
-0.530483 0.175650 0.035346 70 11 94
-0.163336 -0.134429 -0.214557 47 106 141
-0.633145 -0.546121 0.356653 68 190 112
0.058511 -0.193890 -0.376833 56 87 140
0.501216 -0.199747 -0.045707 71 38 118
0.119874 -0.132568 -0.326894 32 145 140
-0.359128 -0.488424 -0.147195 47 106 141
-0.086466 0.384963 -0.249892 68 1 84
-0.654510 -0.575509 0.481597 62 188 115
0.236203 0.621760 -0.015857 68 1 84
0.151477 -0.092071 -0.240707 45 110 142
-0.384041 -0.154026 -0.148748 58 83 139
0.335546 0.031118 -0.189451 60 78 138
-0.561601 -0.067813 0.030601 39 124 142
0.105918 0.181717 -0.267457 79 195 105
-0.480003 -0.283893 -0.032870 30 158 136
-0.299314 -0.253113 -0.149115 63 71 136
0.484469 0.450469 0.315301 68 1 84
-0.032994 0.056623 -0.321025 121 209 81
-0.363961 0.325703 -0.131960 68 1 84
-0.579319 0.065914 0.147871 57 85 139
-0.364594 -0.324923 -0.105960 31 146 140
0.322585 -0.001081 -0.189253 54 91 140
0.266084 -0.479242 -0.195188 55 88 140
0.134718 0.270782 -0.219879 59 80 138
-0.043331 -0.348614 -0.198657 36 134 141
0.643126 -0.091269 0.541216 65 65 134
-0.616453 0.081557 0.277041 37 130 142
-0.424639 -0.399640 -0.030144 67 58 131
-0.636929 -0.086472 0.381574 34 137 141
0.483793 0.107455 -0.069765 68 1 84
0.540252 0.346520 0.298058 68 1 84
0.349994 -0.278606 -0.144181 70 45 124
0.571752 -0.274329 0.061378 69 5 88
-0.643240 -0.094312 0.563020 51 182 121
0.555953 -0.174404 0.004000 72 26 108
0.593394 -0.199293 0.072081 72 26 108
-0.667187 -0.376379 0.516296 91 200 98
-0.643725 -0.110139 0.493340 71 192 110
-0.257630 0.102980 -0.211260 58 83 139
0.449581 0.359618 0.045913 71 15 98
-0.125498 0.531820 -0.269450 68 1 84
0.461653 -0.010827 -0.109708 64 67 135
-0.178401 0.046635 -0.209007 34 138 141
0.621538 -0.003397 0.287480 72 34 115
-0.431477 -0.229660 -0.101470 58 83 139
-0.158597 -0.150009 -0.211571 53 92 140
-0.519090 -0.220535 -0.024186 47 106 141
-0.330672 0.087464 -0.200630 54 91 140
0.132586 0.186529 -0.253548 40 122 142
-0.527259 0.359757 0.101104 68 1 84
0.015035 0.049867 -0.415848 186 222 39
-0.659612 -0.544030 0.439517 103 204 92
-0.267310 0.263742 -0.177744 69 5 88
0.545133 0.107629 0.036050 71 18 101
-0.306545 0.478139 -0.129467 68 1 84
0.628195 -0.017845 0.558902 71 17 99
0.645201 -0.099721 0.574599 53 92 140
0.143990 0.394681 -0.209388 68 1 84
-0.605175 -0.490993 0.307769 46 178 124
-0.637935 -0.080453 0.398563 30 160 135
0.500189 0.177661 -0.010018 69 5 88
-0.256998 0.621458 -0.054281 68 1 84
-0.456162 -0.502051 -0.041989 51 97 141
-0.178988 -0.508928 -0.194441 49 100 141
0.656747 -0.089433 0.472367 62 72 136
0.649731 -0.117245 0.217806 40 122 142
0.453025 -0.307959 -0.067506 72 35 116
0.285600 0.495807 -0.068979 68 1 84
-0.625419 0.069432 0.345687 31 146 140
0.117150 -0.092375 -0.345080 33 140 141
-0.181771 0.128240 -0.232678 40 174 127
0.327520 0.245410 -0.153692 51 97 141
-0.603337 0.158602 0.486383 44 114 142
0.635152 -0.391219 0.177966 53 92 140
-0.135802 -0.257034 -0.174237 48 104 141
-0.461915 -0.488392 -0.025415 66 62 133
-0.322923 0.394970 -0.128220 68 1 84
-0.591838 -0.184745 0.097012 45 110 142
-0.148125 0.595754 -0.246296 68 1 84
0.139954 0.141463 -0.241113 30 159 136
-0.645977 -0.229745 0.452936 64 189 114
0.152963 0.168566 -0.239863 45 111 142
-0.172973 -0.395001 -0.142014 34 139 141
0.534123 0.291731 0.517486 68 1 84
-0.634004 0.006105 0.438385 30 158 136
0.134376 0.623035 -0.200010 68 1 84
0.456698 0.485324 0.281798 68 1 84
-0.127580 -0.053935 -0.319400 114 207 85
0.497507 0.399727 0.449012 68 1 84
-0.092181 -0.415384 -0.149071 40 122 142
-0.639148 -0.248607 0.279302 50 181 122
0.327058 0.057567 -0.193485 71 43 122
-0.007681 0.647738 -0.224997 68 1 84
-0.575157 0.193179 0.143975 66 62 133
-0.505294 0.272331 0.017681 66 62 133
0.349933 0.562624 0.090702 68 1 84
0.629509 -0.418686 0.154290 55 89 140
0.005972 0.056003 -0.408502 162 218 55
0.353812 0.341536 -0.092716 68 1 84
0.665172 -0.285681 0.277662 46 107 142
-0.227250 -0.420778 -0.148270 59 81 138
0.529487 0.373550 0.297897 68 1 84
-0.132325 -0.560211 -0.255063 31 162 134
0.568569 -0.312326 0.056833 72 35 116
-0.084228 -0.085725 -0.350812 59 186 117
0.593509 -0.135758 0.055175 67 58 131
0.643251 -0.337129 0.203336 51 96 141
0.688816 -0.440724 0.286716 30 157 136
0.571472 0.115791 0.132513 42 117 142
-0.111286 0.520730 -0.272980 68 1 84
0.721236 -0.414458 0.433130 64 189 114
-0.178912 -0.510198 -0.194921 46 109 142
-0.614674 0.185058 0.312323 48 103 141
-0.640979 -0.110291 0.400690 32 164 133
-0.225632 0.096890 -0.213522 47 106 141
-0.514689 -0.582366 0.111144 31 147 139
0.714458 -0.429838 0.368928 40 123 142
0.550816 0.314898 0.294615 68 1 84
0.676799 -0.187592 0.308309 43 116 142
-0.037037 0.021786 -0.326848 146 215 65
-0.103680 -0.327748 -0.151224 61 75 137
-0.099133 -0.001321 -0.284272 61 187 116
0.632294 -0.035285 0.243676 70 9 92
0.593596 0.080509 0.298285 68 1 84
-0.237198 -0.147877 -0.190195 52 95 141
0.600067 -0.135509 0.068748 71 37 117
-0.585287 -0.015723 0.123224 51 97 141
-0.255713 -0.262902 -0.158189 49 101 141
-0.666139 -0.376666 0.458825 85 198 102
-0.271738 -0.330495 -0.156432 47 106 141
0.445859 0.003513 -0.123377 63 69 135
0.259093 0.615235 0.034649 68 1 84
-0.416183 -0.430155 -0.050106 67 60 132
0.589330 0.105202 0.302802 68 1 84
0.570272 -0.195614 0.034252 69 8 91
0.650361 -0.065198 0.393998 58 83 139
0.611296 0.050061 0.541975 69 50 127
-0.061992 0.358524 -0.263023 71 22 105
0.084959 -0.258350 -0.331257 43 116 142
-0.069930 -0.291425 -0.204346 32 145 140
0.089343 0.663973 -0.167495 68 1 84
-0.065007 0.509517 -0.281507 68 1 84
0.144597 0.041444 -0.216253 53 92 140
-0.523569 0.417381 0.162660 72 29 111
-0.402212 0.488250 -0.014181 68 1 84
0.589736 -0.024528 0.064697 47 106 141
0.584125 -0.293033 0.078172 72 33 114
-0.511552 -0.577343 0.103470 31 146 140
0.677132 -0.270705 0.327222 50 99 141
0.114364 -0.185044 -0.323555 35 136 141
-0.386541 -0.593784 -0.141520 35 168 131
0.359819 0.113973 -0.177070 58 83 139
-0.058599 0.666747 -0.172601 68 1 84
0.155457 0.148424 -0.235449 40 122 142
-0.446763 -0.545040 -0.065905 38 129 142
-0.515323 0.164232 -0.000246 71 20 102
0.342237 0.476185 -0.011786 68 1 84
0.074278 0.030401 -0.277759 91 200 98
0.024004 0.375476 -0.255607 71 24 106
0.411225 0.527783 0.293951 68 1 84
0.521125 -0.312133 0.006114 68 1 84
0.394376 -0.280574 -0.127593 71 42 121
0.627976 -0.461510 0.135080 70 49 126
-0.208623 0.638376 -0.123006 68 1 84
-0.046770 -0.414308 -0.186632 38 128 142
-0.023652 0.032126 -0.428160 199 224 31
0.112840 0.132132 -0.255244 30 155 137
-0.347999 -0.485475 -0.154738 69 54 129
-0.612931 0.089028 0.259115 37 131 141
0.464704 0.347567 0.060152 68 1 84
-0.129873 0.343465 -0.246329 70 49 126
-0.032686 0.322735 -0.276426 57 85 139
0.140975 -0.250140 -0.224131 66 61 132
0.106966 0.597261 -0.241520 68 1 84
-0.255589 0.118532 -0.212585 54 91 140
-0.592555 -0.163772 0.094043 39 125 142
-0.578154 -0.219355 0.076868 46 109 142
0.284351 -0.300054 -0.150167 54 90 140
0.152200 -0.330649 -0.161243 71 21 103
-0.599674 0.236505 0.413938 36 133 141
0.129687 -0.031249 -0.362839 30 153 138
-0.644412 -0.170018 0.490699 31 162 134
-0.048846 0.639522 -0.237239 68 1 84
0.387974 0.553554 0.236488 68 1 84
-0.628075 -0.153503 0.248009 32 165 133
-0.482787 -0.149749 -0.083264 60 78 138
-0.172275 0.598559 -0.228357 68 1 84
0.442289 0.144525 -0.112160 69 54 129
0.123374 -0.301281 -0.228115 60 78 138
0.311280 0.605006 0.168612 68 1 84
-0.477203 -0.593773 0.026558 34 167 132
-0.011182 0.124983 -0.286130 43 177 125
0.308277 -0.299842 -0.148709 60 78 138
-0.320763 -0.342727 -0.139420 38 129 142
0.167408 -0.436821 -0.186516 57 84 139
0.305587 0.398437 -0.092482 68 1 84
-0.090918 -0.005785 -0.294204 56 185 118
0.266817 -0.416223 -0.160842 57 84 139
-0.486603 0.054991 -0.079970 72 32 113
-0.098755 -0.310728 -0.160727 59 81 138
0.472742 -0.203324 -0.066366 72 35 116
-0.443227 0.524429 0.177821 68 1 84
0.120674 -0.066249 -0.351572 36 134 141
0.409139 0.290124 -0.072354 72 35 116
0.383895 0.554341 0.169342 68 1 84
0.151535 0.384030 -0.206682 68 1 84
0.576862 -0.140436 0.024899 71 22 105
-0.308242 0.561112 -0.088534 68 1 84
0.402743 -0.165372 -0.123174 65 65 134
0.363278 -0.423157 -0.173969 46 107 142
-0.263628 -0.489960 -0.194783 42 117 142
-0.462024 0.355880 -0.014500 69 6 90
-0.472464 0.463860 0.080262 68 1 84
-0.031919 0.025961 -0.343183 119 208 82
0.075940 0.050035 -0.269299 48 180 122
-0.269363 0.523509 -0.162638 68 1 84
0.100615 -0.428205 -0.257962 70 49 126
0.359221 -0.486825 -0.199216 59 80 138
0.011256 0.288388 -0.267573 68 57 130
-0.501452 0.014563 -0.059583 70 47 124
-0.530082 0.354289 0.102655 68 1 84
0.577992 0.179513 0.306267 68 1 84
0.531230 -0.467739 -0.096051 71 44 123
-0.644651 -0.192737 0.557137 59 186 117
0.150504 0.589527 -0.208884 68 1 84
-0.294989 0.046256 -0.211390 55 89 140
0.253830 0.400214 -0.121938 68 1 84
-0.647383 -0.317844 0.500445 42 176 126
-0.555826 -0.176327 0.016558 48 103 141
0.225547 0.618746 -0.066958 68 1 84
-0.640294 -0.313489 0.303216 30 154 137
-0.658267 -0.547722 0.447059 116 208 84
0.024289 -0.274956 -0.335001 57 85 139
-0.560190 0.321429 0.154786 72 34 115
0.607530 -0.449844 0.092484 70 49 126
-0.335220 -0.270165 -0.132556 51 96 141
0.562289 0.197217 0.220032 71 18 101
0.354499 -0.444362 -0.190269 50 99 141
-0.468773 -0.142033 -0.096956 60 78 138
-0.632595 -0.507741 0.353286 37 171 129
0.104888 0.446208 -0.222338 68 1 84
0.371498 -0.448705 -0.188764 53 93 140
0.555722 -0.483209 -0.054908 66 64 133
0.242292 -0.360159 -0.125409 59 80 138
-0.615559 0.016783 0.268450 43 116 142
-0.345706 0.289791 -0.154439 68 1 84
0.587687 -0.316144 0.083554 72 25 107
-0.384348 -0.382616 -0.068229 58 83 139
0.687579 -0.231268 0.386801 49 102 141
0.357337 0.353389 -0.082917 68 1 84
0.544271 -0.332812 0.021464 72 26 108
-0.469058 -0.503959 -0.016823 40 122 142
0.052655 -0.504315 -0.272750 58 83 139
-0.540389 -0.379215 0.096215 91 200 98
-0.654301 -0.297671 0.396384 66 190 113
0.388137 -0.194987 -0.123379 71 43 122
-0.343149 0.083092 -0.196824 52 94 141
-0.550129 0.030054 0.030856 59 81 138
-0.522824 0.207943 0.029458 68 1 84
-0.639839 -0.154775 0.350620 64 189 114
0.379234 -0.442494 -0.184930 47 105 141
-0.612172 0.117089 0.486282 44 112 142
0.408557 0.528032 0.318647 68 1 84
-0.246144 0.075501 -0.210450 50 99 141
0.712481 -0.383522 0.342250 50 98 141
-0.253919 -0.617001 -0.229061 96 201 96
-0.646262 -0.231396 0.453411 62 188 115
0.588928 -0.020670 0.064406 55 88 140
0.225462 0.631815 -0.003872 68 1 84
0.135133 -0.515413 -0.261457 48 104 141
-0.025555 0.042347 -0.394850 181 221 43
-0.429832 -0.290568 -0.069090 42 119 142
0.546664 0.224416 0.157619 60 78 138
-0.385695 -0.491205 -0.126216 45 111 142
0.365241 0.560114 0.122963 68 1 84
0.660262 -0.111141 0.281923 59 80 138
0.457483 0.301553 0.010997 68 57 130
0.329628 -0.456920 -0.190608 51 97 141
0.232007 0.003257 -0.201651 39 124 142
-0.556817 0.039245 0.052523 62 73 137
-0.362582 0.437228 -0.086902 68 1 84
0.512426 0.237932 0.063660 55 88 140
-0.016136 0.203811 -0.296552 69 191 111
-0.470789 -0.487368 -0.008862 46 109 142
-0.509443 0.399321 0.093192 68 1 84
0.265305 0.478030 -0.098796 68 1 84
0.704379 -0.215271 0.564630 61 76 137
0.575871 0.221857 0.421085 72 34 115
-0.226284 0.545930 -0.201178 68 1 84
-0.313995 -0.343589 -0.143278 42 119 142
0.458531 -0.192025 -0.080864 71 44 123
-0.547512 0.378621 0.352102 54 90 140
0.587363 -0.399456 0.049986 66 62 133
0.493674 0.143334 -0.039930 68 1 84
-0.521502 -0.490855 0.107373 41 121 142
-0.497760 -0.167146 -0.065460 59 80 138
-0.063284 -0.079344 -0.408510 33 141 140
0.140040 0.599864 -0.213538 68 1 84
0.037904 -0.167271 -0.398176 40 122 142
-0.152046 0.198517 -0.257500 89 199 100
0.503075 0.395956 0.438096 68 1 84
-0.512773 -0.574588 0.105618 32 143 140
-0.615775 -0.134973 0.181225 31 163 134
0.689421 -0.166673 0.453294 48 104 141
-0.273129 0.583842 -0.122630 68 1 84
-0.640514 -0.049027 0.463846 32 165 133
0.307770 0.306761 -0.136032 68 3 87
-0.602789 0.001997 0.210716 42 118 142
0.084823 0.029461 -0.267926 85 198 102
-0.420129 -0.262455 -0.091348 49 101 141
-0.574153 -0.458092 0.210287 36 170 130
-0.374317 -0.127667 -0.159230 61 75 137
-0.537296 0.183717 0.053218 71 37 117
-0.161986 0.332658 -0.227198 69 8 91
-0.541068 -0.131814 -0.013571 63 69 135
0.578014 0.020127 0.056688 71 40 120
-0.084667 -0.292973 -0.185453 42 118 142
-0.150818 0.259740 -0.217342 66 61 132
-0.643210 -0.235063 0.511803 50 181 122
-0.105687 0.423902 -0.238274 68 1 84
-0.598086 0.259112 0.380779 40 122 142
0.401902 0.475340 0.067119 68 1 84
0.010503 -0.349430 -0.284348 49 101 141
0.501963 0.336405 0.124589 62 73 137
0.065127 0.323803 -0.268753 33 142 140
0.013096 -0.407090 -0.264978 40 122 142
-0.519395 0.162218 0.007229 72 30 112
-0.323559 0.285626 -0.163543 68 1 84
-0.008532 0.274195 -0.262021 71 43 122
-0.415964 0.507162 0.027143 68 1 84
0.614160 0.001074 0.193051 52 94 141
0.121633 -0.114539 -0.325901 30 160 135
0.123755 -0.070000 -0.331461 37 130 142
0.556862 -0.083374 -0.010503 51 97 141
0.164694 0.654740 -0.100399 68 1 84
-0.429728 0.157781 -0.133953 53 92 140
-0.643115 -0.181036 0.362969 64 189 114
-0.144017 -0.396018 -0.133574 49 102 141
0.462753 0.345361 0.055106 68 1 84
0.603362 0.069570 0.357239 59 80 138
0.079792 0.414039 -0.233552 68 1 84
-0.407794 -0.035372 -0.160569 53 92 140
0.587319 0.133847 0.552279 71 18 101
-0.499725 0.461901 0.212745 68 1 84
-0.501942 0.456778 0.242232 71 17 99
0.242131 0.140806 -0.203983 45 110 142
-0.634891 -0.249290 0.259753 48 180 122
-0.300646 0.256444 -0.181736 68 1 84
0.568169 0.256106 0.411939 72 30 112
-0.629314 -0.100587 0.313044 31 146 140
-0.637691 -0.026938 0.505607 57 185 118
-0.562902 -0.315217 0.099234 107 205 89
-0.036540 0.015551 -0.336178 178 221 44
0.270806 -0.536796 -0.252913 39 125 142
0.534255 0.308151 0.492954 68 1 84
-0.081946 -0.480786 -0.197659 34 139 141
-0.026231 -0.231496 -0.332230 57 84 139
-0.511824 -0.530872 0.093424 32 144 140
0.552929 0.305375 0.413988 68 1 84
0.119525 -0.312362 -0.234645 62 72 136
0.308405 -0.172198 -0.150471 59 81 138
-0.261630 0.229177 -0.202574 52 95 141
-0.156602 -0.432802 -0.158014 54 91 140
-0.429254 -0.528084 -0.090203 36 133 141
0.675078 -0.214405 0.301132 46 107 142
-0.637489 -0.302266 0.286248 30 160 135
0.547187 0.332813 0.354302 68 1 84
0.364920 0.229130 -0.139365 52 95 141
-0.320369 0.278676 -0.167299 68 1 84
-0.206882 0.548678 -0.218842 68 1 84
-0.664665 -0.425242 0.438850 38 172 129
-0.569741 -0.259514 0.080011 36 132 141
-0.422805 0.107925 -0.150814 60 77 138
0.288146 -0.025746 -0.193663 54 90 140
-0.629125 -0.059920 0.326559 30 156 137
-0.385974 -0.216219 -0.131149 60 77 138
0.555220 0.284127 0.267753 67 59 131
0.359523 -0.193089 -0.136053 71 37 117
-0.382743 -0.385330 -0.068613 58 82 139
0.188804 -0.302611 -0.147916 71 22 105
0.596219 -0.006718 0.091406 40 122 142
0.665908 -0.459106 0.234545 35 135 141
0.471456 0.000214 -0.101054 64 67 135
-0.632953 -0.050717 0.356302 33 142 140
0.575839 0.180094 0.290643 68 1 84
-0.583693 -0.072948 0.081098 35 135 141
0.385698 0.534436 0.110534 68 1 84
0.634378 -0.024411 0.352273 52 94 141
-0.293733 0.573283 -0.098739 68 1 84
-0.046471 -0.145832 -0.370999 31 163 134
0.521331 0.068945 -0.024508 72 29 111
0.554256 0.294328 0.278921 68 1 84
-0.558569 0.041050 0.058298 63 71 136
0.585941 -0.325899 0.079748 71 24 106
0.576552 0.152172 0.266828 68 1 84
-0.479607 0.484675 0.174316 68 1 84
-0.611164 -0.024260 0.239653 31 146 140
-0.290139 0.124904 -0.207094 62 72 136
0.659520 -0.114001 0.501696 63 69 135
-0.393722 0.536093 0.032058 68 1 84
0.395514 0.546985 0.240666 68 1 84
-0.004759 -0.532059 -0.268341 36 134 141
0.412682 -0.144681 -0.123799 70 48 125
-0.316711 -0.384976 -0.131161 40 122 142
-0.419892 -0.019569 -0.153543 62 73 137
0.636567 -0.496811 0.146681 38 129 142
-0.447342 0.509165 0.109560 68 1 84
0.071087 -0.549290 -0.275236 41 120 142
0.133621 0.256490 -0.234102 65 65 134
0.060437 -0.378140 -0.281274 62 73 137
0.186362 0.215769 -0.223376 48 104 141
-0.582421 0.304699 0.227457 71 37 117
0.394411 -0.112104 -0.138023 71 15 98
0.118663 -0.556414 -0.272411 31 150 139
-0.338181 0.548388 -0.050886 68 1 84
-0.577166 -0.241793 0.085701 42 117 142
0.069967 -0.043511 -0.457514 112 206 86
-0.606704 -0.164489 0.137370 37 171 129
0.668328 -0.351853 0.291802 42 118 142
0.727150 -0.278415 0.547822 36 133 141
0.398232 0.168219 -0.141802 68 2 85
-0.319432 0.419968 -0.125646 68 1 84
0.025683 -0.521350 -0.271069 34 137 141
-0.593138 0.218357 0.200146 63 71 136
-0.118389 -0.008152 -0.317009 144 214 67
0.601879 -0.492663 0.068094 63 71 136
0.290234 -0.453178 -0.182438 56 87 140
-0.534150 0.327502 0.094098 68 1 84
-0.147409 -0.249957 -0.174168 41 120 142
0.258001 0.599664 -0.023618 68 1 84
-0.521221 0.234813 0.034870 68 1 84
0.597943 0.051728 0.255435 68 1 84
-0.035271 0.224983 -0.289078 44 177 125
0.586721 0.173386 0.427971 65 65 134
-0.246303 0.029702 -0.213719 31 146 140
0.551675 -0.104692 -0.017001 62 73 137
-0.334061 0.120934 -0.195294 51 97 141
0.382892 0.258118 -0.115124 71 18 101
-0.603989 -0.028755 0.202540 40 122 142
-0.625138 0.039760 0.328469 35 135 141
0.637264 -0.461510 0.157004 44 112 142
-0.402738 -0.240549 -0.113207 57 84 139
-0.497148 0.223164 -0.013856 68 1 84
-0.495796 -0.261460 -0.030581 38 127 142
-0.599917 0.242493 0.244673 71 44 123
-0.594015 -0.205710 0.108763 42 118 142
0.160412 0.110033 -0.223641 41 120 142
-0.163346 -0.536525 -0.217574 49 100 141
0.684055 -0.146819 0.438195 52 95 141
0.490943 -0.311664 -0.024492 68 1 84
-0.562417 0.163892 0.109830 70 48 125
0.589142 0.123626 0.325337 68 1 84
0.541942 0.197339 0.096265 72 34 115
0.157959 0.171490 -0.237726 34 137 141
-0.428350 0.114704 -0.144955 60 78 138
-0.395070 0.268817 -0.129113 71 17 99
-0.155051 0.096720 -0.233416 81 196 104
0.301336 0.392888 -0.097692 68 1 84
0.161652 0.265461 -0.206699 71 24 106
0.561639 0.127794 0.099279 70 14 97
-0.493634 0.037021 -0.069939 71 42 121
0.721283 -0.220898 0.461761 51 96 141
-0.317253 -0.480968 -0.174317 50 98 141
0.636854 -0.030513 0.338412 52 95 141
-0.613992 0.031025 0.261984 49 101 141
0.075366 -0.308774 -0.309996 54 91 140
0.298875 -0.456466 -0.185245 57 85 139
-0.650163 -0.244376 0.425706 91 200 98
-0.639133 -0.438631 0.386064 30 151 138
0.468926 -0.567113 -0.164139 54 90 140
-0.396269 -0.008839 -0.172079 40 122 142
0.319297 -0.031227 -0.183256 61 75 137
0.540482 0.335144 0.265843 68 1 84
0.519289 0.392263 0.365705 68 1 84
-0.451178 0.114120 -0.122428 71 44 123
-0.636661 -0.563891 0.370674 100 203 93
-0.653235 -0.349925 0.415700 30 160 135
0.262400 -0.109791 -0.177875 47 105 141
-0.594376 0.186028 0.194573 48 103 141
-0.565393 0.320869 0.440987 34 137 141
-0.043369 -0.226896 -0.307995 47 106 141
0.650961 -0.113893 0.225850 43 116 142
-0.238662 -0.280944 -0.158537 49 102 141
0.621428 -0.036790 0.160447 49 102 141
0.504309 -0.184961 -0.049497 72 28 110
0.151832 -0.304872 -0.170189 72 32 113
0.196057 0.649926 -0.007494 68 1 84
0.727314 -0.264084 0.497955 42 118 142
0.518835 0.361115 0.456935 68 1 84
-0.459457 0.002034 -0.118157 71 39 119
0.521214 -0.435393 -0.094797 70 45 124
0.377226 0.438195 0.006190 68 1 84
0.352270 0.377743 -0.071234 68 1 84
0.152810 -0.053936 -0.266141 35 135 141
0.153172 -0.025676 -0.308732 30 152 138
0.069726 0.029801 -0.388489 186 222 39
-0.532005 0.403258 0.368545 71 42 121
-0.113370 -0.142744 -0.243249 30 157 136
-0.632349 -0.144755 0.301924 30 155 137
-0.057648 -0.072595 -0.425133 53 183 120
-0.248615 0.238043 -0.199212 60 78 138
0.023161 -0.369490 -0.281560 56 87 140
-0.464437 0.484348 0.095308 68 1 84
0.061347 -0.138374 -0.409490 39 125 142
-0.489955 0.071017 -0.073763 71 17 99
0.558125 0.290547 0.310427 68 1 84
0.610044 0.052697 0.545549 71 42 121
-0.629692 -0.420349 0.350570 33 167 132
-0.363725 0.128133 -0.181616 67 60 132
-0.551027 -0.396570 0.125419 61 187 116
0.732125 -0.372236 0.570466 39 125 142
-0.140203 0.512953 -0.259554 68 1 84
0.477598 -0.260979 -0.047371 68 1 84
0.628876 -0.291635 0.162331 66 61 132
0.526444 -0.362809 -0.022781 72 34 115
-0.066348 -0.050925 -0.428330 144 214 67
-0.570614 0.349489 0.268690 68 1 84
-0.529183 -0.165630 -0.027762 52 94 141
-0.600012 -0.390660 0.234921 31 146 140
-0.432194 -0.184151 -0.116634 65 66 134
0.312552 0.111777 -0.192423 53 92 140
0.471512 -0.028720 -0.101287 60 78 138
0.424492 0.273787 -0.067848 57 84 139
0.069717 -0.021175 -0.457168 162 218 55
-0.600199 0.266963 0.303087 62 73 137
0.584138 -0.485026 0.024629 72 34 115
0.601796 -0.026978 0.095959 39 124 142
0.237300 -0.506344 -0.233839 31 146 140
0.594497 -0.404972 0.069630 69 53 128
-0.610552 -0.043670 0.227485 37 131 141
-0.625998 -0.169430 0.222648 31 161 135
-0.513581 0.436520 0.317702 69 8 91
0.015167 -0.069375 -0.460285 124 210 79
0.464469 0.206965 -0.056589 71 24 106
0.002458 -0.562323 -0.273391 32 143 140
0.391418 -0.317312 -0.125089 69 54 129
0.571142 0.007578 0.036269 68 1 84
-0.408953 0.101380 -0.161366 64 68 135
-0.591269 0.224021 0.196125 62 73 137
0.501660 0.409585 0.406097 68 1 84
0.625835 -0.017275 0.250329 58 82 139
-0.595973 0.116323 0.195769 42 119 142
-0.275737 0.175782 -0.209969 65 65 134
0.129438 0.585699 -0.229815 68 1 84
-0.002521 -0.217744 -0.359490 64 68 135
0.535188 0.248712 0.132859 61 74 137
-0.596098 -0.572591 0.301853 205 224 29
-0.504460 0.397449 0.080292 68 1 84
-0.599922 0.112695 0.208861 46 107 142
0.649060 -0.103470 0.225766 49 100 141
0.431063 0.407674 0.055275 68 1 84
-0.441776 -0.375603 -0.016463 62 72 136
0.276068 0.616161 0.098009 68 1 84
-0.641163 -0.073859 0.527289 73 193 109
-0.472645 0.495020 0.221599 68 1 84
-0.114007 0.161582 -0.270733 126 210 78
-0.560680 -0.258132 0.061077 42 119 142
0.592494 0.069694 0.258503 68 1 84
-0.394891 0.362208 -0.091557 68 1 84
0.712244 -0.215125 0.449549 45 110 142
-0.651514 -0.505948 0.404263 43 177 125
0.013346 0.653212 -0.216464 68 1 84
-0.125882 -0.019034 -0.329768 165 218 53
0.122279 0.528934 -0.240085 68 1 84
-0.194059 0.518345 -0.230439 68 1 84
-0.236593 0.417637 -0.182438 68 1 84
0.518754 -0.511564 -0.115062 59 80 138
0.567385 -0.046842 0.009956 71 24 106
0.558906 -0.426973 -0.034629 71 22 105
-0.594822 -0.141794 0.099515 34 167 132
0.266710 0.114211 -0.198323 40 122 142
0.486211 0.410439 0.465632 68 1 84
0.547780 -0.543703 -0.063804 44 113 142
-0.151537 -0.501495 -0.191763 40 122 142
0.622047 0.024857 0.495388 68 55 129
0.099480 0.067102 -0.242566 42 117 142
0.570755 0.185976 0.549644 72 35 116
-0.602886 0.253633 0.293144 61 75 137
-0.617212 0.161621 0.388884 32 143 140
0.530105 -0.498920 -0.099237 67 58 131
0.230770 0.608309 -0.079325 68 1 84
0.178144 -0.078858 -0.210259 59 81 138
-0.617813 -0.212062 0.183221 31 161 135
-0.345695 0.551557 -0.032255 68 1 84
0.504356 -0.311838 -0.011466 70 11 94
-0.266656 0.090586 -0.210045 60 77 138
-0.644130 -0.119818 0.471676 54 184 119
0.220893 0.128282 -0.207694 46 107 142
0.314864 -0.111891 -0.160457 51 96 141
0.629291 -0.010387 0.521068 71 42 121
-0.151179 -0.203113 -0.195430 34 137 141
-0.643880 -0.202292 0.502180 44 177 125
0.682927 -0.263062 0.356507 56 87 140
-0.367554 0.336010 -0.125756 68 1 84
-0.136651 0.001294 -0.278885 173 220 48
-0.568636 0.341880 0.222923 71 21 103
0.501138 -0.012596 -0.072894 61 75 137
0.178663 -0.555005 -0.268126 36 170 130
0.569343 -0.394123 0.011626 71 17 99
0.427593 -0.097469 -0.125772 65 65 134
-0.254267 0.470845 -0.177765 68 1 84
-0.165188 0.475379 -0.233331 68 1 84
-0.545048 -0.532515 0.169306 43 115 142
-0.562631 -0.202410 0.037568 53 93 140
0.000443 -0.124903 -0.422344 36 134 141
-0.169913 -0.341876 -0.149428 51 97 141
-0.552048 0.300430 0.118668 71 20 102
0.338414 0.583907 0.139820 68 1 84
0.514587 -0.235742 -0.016755 68 1 84
-0.613631 0.048076 0.260951 42 119 142
-0.002410 0.040033 -0.430610 250 230 34
0.508672 -0.412808 -0.091614 70 49 126
0.172321 -0.095059 -0.216155 60 77 138
0.602462 0.054927 0.321062 72 26 108
-0.168885 0.075002 -0.221017 33 141 140
0.139205 -0.276935 -0.206935 70 45 124
-0.286818 0.570629 -0.115650 68 1 84
-0.129931 0.452391 -0.236120 68 1 84
-0.486796 0.052209 -0.079831 72 33 114
-0.122351 0.503972 -0.264683 68 1 84
-0.021296 0.407496 -0.245821 68 1 84
-0.650682 -0.336029 0.478611 54 184 119
0.382217 -0.221458 -0.124760 71 18 101
-0.202706 -0.426422 -0.154318 48 104 141
-0.116116 -0.198288 -0.222992 30 154 137
-0.300617 0.094248 -0.206554 63 69 135
-0.422644 0.390438 -0.047989 68 1 84
-0.202189 -0.360117 -0.151882 51 96 141
-0.410619 0.377826 -0.068024 68 1 84
-0.192289 -0.093199 -0.216549 47 105 141
0.539588 -0.368747 -0.010674 72 33 114
0.015259 0.478107 -0.270049 68 1 84
-0.139051 -0.588997 -0.260067 46 178 124
0.388878 0.550264 0.171467 68 1 84
0.079941 -0.099689 -0.423458 47 179 123
0.559267 0.233117 0.523249 68 1 84
0.150740 0.368626 -0.210874 68 1 84
0.550935 0.306140 0.427110 68 1 84
0.080539 0.025551 -0.385389 75 194 108
0.181492 0.365330 -0.186047 68 1 84
-0.047724 0.006655 -0.363330 178 221 44
-0.627583 -0.126792 0.276459 32 165 133
-0.427008 -0.062542 -0.141649 57 84 139
-0.466334 0.500755 0.184096 68 1 84
-0.478940 0.482533 0.153907 68 1 84
-0.259925 0.186779 -0.213144 58 83 139
0.568653 -0.447056 -0.022387 71 37 117
0.493437 -0.195013 -0.054191 72 33 114
0.401420 -0.507185 -0.197081 60 78 138
-0.532946 0.411095 0.288892 69 52 127
-0.552271 0.383503 0.260741 72 34 115
0.166224 -0.220499 -0.204114 69 54 129
0.251819 -0.474602 -0.191935 39 124 142
0.286779 0.610377 0.103374 68 1 84
0.131018 -0.513834 -0.261746 46 107 142
0.564265 0.275662 0.344383 68 1 84
-0.161888 -0.357427 -0.141838 58 83 139
-0.338557 -0.150533 -0.164890 50 99 141
-0.472465 0.212884 -0.061186 69 5 88
0.667710 -0.253228 0.281865 36 133 141
0.376347 -0.016726 -0.164625 56 86 139
-0.580175 0.041695 0.144100 53 92 140
0.483804 -0.100550 -0.088988 58 82 139
-0.288629 -0.446259 -0.146001 68 1 84
-0.351187 0.454395 -0.091800 68 1 84
-0.436314 -0.201018 -0.109147 63 71 136
-0.234313 -0.050230 -0.218975 73 193 109
0.084362 -0.118845 -0.405820 30 157 136
-0.617489 0.054983 0.280947 48 103 141
0.559734 -0.453617 -0.045583 67 60 132
0.657720 -0.125435 0.524232 54 90 140
-0.097964 0.013290 -0.260909 79 195 105
-0.653088 -0.307184 0.407280 62 188 115
0.219929 -0.283836 -0.149979 55 88 140
-0.601728 0.251944 0.366515 49 101 141
0.075314 0.576523 -0.265175 68 1 84
-0.607284 -0.401893 0.265135 50 181 122
0.429194 -0.001738 -0.135689 63 71 136
0.232423 -0.325957 -0.136285 56 86 139
-0.638013 -0.379905 0.354640 44 177 125
-0.307990 -0.397222 -0.130877 42 117 142
0.298012 0.360932 -0.115770 68 1 84
-0.653783 -0.270335 0.424898 37 171 129
-0.490313 0.457330 0.118419 68 1 84
-0.570506 0.325919 0.392124 51 97 141
-0.209456 -0.140470 -0.200195 47 105 141
0.540407 -0.407427 -0.049403 70 11 94
0.575212 0.208165 0.319792 68 1 84
-0.001289 -0.563587 -0.273294 32 143 140
0.173833 0.448493 -0.183363 68 1 84
-0.564690 -0.514483 0.211575 83 197 103
-0.151538 0.543256 -0.258446 68 1 84
0.537569 0.068876 0.001839 72 35 116
-0.022465 0.657992 -0.206003 68 1 84
-0.475741 0.015557 -0.098031 68 1 84
-0.383240 -0.167096 -0.146153 56 87 140
0.470236 0.116977 -0.086043 69 8 91
0.129154 -0.253471 -0.248119 49 102 141
-0.370225 -0.249084 -0.124547 56 86 139
-0.622582 0.078869 0.462387 35 135 141
0.287780 -0.094814 -0.174387 51 96 141
-0.554970 0.098877 0.073767 71 38 118
-0.464407 -0.230598 -0.076783 58 83 139
-0.602445 -0.013504 0.204160 38 129 142
-0.010046 -0.287845 -0.305825 51 97 141
-0.400182 0.553318 0.108681 68 1 84
0.443641 0.445061 0.107610 68 1 84
0.470995 0.042757 -0.099089 72 25 107
0.615724 -0.001825 0.199400 60 77 138
0.670504 -0.167757 0.583424 64 68 135
-0.367706 0.446448 -0.079288 68 1 84
-0.201795 0.400431 -0.200173 68 1 84
0.655867 -0.306203 0.241946 49 101 141
-0.499869 0.384284 0.061843 68 1 84
0.230741 -0.046748 -0.199611 49 100 141
0.089783 -0.086231 -0.421327 30 156 137
-0.622745 0.112258 0.398649 31 148 139
-0.576887 0.295495 0.191453 72 35 116
-0.584424 -0.569465 0.275131 109 206 88
-0.403910 0.301104 -0.110493 68 1 84
-0.181993 -0.094408 -0.217172 42 118 142
-0.337357 -0.475942 -0.159028 65 65 134
0.479448 -0.425832 -0.120849 61 76 137
0.701975 -0.257969 0.421226 33 140 141
0.316608 -0.378043 -0.137025 66 61 132
-0.216994 -0.178078 -0.182403 38 127 142
-0.495255 -0.541176 0.057242 30 153 138
-0.584396 0.318284 0.283105 68 1 84
-0.437712 0.501480 0.060433 68 1 84
0.491503 0.406208 0.454349 68 1 84
-0.266947 0.240283 -0.195001 64 67 135
-0.630261 0.035021 0.458033 32 145 140
0.399982 -0.549328 -0.215595 49 101 141
-0.122340 0.000520 -0.290622 105 204 91
-0.633458 -0.210703 0.253088 51 182 121
-0.293160 0.451583 -0.144148 68 1 84
0.431754 0.365633 0.025092 68 1 84
0.400674 -0.372852 -0.115006 70 47 124
-0.164290 -0.190357 -0.195324 36 134 141
0.075758 -0.215408 -0.357979 44 114 142
0.374823 -0.530685 -0.218521 58 82 139
0.597218 0.001160 0.099106 53 92 140
-0.395902 0.414745 -0.064548 68 1 84
-0.554754 0.168300 0.091625 71 39 119
0.133829 -0.481364 -0.248605 42 118 142
-0.462014 -0.586016 -0.012488 66 190 113
0.569295 0.253738 0.403636 68 1 84
0.175298 -0.125418 -0.215769 59 81 138
-0.657002 -0.524143 0.489259 89 199 100
0.592164 -0.448338 0.047350 71 15 98
0.313467 -0.203728 -0.149058 67 58 131
0.693089 -0.176820 0.452876 46 107 142
-0.623675 -0.539059 0.340969 37 171 129
0.261917 0.413537 -0.113314 68 1 84
0.146570 -0.178546 -0.245939 49 100 141
0.553439 -0.323082 0.035913 70 9 92
0.154618 -0.280058 -0.179993 69 5 88
0.620913 -0.393032 0.142506 59 81 138
-0.586494 0.025223 0.161576 49 101 141
-0.619546 0.149195 0.370801 34 138 141
-0.320041 -0.204557 -0.153546 58 83 139
0.334150 0.587672 0.147496 68 1 84
0.256627 -0.252466 -0.154568 40 122 142
0.605621 0.062944 0.581383 71 39 119
-0.473053 0.077044 -0.099402 68 1 84
0.615437 0.047617 0.513777 71 39 119
0.685520 -0.180888 0.387488 50 99 141
-0.232958 -0.144722 -0.192594 44 113 142
0.182396 -0.072359 -0.207270 66 62 133
0.355775 0.080139 -0.182736 69 53 128
0.563500 0.244365 0.484221 68 1 84
0.050760 -0.466457 -0.270465 63 71 136
0.263958 -0.263998 -0.153619 46 109 142
0.171572 -0.512031 -0.252218 30 152 138
0.090921 0.490755 -0.246771 68 1 84
0.163572 0.190298 -0.236630 49 100 141
0.643633 -0.095041 0.543629 64 68 135
-0.338234 0.497289 -0.090383 68 1 84
0.162380 0.131134 -0.228700 32 144 140
-0.524155 0.028721 -0.019515 64 68 135
0.248583 -0.567626 -0.262652 136 213 71
-0.083394 -0.543444 -0.255810 33 141 140
-0.644546 -0.212299 0.405738 100 203 93
0.098422 -0.545789 -0.273227 50 98 141
-0.609354 0.210818 0.282476 45 110 142
0.592211 -0.476594 0.047442 67 59 131
-0.068040 -0.119860 -0.349395 154 216 60
0.421320 0.515007 0.331070 68 1 84
0.258276 0.432324 -0.113532 68 1 84
-0.389851 -0.535727 -0.133579 34 139 141
0.503320 -0.380442 -0.065451 71 43 122
-0.271906 -0.549481 -0.198465 43 116 142
0.543945 0.023975 -0.007096 61 76 137
0.521546 0.392073 0.328797 68 1 84
0.575963 0.200562 0.507221 71 17 99
-0.552915 -0.138425 0.006704 34 137 141
-0.177155 -0.117185 -0.214442 51 97 141
0.642742 -0.203841 0.180739 54 90 140
0.622158 -0.226522 0.133635 59 80 138
-0.436978 -0.335439 -0.039537 39 125 142
-0.402065 -0.164569 -0.138682 59 81 138
-0.651659 -0.336843 0.422283 31 161 135
0.258730 0.318046 -0.137640 71 44 123
-0.544452 -0.455252 0.144158 91 200 98
-0.066834 -0.006895 -0.312003 109 206 88
0.484459 0.171021 -0.043156 72 34 115
-0.650487 -0.268015 0.332496 42 176 126
0.638546 -0.449093 0.165571 43 115 142
-0.645289 -0.242350 0.310369 33 167 132
0.425706 0.433816 0.066731 68 1 84
0.145111 -0.240818 -0.222262 63 71 136
0.366971 0.382998 -0.050527 68 1 84
-0.065722 0.621706 -0.253986 68 1 84
0.588968 -0.322346 0.085671 72 25 107
0.169581 -0.195058 -0.210802 65 66 134
-0.079365 -0.247571 -0.232721 61 187 116
-0.058885 -0.033957 -0.440447 139 213 70
-0.634541 -0.011800 0.410545 30 154 137
0.518210 -0.341416 -0.013302 71 24 106
0.404067 -0.034438 -0.147295 67 58 131
0.499289 0.049926 -0.063685 68 1 84
0.631021 -0.406009 0.162844 55 88 140
0.622731 -0.132628 0.123078 54 90 140
-0.553747 0.313546 0.130808 70 48 125
-0.351265 -0.177917 -0.154339 48 103 141
0.120257 0.434278 -0.215335 68 1 84
-0.435759 -0.239538 -0.094033 57 85 139
0.120341 -0.122089 -0.328237 30 156 137
0.210996 -0.250961 -0.157273 71 44 123
-0.113973 0.359987 -0.250299 71 15 98
0.608402 0.079155 0.457414 56 87 140
-0.495204 -0.095130 -0.075073 66 62 133
0.256404 -0.091816 -0.184729 50 99 141
0.186141 0.409336 -0.176222 68 1 84
0.510567 0.271484 0.089553 72 28 110
-0.243499 -0.522295 -0.198018 44 113 142
-0.091114 0.450069 -0.247337 68 1 84
-0.041293 0.593509 -0.272430 68 1 84
-0.050232 0.006693 -0.302755 79 195 105
-0.110666 0.145110 -0.267301 175 220 46
-0.079328 -0.274472 -0.209412 30 154 137
0.624286 -0.002491 0.569537 72 30 112
-0.421221 0.474412 0.001980 68 1 84
-0.504579 0.403881 0.085861 68 1 84
0.527866 -0.535901 -0.097992 53 92 140
0.720931 -0.361433 0.477065 34 167 132
0.585395 -0.426192 0.029270 71 40 120
0.533875 0.272765 0.161837 61 74 137
0.378001 0.426941 -0.001044 68 1 84
0.210185 0.372000 -0.160327 68 1 84
0.504933 -0.286770 -0.009238 69 5 88
0.607847 -0.237204 0.107267 70 47 124
-0.469485 0.151208 -0.089644 71 44 123
-0.320960 -0.611710 -0.195959 40 174 127
-0.393652 -0.503896 -0.122566 42 117 142
-0.464739 0.229254 -0.066120 71 22 105
0.375962 -0.390191 -0.133704 72 28 110
-0.608280 0.223495 0.291723 45 110 142
-0.551244 -0.175769 0.008103 49 100 141
-0.415996 -0.417753 -0.043169 67 59 131
0.370000 -0.509552 -0.208351 70 49 126
-0.234502 0.521245 -0.196778 68 1 84
0.006391 0.063918 -0.370243 139 213 70
0.147818 -0.414795 -0.191904 63 71 136
-0.645722 -0.570490 0.396267 151 216 62
0.460756 0.479524 0.297379 68 1 84
-0.217716 -0.434061 -0.154409 56 87 140
-0.232948 -0.063583 -0.217792 71 192 110
0.070425 -0.460905 -0.269193 65 65 134
0.675151 -0.149683 0.320070 42 117 142
-0.203813 -0.285088 -0.160158 44 112 142
0.436375 0.506295 0.203780 68 1 84
-0.277278 -0.399181 -0.143470 69 53 128
0.535425 0.325129 0.462529 68 1 84
0.350289 0.355757 -0.087834 68 1 84
0.092659 0.607733 -0.244247 68 1 84
0.650289 -0.066457 0.410627 49 100 141
-0.474680 -0.031773 -0.099100 70 45 124
0.622716 -0.212265 0.131746 57 84 139
0.590218 -0.146578 0.050857 72 32 113
0.566261 -0.169270 0.017059 69 8 91
-0.418585 0.470393 -0.004905 68 1 84
-0.552886 0.183555 0.089523 71 42 121
-0.624051 0.105191 0.364959 32 143 140
-0.613252 -0.389639 0.273394 33 167 132
-0.318465 -0.111641 -0.182158 50 99 141
-0.531662 -0.606239 0.152817 35 135 141
0.562901 0.012414 0.021322 71 18 101
-0.278253 0.191060 -0.208150 64 68 135
0.104521 -0.321499 -0.273068 58 83 139
0.423943 0.454458 0.082311 70 11 94
0.102303 -0.107692 -0.385796 39 125 142
0.011058 -0.176632 -0.389101 42 117 142
-0.320980 0.588794 0.001408 68 1 84
0.426604 0.125832 -0.132360 69 52 127
0.349755 -0.228516 -0.139823 70 47 124
-0.483004 0.482130 0.188465 68 1 84
0.391822 0.373727 -0.025015 68 1 84
0.573212 0.150961 0.242873 72 32 113
0.198476 0.396102 -0.168129 68 1 84
-0.383723 0.242457 -0.145267 71 37 117
0.486104 0.428667 0.193420 72 34 115
-0.477659 0.489478 0.214547 68 1 84
0.096254 0.019723 -0.368519 112 206 86
-0.606036 0.228728 0.273238 71 42 121
-0.635038 -0.107337 0.349686 31 148 139
0.710477 -0.471409 0.333466 31 147 139
-0.449181 -0.434500 -0.017088 64 68 135
-0.024952 0.360979 -0.262868 62 72 136
-0.177756 -0.063837 -0.215775 38 129 142
-0.316323 0.560438 -0.074244 68 1 84
0.028458 -0.267095 -0.339686 69 53 128
-0.625594 -0.494646 0.342263 33 166 133
0.637252 -0.486234 0.150321 32 143 140
0.527656 -0.259125 0.007573 68 1 84
-0.345592 -0.134781 -0.167749 64 67 135
0.461518 0.474748 0.208591 68 1 84
-0.043555 0.333113 -0.274511 55 89 140
0.521510 -0.378547 -0.046018 72 35 116
-0.553234 -0.237464 0.036360 42 119 142
0.241978 0.125387 -0.203051 47 105 141
-0.106713 0.575107 -0.272245 68 1 84
0.553322 -0.000772 -0.001088 43 116 142
-0.602004 -0.092118 0.137159 30 155 137
0.225718 -0.113968 -0.190443 54 90 140
-0.529758 -0.034844 -0.022550 41 120 142
0.276342 0.296185 -0.147245 58 82 139
-0.394981 0.558508 0.111156 68 1 84
0.554475 0.184932 0.147055 62 72 136
0.138929 0.454910 -0.206162 68 1 84
0.562191 0.228744 0.520013 68 1 84
-0.054848 -0.011975 -0.438962 134 212 73
-0.169717 0.546181 -0.247771 68 1 84
-0.434103 -0.426870 -0.030135 58 82 139
-0.462653 -0.472906 -0.016402 65 65 134
0.466406 0.153279 -0.079528 70 14 97
0.157992 0.265157 -0.209765 71 39 119
0.591442 0.113933 0.571841 71 39 119
0.509973 0.152966 -0.005796 68 1 84
0.331044 0.247239 -0.151199 56 87 140
0.162228 -0.419563 -0.174243 66 64 133
0.122347 -0.298709 -0.231858 56 86 139
-0.204327 -0.039801 -0.217410 32 143 140
0.715618 -0.448903 0.367975 39 126 142
0.213753 -0.393765 -0.134609 70 45 124
-0.144180 0.266820 -0.221618 65 65 134
-0.430542 0.313579 -0.075495 68 1 84
0.023799 0.660513 -0.202421 68 1 84
-0.006467 0.491807 -0.278670 68 1 84
0.301291 0.288961 -0.146339 71 18 101
0.136916 -0.322715 -0.187403 71 24 106
-0.635719 -0.039233 0.396004 31 149 139
-0.301837 0.129636 -0.204241 61 76 137
0.645013 -0.239277 0.195282 51 97 141
0.580050 0.203677 0.385603 69 5 88
0.507385 0.410446 0.258940 68 1 84
0.706916 -0.210365 0.508763 44 112 142
-0.633636 -0.329837 0.289112 30 153 138
0.586476 -0.354719 0.073122 71 17 99
