ply
format ascii 1.0
element vertex 1283
property float x
property float y
property float z
property uchar red
property uchar green
property uchar blue
end_header
-0.571035 0.031078 0.168050 71 21 103
-0.294816 -0.153084 -0.180373 71 20 102
-0.192899 -0.221241 -0.188847 68 1 84
0.166025 -0.422861 -0.277503 68 1 84
-0.302794 -0.280614 -0.164797 71 15 98
0.432100 0.067135 -0.098980 68 1 84
0.594724 0.003311 0.508236 72 26 108
-0.457386 0.108610 -0.055211 72 35 116
-0.397115 -0.380852 -0.193188 68 1 84
0.080900 -0.041838 -0.392024 48 104 141
-0.679840 -0.413073 0.454980 68 1 84
-0.562219 0.191958 0.501122 61 76 137
-0.182370 -0.438964 -0.320890 67 58 131
-0.668788 -0.397164 0.374035 68 1 84
0.097701 0.290430 -0.280733 68 1 84
0.595190 0.018680 0.468913 71 24 106
0.492099 -0.031653 -0.053869 68 1 84
-0.235937 0.101748 -0.219274 47 105 141
-0.226837 0.608960 0.069205 68 1 84
0.600409 -0.294944 0.115617 68 1 84
0.608777 -0.026067 0.451356 68 1 84
0.538923 -0.062179 0.017918 68 1 84
-0.599145 -0.522293 0.105500 68 1 84
-0.214952 0.607396 -0.024648 72 33 114
0.461207 0.105011 -0.042624 68 1 84
0.575879 -0.090253 0.134753 68 1 84
-0.517559 0.299933 0.306105 70 45 124
0.098186 0.140286 -0.299584 68 1 84
-0.556124 0.151003 0.558877 46 109 142
0.460141 0.409535 0.326308 68 1 84
0.107479 -0.023466 -0.351909 59 81 138
-0.071867 0.268595 -0.308615 33 141 140
0.133584 0.110246 -0.265269 69 5 88
0.276466 -0.288562 -0.180210 68 1 84
0.406183 -0.359797 -0.106089 68 1 84
0.041068 0.294104 -0.294156 67 60 132
0.570822 -0.537320 0.067423 68 1 84
0.612634 -0.321920 0.137197 68 1 84
0.664485 -0.323842 0.287521 68 1 84
0.577943 -0.497379 0.084570 68 1 84
-0.497266 0.126645 0.034812 70 12 95
-0.106431 0.086541 -0.289417 34 139 141
0.200029 0.196804 -0.257183 71 17 99
0.325427 0.486419 0.028882 68 1 84
-0.682687 -0.513228 0.375825 68 1 84
-0.677605 -0.390291 0.468990 68 1 84
-0.287088 0.509281 -0.020824 65 65 134
0.050399 0.573926 -0.205707 67 58 131
0.429147 0.231927 -0.025754 68 1 84
0.064088 -0.118938 -0.348039 69 6 90
0.159097 -0.091253 -0.244190 68 1 84
-0.624751 -0.494550 0.183167 68 1 84
0.508492 -0.004628 -0.015099 68 1 84
0.454351 0.190497 0.002363 68 1 84
0.003930 -0.445285 -0.344981 57 85 139
-0.574094 0.140572 0.491240 57 85 139
0.499862 0.091659 0.033854 68 1 84
-0.440959 0.163000 -0.046838 70 45 124
0.389009 0.340838 -0.019008 68 1 84
-0.455609 0.380087 0.204115 68 1 84
0.707969 -0.461740 0.356287 68 1 84
-0.142549 0.494756 -0.175058 44 112 142
-0.488359 0.231118 0.127249 71 17 99
-0.344016 0.515615 0.166421 68 1 84
-0.415810 -0.405739 -0.184265 68 1 84
-0.107479 0.420803 -0.205797 62 73 137
-0.442270 0.047215 -0.097935 72 25 107
-0.688888 -0.546304 0.409301 68 1 84
0.480179 0.313642 0.168932 68 1 84
-0.425157 -0.218168 -0.109476 68 1 84
-0.458726 0.402174 0.292646 70 9 92
-0.149297 -0.387138 -0.253197 68 1 84
0.080685 0.256021 -0.306655 61 74 137
0.022930 -0.205398 -0.372840 57 84 139
-0.554796 0.077096 0.157001 71 40 120
0.313365 0.508327 0.032194 68 1 84
0.070210 0.155737 -0.319520 62 73 137
0.305263 0.547505 0.179417 68 1 84
0.460786 0.182649 0.011986 68 1 84
0.298893 -0.485936 -0.273513 72 33 114
0.111632 0.023747 -0.347545 71 37 117
0.049684 0.339568 -0.300811 71 20 102
0.068453 0.598620 -0.188520 68 1 84
0.644604 -0.183987 0.444935 68 1 84
-0.253275 0.045284 -0.208747 52 94 141
0.421990 -0.441911 -0.175657 68 1 84
-0.559502 -0.451315 0.003415 68 1 84
-0.100160 0.626080 -0.156794 72 32 113
0.353435 0.503146 0.150340 68 1 84
0.575162 0.040609 0.246685 68 1 84
-0.419765 -0.156582 -0.131529 68 1 84
-0.038989 -0.342338 -0.324567 65 66 134
-0.086795 0.139651 -0.309126 30 156 137
-0.169029 -0.212223 -0.212555 68 1 84
-0.601079 -0.429701 0.105142 68 1 84
-0.301423 0.124010 -0.192515 65 66 134
0.117964 0.563481 -0.177752 68 1 84
-0.540894 -0.340102 -0.003476 68 1 84
0.542227 -0.269726 -0.001140 68 1 84
-0.599185 -0.271983 0.086486 68 1 84
-0.418184 0.307310 0.027735 71 15 98
0.536159 0.254906 0.504044 68 1 84
-0.657360 -0.194318 0.493583 70 12 95
0.701268 -0.482316 0.304855 68 1 84
-0.087488 0.008927 -0.455623 89 199 100
0.021391 0.040193 -0.346535 48 103 141
-0.184171 0.616790 -0.081078 72 33 114
0.001771 0.447145 -0.218539 72 32 113
-0.672768 -0.483291 0.336943 68 1 84
-0.536647 -0.486131 -0.052001 68 1 84
-0.348742 0.151131 -0.157380 43 116 142
-0.272134 -0.210580 -0.171807 70 11 94
-0.663565 -0.194402 0.433852 68 1 84
-0.507728 -0.175632 -0.064565 68 1 84
0.114967 0.069546 -0.259009 68 1 84
-0.625311 -0.114828 0.252111 68 1 84
0.525419 0.009156 0.034701 68 1 84
-0.690966 -0.555166 0.429510 68 1 84
0.416760 0.245069 -0.043547 68 1 84
-0.610154 -0.000458 0.373760 66 61 132
-0.033798 -0.093957 -0.465598 246 230 31
0.375993 0.267263 -0.094337 68 1 84
-0.442309 -0.222951 -0.097196 68 1 84
-0.631230 -0.181380 0.228797 68 1 84
-0.206454 -0.224344 -0.182435 68 1 84
0.399734 0.470845 0.251397 68 1 84
-0.515065 -0.272750 -0.027172 68 1 84
-0.116858 0.033710 -0.371602 34 139 141
0.049854 -0.283795 -0.293097 68 1 84
0.721258 -0.480152 0.449035 68 1 84
0.510730 -0.481648 -0.064591 68 1 84
-0.152371 -0.200985 -0.243648 68 3 87
0.643862 -0.165802 0.392589 68 1 84
-0.171134 -0.174005 -0.238478 72 34 115
-0.209370 0.610609 -0.031657 70 14 97
0.332795 0.211772 -0.162948 68 1 84
-0.369225 0.235500 -0.112704 72 34 115
-0.055971 -0.075681 -0.467499 202 224 30
0.429081 0.356236 0.090578 68 1 84
0.112505 -0.388577 -0.255254 68 1 84
0.302735 -0.382699 -0.237127 68 1 84
0.387351 0.015883 -0.149827 68 1 84
0.614106 -0.302192 0.150869 68 1 84
-0.496689 0.304231 0.228175 68 57 130
0.470857 0.264100 0.100335 68 1 84
0.169781 0.260183 -0.260001 68 1 84
-0.336458 0.384863 -0.051431 68 1 84
-0.668109 -0.231237 0.377235 68 1 84
-0.390311 -0.003087 -0.150306 67 58 131
-0.157180 -0.180118 -0.250643 69 53 128
0.007898 0.577406 -0.208455 63 69 135
0.331598 0.293032 -0.130573 68 1 84
-0.072124 0.664349 -0.089065 68 1 84
-0.343867 -0.053327 -0.175640 71 39 119
-0.372912 0.424198 0.061276 68 1 84
0.487911 -0.015831 -0.054170 68 1 84
-0.222884 -0.414635 -0.252743 69 8 91
-0.342944 0.513036 0.146292 68 1 84
0.501301 0.175963 0.109030 68 1 84
-0.615417 -0.226836 0.136608 68 1 84
-0.132435 0.078896 -0.278888 33 140 141
0.545311 -0.059213 0.036393 68 1 84
0.572265 0.034862 0.229261 68 1 84
-0.543448 -0.533331 -0.030756 68 1 84
0.236472 0.524158 -0.079792 68 1 84
0.589686 0.048988 0.350530 68 1 84
0.458500 -0.413106 -0.119123 68 1 84
0.189746 -0.236140 -0.180277 68 1 84
-0.251896 0.330941 -0.161500 71 21 103
-0.045900 0.503433 -0.218851 39 125 142
0.687344 -0.389693 0.472614 68 1 84
-0.327373 0.532732 0.236126 68 1 84
-0.107489 -0.451106 -0.339871 69 52 127
0.325409 -0.365140 -0.169183 68 1 84
-0.414618 0.241472 -0.040621 70 9 92
0.590069 0.024814 0.317279 68 1 84
-0.295289 0.557797 0.196336 68 1 84
-0.156889 0.110561 -0.255948 55 89 140
-0.489428 -0.064935 -0.084049 68 1 84
0.630695 -0.528724 0.207699 68 1 84
-0.206334 0.535024 -0.115860 48 104 141
0.512205 -0.231249 -0.042482 68 1 84
0.423439 -0.281776 -0.096963 68 1 84
0.489282 -0.085477 -0.071587 68 1 84
-0.298398 -0.233075 -0.163202 68 1 84
0.122927 0.408329 -0.205818 68 1 84
-0.668875 -0.378400 0.350410 68 1 84
-0.467414 -0.013072 -0.093609 68 3 87
0.482641 0.249060 0.115446 68 1 84
0.277171 0.156909 -0.207317 68 1 84
0.125153 0.455485 -0.184526 72 33 114
-0.607047 -0.473941 0.124970 68 1 84
-0.324569 0.477423 0.020760 72 32 113
0.068127 -0.035952 -0.428210 41 121 142
-0.115058 -0.326954 -0.199968 68 1 84
0.287554 0.552627 0.051461 68 1 84
-0.535221 -0.517503 -0.049737 68 1 84
-0.258069 0.538756 -0.045154 57 85 139
-0.374680 -0.328541 -0.136170 68 1 84
-0.129319 0.405876 -0.204483 71 24 106
-0.604657 0.030615 0.420115 68 55 129
0.371943 0.321292 -0.068396 68 1 84
0.608225 -0.012734 0.421273 68 1 84
0.426620 0.233424 -0.030233 68 1 84
-0.683772 -0.516883 0.380707 68 1 84
-0.576294 -0.379560 0.044320 68 1 84
-0.054755 -0.219579 -0.384084 34 167 132
-0.286390 0.509097 -0.022329 65 66 134
0.566890 -0.190359 0.042301 68 1 84
-0.007578 0.306556 -0.300054 65 65 134
0.128211 0.047222 -0.269709 68 1 84
0.575388 -0.570903 0.071437 68 1 84
-0.177550 0.236526 -0.285403 32 145 140
-0.193106 0.625956 0.002176 68 1 84
-0.583984 0.013781 0.221937 68 1 84
0.418070 -0.240751 -0.110418 68 1 84
-0.557460 0.201558 0.369171 70 48 125
0.447016 0.392646 0.182802 68 1 84
-0.187217 0.564423 -0.126635 39 124 142
-0.084243 0.034793 -0.435614 43 177 125
0.088321 0.095307 -0.278611 69 8 91
0.625610 -0.308671 0.187197 68 1 84
0.567193 -0.257761 0.037413 68 1 84
-0.032641 0.061765 -0.437331 48 103 141
0.589327 0.050325 0.349280 68 1 84
-0.350780 -0.342404 -0.148858 68 1 84
-0.596098 -0.146210 0.082982 68 1 84
-0.674473 -0.517625 0.331267 68 1 84
0.474486 0.389807 0.359279 68 1 84
-0.514673 -0.180142 -0.056276 68 1 84
0.172048 0.617748 -0.082433 68 1 84
-0.613804 -0.021448 0.355958 68 1 84
-0.258616 -0.452769 -0.280860 58 82 139
-0.593998 -0.147375 0.074903 68 1 84
-0.360329 0.158318 -0.145524 49 100 141
0.737621 -0.554424 0.269348 68 1 84
-0.368851 0.431975 0.062156 68 1 84
0.414059 -0.387357 -0.139813 68 1 84
0.083448 0.037642 -0.324968 71 40 120
0.577631 0.134334 0.383041 68 1 84
0.412948 0.331891 0.023168 68 1 84
0.309730 -0.250599 -0.163550 68 1 84
0.684586 -0.386122 0.397578 68 1 84
0.266844 -0.465542 -0.272917 72 26 108
-0.519942 0.135870 0.106827 72 26 108
-0.133699 0.364092 -0.226516 55 89 140
0.387170 0.248952 -0.088310 68 1 84
0.463756 -0.548211 -0.143578 68 1 84
0.211207 0.398073 -0.160245 68 1 84
-0.616629 -0.223112 0.141370 68 1 84
0.429596 0.228490 -0.027034 68 1 84
0.487126 -0.506035 -0.103125 68 1 84
0.582933 0.076455 0.477656 68 1 84
0.518340 0.321854 0.360863 68 1 84
0.125059 -0.035861 -0.304775 66 64 133
-0.036116 -0.091664 -0.466127 253 231 36
-0.533685 0.165646 0.191325 71 39 119
-0.635836 -0.540100 0.209341 68 1 84
-0.637646 -0.287529 0.188191 68 1 84
-0.114389 0.138178 -0.293608 42 117 142
0.598784 -0.057491 0.283592 68 1 84
-0.319177 0.511941 0.054115 68 1 84
-0.644048 -0.388781 0.203929 68 1 84
0.430932 0.436349 0.229557 68 1 84
-0.533301 0.118670 0.128644 71 44 123
0.019347 -0.381736 -0.321494 70 49 126
-0.179586 0.532281 -0.142568 47 105 141
-0.112860 -0.121178 -0.344680 47 105 141
-0.109673 -0.074144 -0.403136 77 194 107
-0.582344 0.104554 0.480487 56 87 140
-0.158522 0.055497 -0.286846 62 72 136
-0.196680 -0.454740 -0.323303 65 66 134
-0.528580 0.116897 0.110718 71 37 117
0.313326 -0.381679 -0.231997 68 1 84
-0.156286 -0.349190 -0.187069 68 1 84
0.436156 0.436707 0.305306 68 1 84
0.411766 0.457118 0.230705 68 1 84
0.137161 -0.473399 -0.336427 65 65 134
-0.039695 0.627639 -0.170581 68 1 84
0.490372 -0.228508 -0.063795 68 1 84
0.058361 -0.143392 -0.346039 69 8 91
0.172688 -0.359941 -0.184029 68 1 84
0.102689 0.097514 -0.271269 68 1 84
0.352207 -0.424859 -0.223398 68 1 84
-0.300908 -0.120566 -0.185616 72 25 107
0.496966 0.084944 0.020483 68 1 84
-0.479851 -0.535218 -0.151468 68 1 84
-0.666429 -0.265782 0.316851 68 1 84
0.383817 0.397073 0.041625 68 1 84
0.404366 -0.358302 -0.105995 68 1 84
-0.553559 0.106493 0.194480 71 37 117
0.016467 -0.273120 -0.349481 52 95 141
0.652760 -0.285339 0.311223 68 1 84
-0.490443 -0.365958 -0.068994 68 1 84
-0.306758 0.549126 0.201378 68 1 84
-0.371309 -0.331095 -0.137914 68 1 84
0.113288 -0.229707 -0.237218 68 1 84
-0.420790 0.206608 -0.052767 72 32 113
-0.211197 -0.002373 -0.223262 65 65 134
0.447291 0.407354 0.209105 68 1 84
-0.433903 0.389346 0.159694 72 29 111
0.576159 0.010974 0.230536 68 1 84
0.482997 -0.234624 -0.068008 68 1 84
-0.552825 0.133730 0.225770 71 38 118
0.184858 0.355734 -0.194280 68 1 84
0.046192 0.104261 -0.307926 72 29 111
-0.373562 -0.475895 -0.240160 68 3 87
-0.555808 0.043316 0.106407 70 12 95
-0.398486 -0.006348 -0.145491 68 55 129
-0.080650 -0.309939 -0.291105 72 25 107
-0.433418 0.432047 0.370216 68 1 84
0.118667 0.435306 -0.194276 69 50 127
0.408136 0.381598 0.075946 68 1 84
0.301643 0.263069 -0.171209 68 1 84
0.724063 -0.510353 0.329360 68 1 84
-0.199897 -0.100543 -0.232969 66 64 133
0.397515 0.461111 0.181771 68 1 84
0.548170 -0.092777 0.025260 68 1 84
0.586276 0.084971 0.431751 68 1 84
0.015167 0.078854 -0.332544 71 42 121
-0.561946 0.187584 0.374293 68 57 130
0.405932 0.273606 -0.044953 68 1 84
0.009767 -0.003007 -0.485092 81 196 104
0.290013 0.178118 -0.201132 68 1 84
0.023674 0.669032 -0.077646 68 1 84
-0.155144 -0.423247 -0.312456 68 1 84
-0.003051 0.071012 -0.407341 67 60 132
0.449665 -0.242867 -0.089541 68 1 84
0.104167 -0.079673 -0.306630 68 2 85
-0.142666 0.487045 -0.175378 45 111 142
-0.537527 0.263635 0.464652 68 57 130
-0.608573 -0.191285 0.118240 68 1 84
-0.463262 -0.021423 -0.099323 68 1 84
-0.110954 0.425737 -0.202458 61 76 137
0.397969 0.413143 0.094565 68 1 84
0.199350 -0.466005 -0.319427 71 20 102
-0.601435 -0.120249 0.118186 68 1 84
0.405381 0.232685 -0.069942 68 1 84
-0.343904 0.506117 0.124699 68 1 84
0.624853 -0.109618 0.359130 68 1 84
-0.128488 -0.142002 -0.301405 52 95 141
-0.543091 0.096126 0.135224 70 45 124
-0.402498 0.069215 -0.127776 71 37 117
-0.293523 0.522344 0.005513 68 3 87
-0.453168 0.293109 0.097093 70 9 92
-0.282150 -0.472378 -0.287518 62 73 137
0.048984 -0.314714 -0.279867 68 1 84
0.338397 0.521769 0.234119 68 1 84
-0.595092 -0.242272 0.075044 68 1 84
0.572552 -0.221457 0.050923 68 1 84
0.162705 0.488722 -0.157946 70 9 92
-0.227412 0.438480 -0.125931 58 82 139
-0.598625 -0.129473 0.098736 68 1 84
0.056333 0.627115 -0.168719 68 1 84
0.192897 -0.383767 -0.222377 68 1 84
0.611378 -0.139834 0.252924 68 1 84
0.427024 0.350061 0.077595 68 1 84
-0.244621 -0.254478 -0.171150 68 1 84
0.404746 0.389001 0.078722 68 1 84
0.473270 -0.506710 -0.129666 68 1 84
-0.563648 -0.021948 0.047313 68 1 84
0.269197 0.083798 -0.207098 68 1 84
0.303390 -0.267146 -0.169389 69 8 91
-0.471271 -0.158580 -0.098310 68 1 84
-0.073271 0.165382 -0.324124 79 195 105
-0.460337 0.393661 0.447978 71 21 103
-0.490289 0.344431 0.494523 70 48 125
0.385819 0.482875 0.259244 68 1 84
-0.200241 -0.141840 -0.226221 61 74 137
-0.142136 0.337220 -0.251642 68 55 129
-0.281887 0.361508 -0.129273 71 40 120
-0.444396 0.161536 -0.042262 72 33 114
-0.580768 -0.536487 0.054644 68 1 84
-0.600283 -0.010376 0.288714 71 17 99
0.595741 0.006655 0.483063 71 17 99
-0.161371 -0.043609 -0.287839 58 83 139
0.323988 -0.039206 -0.187044 68 1 84
-0.670281 -0.234535 0.361086 68 1 84
-0.538577 0.097288 0.120696 71 44 123
-0.549453 0.081740 0.140307 69 53 128
-0.473651 0.379070 0.450321 71 40 120
0.582734 0.109341 0.397910 68 1 84
-0.017223 0.366776 -0.260259 68 1 84
-0.681419 -0.336149 0.366839 68 1 84
0.447364 0.242279 0.023911 68 1 84
0.467429 0.373874 0.207066 68 1 84
0.042773 0.024240 -0.351423 46 107 142
-0.452211 -0.389956 -0.134501 68 1 84
0.615498 -0.048555 0.516127 71 24 106
-0.195790 0.623474 -0.010249 68 1 84
-0.012219 -0.314970 -0.339927 50 98 141
-0.371923 0.495006 0.229687 68 1 84
0.353529 0.447954 0.040146 68 1 84
-0.140292 -0.204191 -0.258383 71 21 103
0.703172 -0.474960 0.315414 68 1 84
-0.556615 0.211335 0.481982 60 77 138
-0.438399 -0.426561 -0.173242 68 1 84
-0.221770 0.376882 -0.161330 64 68 135
-0.179518 0.413514 -0.174722 57 85 139
0.111437 -0.246899 -0.222682 68 1 84
0.328835 0.474142 0.021519 68 1 84
0.405166 -0.284056 -0.111181 68 1 84
0.491728 0.079765 0.003518 68 1 84
-0.668302 -0.553388 0.298379 68 1 84
-0.295723 0.447536 -0.049804 68 1 84
-0.629339 -0.066966 0.381753 70 12 95
-0.210616 0.617116 0.026930 68 1 84
-0.570754 -0.355470 0.034769 68 1 84
-0.526133 -0.493098 -0.074913 68 1 84
0.547975 -0.460950 0.016438 68 1 84
0.593011 -0.546460 0.117426 68 1 84
-0.092829 0.195329 -0.329943 43 177 125
-0.203909 -0.431152 -0.293632 72 25 107
0.566887 0.121826 0.521198 72 28 110
-0.576730 0.120113 0.327631 71 37 117
-0.532494 0.272901 0.347612 65 66 134
0.269205 -0.000266 -0.209540 69 6 90
0.031052 0.544581 -0.217014 61 74 137
-0.159730 0.478511 -0.165215 47 106 141
-0.121392 0.577836 -0.178578 41 120 142
0.305308 -0.120046 -0.184695 68 1 84
-0.116519 0.272467 -0.289257 42 119 142
0.247597 -0.465099 -0.282737 71 43 122
-0.576314 0.029781 0.200058 68 1 84
0.162057 0.364224 -0.208339 68 1 84
-0.653863 -0.411678 0.251269 68 1 84
0.481094 0.354644 0.219108 68 1 84
0.041594 -0.122119 -0.388552 62 73 137
-0.110000 0.323654 -0.285134 52 94 141
0.408693 0.194837 -0.083145 68 1 84
0.701136 -0.466653 0.315354 68 1 84
0.693729 -0.414360 0.488210 68 1 84
-0.677201 -0.295641 0.382426 68 1 84
-0.409976 -0.411340 -0.191171 68 1 84
-0.584914 0.042709 0.539096 61 75 137
0.400217 0.394085 0.075115 68 1 84
0.714326 -0.463986 0.414821 68 1 84
0.453136 -0.008147 -0.095680 68 1 84
-0.328795 -0.206502 -0.156872 68 1 84
-0.046555 -0.171405 -0.409569 59 186 117
-0.603483 -0.338622 0.101018 68 1 84
-0.614761 -0.437427 0.146306 68 1 84
0.004257 0.387235 -0.238119 68 1 84
-0.472525 0.185844 0.039556 68 1 84
0.393963 0.475144 0.240959 68 1 84
0.139915 0.354210 -0.232219 68 1 84
0.005506 0.190328 -0.333553 40 122 142
0.058686 0.518026 -0.213928 71 38 118
0.614911 -0.525615 0.170180 68 1 84
0.380696 -0.342207 -0.121303 68 1 84
0.572268 -0.091572 0.113837 68 1 84
-0.097306 0.656270 -0.109003 68 1 84
0.234040 -0.435210 -0.260210 68 1 84
0.012263 0.493692 -0.220278 42 118 142
-0.100417 -0.373587 -0.286597 68 1 84
-0.544733 -0.383531 -0.006394 68 1 84
-0.468271 0.118507 -0.031999 68 1 84
0.291899 -0.332969 -0.172966 68 1 84
-0.211299 0.528252 -0.112150 44 114 142
0.478540 -0.296733 -0.051043 68 1 84
0.023762 0.581244 -0.206111 71 38 118
-0.493709 0.339875 0.280652 63 71 136
-0.671595 -0.245992 0.340259 68 1 84
-0.284361 -0.091990 -0.196682 67 58 131
-0.557449 0.157066 0.269094 72 34 115
-0.137498 0.267456 -0.287256 32 145 140
0.083506 -0.286306 -0.222077 68 1 84
0.348800 -0.218177 -0.151346 68 1 84
0.609627 -0.038447 0.492770 71 15 98
0.524151 -0.126666 -0.031226 68 1 84
-0.067347 -0.434954 -0.339056 60 77 138
0.436447 -0.418663 -0.148915 68 1 84
-0.217827 0.601752 -0.036065 68 3 87
-0.107014 -0.203352 -0.311005 44 112 142
-0.363745 -0.363924 -0.160364 68 1 84
0.183556 0.177381 -0.265422 68 1 84
0.523813 -0.306130 -0.014260 68 1 84
-0.288561 0.563790 0.152772 68 1 84
-0.594722 0.068479 0.440246 60 77 138
-0.533288 0.002872 -0.002331 68 1 84
-0.331897 0.521160 0.126716 68 1 84
-0.295146 0.197652 -0.198786 46 109 142
0.337123 0.018082 -0.181607 68 1 84
-0.519973 -0.169904 -0.053210 68 1 84
0.566180 0.039988 0.206660 68 1 84
-0.676758 -0.310297 0.404350 68 1 84
-0.574337 -0.190677 0.026489 68 1 84
-0.183294 0.535699 -0.138757 47 106 141
0.558912 0.088770 0.215579 68 1 84
-0.006848 -0.452435 -0.346435 50 98 141
-0.565968 0.166526 0.331191 69 54 129
0.475071 -0.169209 -0.090568 68 1 84
0.558374 -0.452004 0.036950 68 1 84
0.396058 0.471347 0.221868 68 1 84
0.664941 -0.370337 0.280791 68 1 84
0.468282 -0.545923 -0.135116 68 1 84
-0.392408 -0.090709 -0.151069 69 50 127
0.490526 -0.538072 -0.092586 68 1 84
0.500066 0.189044 0.116337 68 1 84
0.571121 0.154014 0.457194 68 1 84
0.408285 0.168218 -0.094853 68 1 84
0.343531 0.352810 -0.080787 68 1 84
-0.129004 0.403179 -0.205905 71 24 106
0.670668 -0.350357 0.395110 68 1 84
0.316410 0.474116 -0.001299 68 1 84
0.437596 0.347754 0.100367 68 1 84
0.501721 0.335552 0.453072 68 1 84
0.342093 0.517521 0.178909 68 1 84
0.635560 -0.262536 0.216039 68 1 84
-0.148587 -0.393839 -0.268461 68 1 84
0.319779 0.534816 0.145954 68 1 84
-0.489887 0.152185 0.045128 68 1 84
0.452588 0.415405 0.353531 68 1 84
0.589334 0.028979 0.316743 68 1 84
0.398400 -0.469432 -0.208243 68 1 84
-0.666948 -0.356387 0.300067 68 1 84
-0.375510 -0.485053 -0.246263 72 26 108
0.613167 -0.075553 0.343477 68 1 84
0.608668 -0.035905 0.493608 71 18 101
0.293101 -0.117877 -0.190048 68 1 84
0.036939 0.356266 -0.280488 68 1 84
-0.631525 -0.404171 0.185068 68 1 84
0.205532 0.283325 -0.189771 68 1 84
0.583607 0.080395 0.468233 68 1 84
-0.483273 -0.180378 -0.083382 68 1 84
0.645946 -0.264080 0.229332 68 1 84
0.548102 0.222660 0.501996 68 2 85
-0.267151 0.002367 -0.207813 49 101 141
0.156156 0.356611 -0.217227 68 1 84
0.631583 -0.390843 0.172332 68 1 84
0.371553 0.068713 -0.154469 68 1 84
-0.667163 -0.254782 0.460522 68 1 84
0.460047 0.256514 0.067191 68 1 84
0.593455 -0.314322 0.096170 68 1 84
0.655586 -0.311369 0.253977 68 1 84
0.705176 -0.443067 0.397219 68 1 84
-0.008332 0.290331 -0.296552 69 50 127
0.496142 0.359755 0.364772 68 1 84
-0.665215 -0.208534 0.455428 68 1 84
-0.587505 -0.086582 0.076032 68 1 84
-0.111621 -0.336641 -0.209244 68 1 84
0.664233 -0.333468 0.399505 68 1 84
-0.667852 -0.266327 0.490170 68 1 84
-0.603668 -0.004903 0.321575 71 17 99
0.525967 -0.182608 -0.033369 68 1 84
-0.146382 0.340179 -0.244229 62 72 136
-0.107500 -0.340414 -0.222644 68 1 84
0.213961 0.210694 -0.245775 68 1 84
-0.026721 0.500545 -0.220864 38 128 142
0.219412 -0.469888 -0.309317 71 24 106
-0.519910 0.014197 -0.018237 68 1 84
-0.692621 -0.524953 0.449710 68 1 84
0.131971 -0.404730 -0.272481 68 1 84
-0.368148 -0.395405 -0.222108 68 1 84
0.135530 0.014037 -0.294912 68 1 84
-0.222296 -0.219973 -0.179416 68 1 84
-0.550174 0.123760 0.204206 71 38 118
0.379460 -0.154803 -0.152461 68 1 84
0.605592 -0.019830 0.463686 68 3 87
0.008651 -0.253787 -0.365665 38 127 142
0.574838 0.129752 0.479135 68 1 84
0.064459 -0.243335 -0.300085 68 1 84
0.444728 0.246984 0.020769 68 1 84
0.039298 0.038492 -0.408061 59 80 138
0.133192 0.108750 -0.264422 69 8 91
-0.156995 -0.018515 -0.332634 33 140 141
-0.438749 0.126383 -0.071014 72 26 108
-0.107219 -0.033109 -0.436863 96 201 96
0.193382 0.185316 -0.260415 70 12 95
-0.059314 -0.298878 -0.332658 55 89 140
-0.532440 0.275566 0.426568 60 77 138
-0.000497 0.264796 -0.315666 34 139 141
0.214064 0.517504 -0.108073 68 1 84
-0.154881 0.062168 -0.275450 33 167 132
0.111252 0.095435 -0.265805 68 1 84
-0.547415 0.234194 0.425613 46 107 142
-0.689292 -0.474022 0.485976 68 1 84
0.549197 -0.001226 0.106682 68 1 84
0.243689 -0.419655 -0.253803 68 1 84
-0.448478 0.415019 0.396639 68 1 84
-0.670693 -0.358727 0.459695 68 1 84
0.351396 0.092733 -0.165925 68 1 84
-0.571308 0.111257 0.528134 52 94 141
-0.074200 0.353562 -0.279768 57 85 139
-0.425821 -0.033549 -0.130388 68 55 129
-0.131193 0.186508 -0.307262 30 158 136
0.575857 0.091524 0.298348 68 1 84
0.433744 0.245981 -0.006219 68 1 84
-0.612626 -0.155453 0.149344 68 1 84
0.135795 0.417139 -0.196010 71 18 101
-0.355802 -0.134614 -0.162500 68 1 84
-0.351828 -0.464222 -0.242258 69 6 90
0.618195 -0.056497 0.434030 70 11 94
-0.103363 -0.040303 -0.441436 87 198 101
0.209062 -0.050590 -0.223657 68 1 84
-0.043561 0.472184 -0.216508 47 105 141
0.641336 -0.339961 0.226740 68 1 84
-0.596809 0.059184 0.418566 59 81 138
-0.390899 0.344937 0.004196 64 68 135
0.584368 0.027521 0.284365 68 1 84
-0.074675 0.633645 -0.159346 68 1 84
-0.078055 0.008629 -0.465644 91 200 98
-0.471669 0.130377 -0.017214 70 12 95
-0.376827 0.425047 0.071193 68 1 84
-0.207991 0.619409 0.037411 68 1 84
0.429867 0.395051 0.144045 68 1 84
-0.593148 0.072543 0.454078 56 87 140
0.461276 -0.091482 -0.102292 68 1 84
-0.253573 -0.245682 -0.170924 71 17 99
-0.589459 -0.145290 0.061272 68 1 84
0.711760 -0.456451 0.425379 68 1 84
0.595564 -0.462769 0.124157 68 1 84
-0.411145 0.382438 0.096630 68 1 84
0.512582 0.326556 0.418397 68 1 84
-0.667224 -0.240040 0.479881 68 1 84
0.101742 0.593900 -0.174227 68 1 84
-0.671821 -0.506188 0.321746 68 1 84
0.553869 0.225488 0.438802 68 1 84
0.083233 0.035443 -0.331577 67 59 131
-0.581959 -0.448838 0.057870 68 1 84
-0.196094 0.447121 -0.146506 51 96 141
0.150958 -0.001905 -0.244534 68 1 84
0.326837 0.478679 0.022303 68 1 84
-0.531344 0.127763 0.132724 70 47 124
-0.210232 0.307687 -0.192565 59 81 138
0.291421 0.421652 -0.081904 68 1 84
-0.557663 -0.185117 -0.003131 68 1 84
-0.553046 0.216637 0.524146 51 97 141
-0.237866 -0.053648 -0.217809 59 81 138
-0.493639 -0.430977 -0.118043 68 1 84
-0.672912 -0.460950 0.351381 68 1 84
0.711724 -0.503857 0.271159 68 1 84
-0.295222 -0.261615 -0.163987 69 8 91
-0.616802 -0.144334 0.186824 68 1 84
-0.251701 -0.305550 -0.168081 68 1 84
0.009129 0.267994 -0.308451 57 85 139
0.203854 0.224534 -0.252996 68 1 84
-0.114748 -0.049091 -0.411295 100 203 93
0.732718 -0.539725 0.315630 68 1 84
-0.129824 -0.086489 -0.322419 63 69 135
0.165821 0.398673 -0.189414 68 1 84
-0.508411 -0.041810 -0.058813 68 1 84
-0.665495 -0.251935 0.522519 68 1 84
0.186089 0.416670 -0.168930 68 1 84
0.347147 -0.438015 -0.228210 68 1 84
-0.477138 0.107017 -0.024956 69 5 88
-0.376814 0.128861 -0.136195 50 98 141
0.035692 -0.182983 -0.364643 71 17 99
-0.568679 0.167772 0.410360 65 66 134
-0.330188 0.423482 -0.022574 68 1 84
0.338187 0.237621 -0.149614 68 1 84
0.660667 -0.333928 0.476838 68 1 84
0.268330 0.394376 -0.122134 68 1 84
0.434378 0.352821 0.099150 68 1 84
0.554476 0.007200 0.136467 68 1 84
0.110261 0.610200 -0.155713 68 1 84
-0.449762 -0.250458 -0.084265 68 1 84
0.425304 0.292306 0.011185 68 1 84
-0.312996 0.470235 -0.008241 71 15 98
0.585717 -0.097915 0.182565 68 1 84
0.581758 -0.321801 0.069830 68 1 84
-0.339233 -0.196239 -0.155721 68 1 84
-0.386548 -0.479926 -0.236544 70 9 92
0.294317 -0.255107 -0.168609 68 1 84
0.609090 -0.523115 0.156216 68 1 84
0.204743 0.036632 -0.220439 68 1 84
-0.616578 -0.441232 0.152244 68 1 84
0.524068 0.097305 0.109120 68 1 84
0.419250 0.331175 0.036833 68 1 84
0.376643 0.387803 0.014243 68 1 84
0.416575 0.453256 0.333318 68 1 84
-0.634554 -0.211386 0.223502 68 1 84
-0.061417 0.146634 -0.319535 48 180 122
0.322317 0.528163 0.109033 68 1 84
0.708953 -0.455613 0.384031 68 1 84
0.394067 -0.332096 -0.111913 68 1 84
0.136052 0.426434 -0.191474 72 25 107
-0.542931 -0.412482 -0.020222 68 1 84
-0.104358 0.647348 -0.122736 68 1 84
-0.635038 -0.129245 0.303699 68 1 84
-0.477344 0.373549 0.452675 71 42 121
-0.363008 0.502202 0.285082 68 1 84
-0.658141 -0.176409 0.358067 68 1 84
0.459915 0.097586 -0.048526 68 1 84
0.014816 0.010812 -0.478395 30 159 136
0.245705 0.179123 -0.225704 68 1 84
-0.667721 -0.256802 0.318939 68 1 84
0.512204 0.325116 0.435173 68 1 84
-0.375004 -0.501122 -0.256111 71 22 105
-0.102254 0.347361 -0.272179 69 52 127
-0.545243 0.003928 0.021341 68 1 84
0.125602 0.258002 -0.281026 68 1 84
0.312647 -0.206720 -0.165849 71 15 98
0.254854 -0.515689 -0.306774 66 64 133
-0.599118 -0.426051 0.099617 68 1 84
-0.680035 -0.482166 0.377151 68 1 84
-0.511730 -0.315256 -0.026972 68 1 84
0.258546 0.318329 -0.158693 68 1 84
0.391707 0.440563 0.119581 68 1 84
0.113740 0.336262 -0.271792 68 1 84
-0.386542 0.440342 0.115516 68 3 87
-0.359558 -0.295804 -0.150825 68 1 84
0.392289 0.468138 0.185259 68 1 84
-0.608756 -0.214607 0.115157 68 1 84
0.237703 0.163602 -0.228826 68 1 84
-0.423882 0.153793 -0.076834 69 52 127
0.601370 -0.485713 0.140771 68 1 84
0.579037 -0.561676 0.080776 68 1 84
-0.257328 -0.434833 -0.260040 68 3 87
0.228167 0.041806 -0.216034 68 1 84
0.733845 -0.582688 0.278308 68 1 84
0.119021 -0.056691 -0.299926 68 1 84
0.555295 -0.425905 0.029834 68 1 84
-0.623633 -0.057270 0.505358 67 59 131
-0.565926 0.174734 0.382436 59 80 138
-0.102704 -0.077041 -0.420236 98 202 95
0.518544 0.311578 0.441081 68 1 84
-0.533386 0.274091 0.482097 61 74 137
0.304047 0.406057 -0.080609 68 1 84
0.173182 0.320762 -0.223835 68 1 84
0.634916 -0.387310 0.185121 68 1 84
-0.577222 0.128196 0.373007 67 59 131
-0.369770 0.357821 -0.025887 71 18 101
-0.448554 -0.386864 -0.134740 68 1 84
-0.613953 -0.173096 0.144617 68 1 84
0.532671 0.036203 0.081964 68 1 84
-0.361041 0.417060 0.027754 68 1 84
-0.479917 0.372937 0.321206 69 54 129
0.453829 0.352978 0.147466 68 1 84
0.595273 -0.104271 0.221118 68 1 84
0.201758 0.453836 -0.141427 68 1 84
-0.525143 -0.048058 -0.038893 68 1 84
0.584152 -0.136318 0.126687 68 1 84
-0.662329 -0.480722 0.293712 68 1 84
0.236790 0.473041 -0.103461 68 1 84
-0.591582 -0.109856 0.078611 68 1 84
0.466795 0.400611 0.281928 68 1 84
0.338727 -0.257515 -0.152938 68 1 84
0.049724 -0.221491 -0.333320 72 34 115
0.652368 -0.233739 0.390168 68 1 84
-0.639710 -0.184202 0.268555 68 1 84
0.027378 0.392278 -0.234111 68 1 84
-0.672583 -0.364137 0.454046 68 1 84
-0.001198 -0.317907 -0.334716 57 84 139
0.317180 0.533286 0.107627 68 1 84
-0.561143 -0.176546 0.001259 68 1 84
-0.016797 0.081414 -0.381723 69 53 128
-0.375197 0.181362 -0.124558 58 82 139
-0.349704 -0.417407 -0.230391 68 1 84
-0.268333 0.556148 -0.004047 69 8 91
0.618907 -0.102233 0.339102 68 1 84
0.659704 -0.306507 0.380562 68 1 84
-0.649124 -0.181931 0.548418 71 44 123
0.654844 -0.352438 0.256591 68 1 84
0.641664 -0.393837 0.208472 68 1 84
0.187998 0.632017 0.032811 68 1 84
-0.305914 0.393773 -0.081897 72 33 114
-0.077651 0.195038 -0.334422 31 163 134
-0.464441 0.370333 0.218153 71 44 123
-0.157813 -0.205102 -0.232340 68 1 84
0.174042 0.000044 -0.227313 68 1 84
-0.374628 0.477091 0.155078 68 1 84
0.022863 -0.211793 -0.370786 58 82 139
-0.300804 0.113147 -0.192162 53 92 140
0.568572 0.138702 0.505792 71 21 103
-0.651486 -0.365305 0.211869 68 1 84
0.048001 -0.145019 -0.361973 69 54 129
0.618955 -0.534793 0.179125 68 1 84
-0.000598 0.091791 -0.334478 69 5 88
-0.017236 -0.074285 -0.475317 218 226 24
0.079861 0.126451 -0.300207 72 35 116
-0.344855 -0.418070 -0.232426 70 11 94
0.456981 0.044234 -0.075366 68 1 84
-0.146556 0.612016 -0.135263 47 105 141
0.334289 -0.429331 -0.234272 68 1 84
-0.262113 -0.096480 -0.204723 69 50 127
0.567946 0.151388 0.314307 68 1 84
-0.149191 0.067387 -0.278009 31 161 135
-0.634244 -0.441929 0.203443 68 1 84
0.403912 0.067910 -0.128538 68 1 84
-0.521506 0.300466 0.482875 61 75 137
0.340014 -0.499418 -0.261437 70 48 125
0.452636 0.169640 -0.018332 68 1 84
-0.618788 -0.033643 0.479441 62 73 137
-0.332879 -0.482456 -0.266630 69 54 129
0.732875 -0.551998 0.246627 68 1 84
0.151809 -0.216555 -0.209495 68 1 84
-0.664345 -0.301209 0.443639 68 1 84
-0.189418 -0.094404 -0.241131 64 67 135
-0.411263 0.455604 0.318982 68 1 84
-0.592374 -0.246658 0.069217 68 1 84
-0.667246 -0.246826 0.458479 68 1 84
0.437700 -0.473452 -0.179461 68 1 84
-0.552772 0.056631 0.114702 72 25 107
0.111696 -0.400311 -0.282856 68 1 84
-0.107335 -0.009245 -0.438122 107 205 89
0.167087 0.536810 -0.146793 68 1 84
-0.282884 0.545430 0.015492 68 1 84
-0.188063 0.466284 -0.144883 56 87 140
-0.629024 -0.265487 0.169509 68 1 84
-0.559383 0.195697 0.372266 70 48 125
0.431707 0.391457 0.143528 68 1 84
-0.258892 0.510821 -0.061845 55 89 140
0.352666 -0.506708 -0.257432 70 48 125
0.368050 0.466531 0.100294 68 1 84
0.350981 -0.026942 -0.174669 68 1 84
0.062426 0.249074 -0.323157 71 37 117
0.625010 -0.308204 0.185340 68 1 84
-0.611098 -0.242296 0.119691 68 1 84
-0.577029 -0.145005 0.029901 68 1 84
-0.555108 -0.161251 -0.009857 68 1 84
0.002405 0.508847 -0.222336 45 110 142
0.095684 -0.268171 -0.222474 68 1 84
0.467905 0.262614 0.091543 68 1 84
-0.308695 -0.268347 -0.162165 68 1 84
-0.376031 0.484731 0.185966 68 1 84
0.459552 -0.366384 -0.071849 68 1 84
-0.406583 0.154062 -0.097939 67 60 132
0.604896 -0.209295 0.156214 68 1 84
0.111080 0.296142 -0.275868 68 1 84
0.729957 -0.508765 0.380485 68 1 84
0.415117 -0.401280 -0.158051 68 1 84
-0.670374 -0.322615 0.335809 68 1 84
-0.354008 0.377316 -0.032633 72 25 107
0.545953 -0.277102 0.004511 68 1 84
-0.586346 0.009460 0.230448 68 1 84
-0.613164 -0.379693 0.131905 68 1 84
-0.580648 0.052078 0.254545 71 21 103
-0.510756 0.087910 0.026014 72 30 112
0.175280 -0.117210 -0.232514 68 1 84
-0.469049 0.041396 -0.072914 71 39 119
0.191728 -0.339262 -0.160662 68 1 84
-0.112910 0.656012 -0.084959 68 1 84
0.708902 -0.500202 0.265843 68 1 84
-0.422559 -0.036993 -0.132850 70 49 126
0.366520 -0.140838 -0.159880 68 1 84
0.456807 -0.346495 -0.064799 68 1 84
-0.247996 0.256279 -0.211993 34 139 141
-0.581087 0.115669 0.467829 62 72 136
0.110371 -0.328323 -0.182797 68 1 84
-0.186527 0.617309 -0.074295 71 38 118
-0.177335 0.260116 -0.276607 32 164 133
0.283794 0.152388 -0.203529 68 1 84
-0.346334 0.380324 -0.041840 69 6 90
0.338638 0.517228 0.144404 68 1 84
-0.163337 -0.025564 -0.305843 31 163 134
0.176361 -0.372805 -0.204002 68 1 84
0.003931 -0.049273 -0.483753 181 221 43
-0.321310 0.351819 -0.099785 67 58 131
-0.645132 -0.117167 0.403573 68 1 84
-0.610065 0.003295 0.475699 63 69 135
-0.416420 0.449433 0.347287 68 1 84
-0.181727 0.322988 -0.220776 71 15 98
-0.027999 0.236269 -0.343858 32 144 140
-0.234207 0.527009 -0.085946 56 86 139
0.096588 -0.091716 -0.310919 70 9 92
0.574420 -0.389157 0.062389 68 1 84
0.522537 -0.367367 -0.013503 68 1 84
-0.372422 0.439142 0.078886 71 22 105
0.482155 -0.479589 -0.114390 68 1 84
0.534877 0.164703 0.188287 68 1 84
-0.680375 -0.456097 0.400255 68 1 84
0.331523 -0.125754 -0.174735 68 1 84
0.118220 0.004494 -0.344559 68 57 130
-0.325599 0.527614 0.125077 68 1 84
-0.101562 -0.040860 -0.444118 94 201 97
0.153698 0.472254 -0.167803 68 1 84
0.018636 -0.124984 -0.419958 35 169 130
0.647548 -0.190730 0.383058 68 1 84
-0.303609 -0.357878 -0.163120 68 1 84
-0.058423 -0.321548 -0.321711 72 30 112
0.606756 -0.029766 0.541710 71 22 105
-0.178246 -0.164209 -0.235910 72 33 114
0.737524 -0.593909 0.321447 68 1 84
0.626679 -0.213324 0.223828 68 1 84
-0.387126 0.481054 0.295669 68 1 84
0.283786 0.522104 -0.011784 68 1 84
0.525238 0.084523 0.102396 68 1 84
0.386615 0.296741 -0.062694 68 1 84
-0.608015 0.007107 0.480871 68 57 130
-0.456938 0.339397 0.157443 71 15 98
-0.683459 -0.443751 0.444385 68 1 84
0.459489 0.402751 0.242539 68 1 84
0.461475 0.198743 0.026533 68 1 84
-0.352350 -0.374034 -0.181403 68 1 84
0.561310 -0.550346 0.044106 68 1 84
-0.026376 0.253818 -0.332361 36 133 141
-0.546294 0.223230 0.311685 71 44 123
0.646021 -0.188896 0.473587 72 34 115
-0.179653 -0.347623 -0.175420 68 1 84
0.456653 -0.135774 -0.108818 68 1 84
0.505917 -0.416054 -0.049991 68 1 84
-0.597459 0.004649 0.553706 55 89 140
0.699870 -0.426757 0.473661 68 1 84
-0.208364 0.041846 -0.221314 51 96 141
-0.092906 0.135601 -0.304267 35 168 131
-0.425914 0.440889 0.331768 70 11 94
-0.158749 0.383244 -0.200128 55 88 140
-0.378025 -0.044719 -0.159435 68 1 84
0.707763 -0.476575 0.324185 68 1 84
-0.168065 -0.336830 -0.170413 68 1 84
-0.328351 -0.385229 -0.224454 68 1 84
0.182515 0.258755 -0.253835 68 1 84
0.037791 0.029978 -0.376077 56 87 140
0.625779 -0.397853 0.161552 68 1 84
0.646906 -0.238678 0.343553 68 1 84
-0.289478 0.062633 -0.197388 63 69 135
0.178556 0.277202 -0.221611 68 1 84
-0.190462 0.252764 -0.270541 30 154 137
-0.344550 0.219357 -0.148449 44 113 142
-0.276979 -0.471418 -0.290630 59 80 138
0.618664 -0.065459 0.455500 68 3 87
0.032957 0.387154 -0.237229 68 1 84
-0.312114 -0.142802 -0.177126 68 1 84
-0.665174 -0.388246 0.311365 68 1 84
0.012554 0.559823 -0.215027 53 92 140
-0.197965 0.421776 -0.158101 52 95 141
0.106720 -0.020691 -0.355274 53 93 140
-0.585384 -0.084774 0.069539 68 1 84
0.382039 -0.557134 -0.236140 68 1 84
0.551941 0.102167 0.201503 68 1 84
-0.493129 0.104514 0.003359 70 9 92
0.164248 0.141189 -0.265099 70 14 97
0.567166 -0.121739 0.065513 68 1 84
0.145070 0.643818 -0.067010 68 1 84
0.416306 0.041276 -0.122026 68 1 84
-0.158422 -0.154011 -0.260110 70 49 126
0.466346 0.401970 0.330394 68 1 84
-0.044030 0.036614 -0.463953 59 186 117
-0.293528 -0.388850 -0.232717 68 1 84
0.619403 -0.342622 0.144365 68 1 84
0.249803 0.446224 -0.105559 68 1 84
-0.204940 0.341484 -0.185854 51 97 141
-0.291047 -0.389263 -0.233576 68 1 84
-0.525267 0.291345 0.352395 62 72 136
-0.207976 -0.336958 -0.157351 68 1 84
0.641464 -0.172511 0.530314 69 54 129
0.221846 0.512421 -0.101828 68 1 84
-0.269210 -0.061443 -0.206940 59 81 138
0.045380 0.026789 -0.334247 59 80 138
-0.483289 -0.344384 -0.059503 68 1 84
-0.381999 0.479826 0.192473 68 1 84
-0.065672 0.313975 -0.300419 44 112 142
0.513789 0.067835 0.051448 68 1 84
0.059381 -0.395548 -0.309843 68 1 84
0.097923 -0.009913 -0.375179 43 115 142
0.401490 -0.091406 -0.146175 68 1 84
-0.594968 -0.498432 0.093244 68 1 84
0.652921 -0.236946 0.396198 68 1 84
0.360510 0.030095 -0.167008 68 1 84
0.464779 -0.135670 -0.102199 68 1 84
0.630553 -0.495467 0.209109 68 1 84
-0.643568 -0.220119 0.256818 68 1 84
0.268123 0.566610 0.025489 68 1 84
-0.393626 0.215137 -0.089289 68 55 129
0.583817 0.063981 0.482299 71 20 102
-0.587763 0.093671 0.437817 56 86 139
0.154940 0.109871 -0.256032 68 3 87
0.456725 0.042588 -0.076317 68 1 84
-0.251057 0.253064 -0.212531 34 138 141
-0.195066 -0.187252 -0.208753 71 42 121
-0.592726 0.039247 0.320672 72 33 114
0.387811 -0.071289 -0.153994 68 1 84
0.541453 0.089709 0.156421 68 1 84
-0.483994 -0.038216 -0.084065 68 1 84
0.556821 0.041248 0.171482 68 1 84
-0.527773 -0.311543 -0.013430 68 1 84
-0.534923 0.190026 0.222081 68 55 129
-0.463158 0.203502 0.035266 68 1 84
-0.237223 -0.368466 -0.188669 68 1 84
-0.580406 0.080803 0.293702 71 42 121
0.104448 -0.171621 -0.281632 68 1 84
0.059380 -0.253922 -0.300103 68 1 84
-0.397465 0.340920 0.015125 71 40 120
0.285890 0.561683 0.097547 68 1 84
0.644909 -0.179625 0.355128 68 1 84
0.264092 0.253770 -0.193424 68 1 84
-0.048910 0.524941 -0.217818 39 126 142
-0.656226 -0.176533 0.330645 68 1 84
-0.633437 -0.092867 0.500580 69 53 128
0.559608 0.204422 0.346099 68 1 84
0.524996 0.306461 0.380061 68 1 84
-0.586498 0.082092 0.485476 64 67 135
0.269031 -0.381819 -0.213560 68 3 87
-0.623319 -0.136887 0.221283 68 1 84
-0.662539 -0.312752 0.309656 68 1 84
0.628303 -0.228330 0.217481 68 1 84
0.589412 0.025989 0.491595 71 21 103
0.124463 0.018317 -0.331522 70 14 97
-0.291020 0.254171 -0.186959 37 131 141
-0.124654 0.159374 -0.299379 31 150 139
0.293194 0.052939 -0.199177 68 1 84
-0.249931 0.264469 -0.205161 36 134 141
0.283902 -0.232994 -0.169571 68 1 84
0.508965 0.317210 0.473544 68 1 84
-0.634348 -0.282282 0.179306 68 1 84
0.320569 -0.125642 -0.178803 68 1 84
0.220207 -0.497407 -0.319216 69 53 128
-0.066485 0.044578 -0.341336 54 91 140
0.605432 -0.423583 0.134859 68 1 84
-0.263773 0.053947 -0.205249 60 78 138
0.656322 -0.251128 0.263417 68 1 84
0.622101 -0.445010 0.181657 68 1 84
0.580547 0.119714 0.406008 68 1 84
0.162200 0.226234 -0.290630 68 1 84
0.487831 -0.166287 -0.079049 68 1 84
0.105511 0.323407 -0.284546 68 1 84
-0.528832 -0.538349 -0.062186 68 1 84
0.166519 -0.300724 -0.164151 68 1 84
0.257085 0.525883 -0.051261 68 1 84
0.622805 -0.289817 0.184751 68 1 84
0.063910 -0.357683 -0.273218 68 1 84
0.522075 0.140655 0.135500 68 1 84
-0.649306 -0.139557 0.468822 68 1 84
0.187306 -0.010690 -0.225067 68 1 84
-0.560453 -0.005827 0.053636 68 1 84
-0.135023 -0.300157 -0.182042 68 1 84
-0.002841 0.269386 -0.310439 43 115 142
0.575160 0.138257 0.449763 68 1 84
0.299812 -0.202781 -0.170313 68 1 84
-0.575815 0.139124 0.411962 61 76 137
0.406376 0.104163 -0.118261 68 1 84
-0.094111 0.390992 -0.225064 68 3 87
-0.298622 0.441869 -0.050216 68 1 84
-0.267768 0.299930 -0.172088 58 83 139
-0.576816 -0.273828 0.040959 68 1 84
-0.468303 0.379409 0.471826 72 35 116
0.376848 0.420705 0.056188 68 1 84
0.371353 0.446496 0.076983 68 1 84
0.172153 0.417961 -0.176860 68 1 84
-0.389764 -0.118733 -0.151078 71 17 99
-0.628557 -0.111540 0.307349 68 1 84
-0.521265 -0.509133 -0.076013 68 1 84
0.213382 0.470167 -0.124950 68 1 84
-0.598034 0.005225 0.536892 56 87 140
0.055229 0.663685 -0.104167 68 1 84
0.441487 0.430198 0.320067 68 1 84
-0.191249 0.621173 -0.049548 68 1 84
0.070503 -0.458914 -0.340270 61 76 137
0.126276 0.534862 -0.179262 68 1 84
-0.154260 0.063346 -0.273420 30 160 135
-0.005667 0.173197 -0.323767 53 93 140
0.076364 -0.070782 -0.361760 60 78 138
0.139476 0.037115 -0.251198 68 1 84
0.500638 -0.000085 -0.026693 68 1 84
-0.179331 0.493106 -0.147423 61 74 137
-0.534032 -0.219577 -0.024777 68 1 84
0.140653 0.288253 -0.251641 68 1 84
0.566316 0.176433 0.339234 68 1 84
0.585241 0.030903 0.292080 68 1 84
-0.259402 0.129988 -0.214122 43 115 142
-0.207975 0.601562 -0.061703 69 6 90
-0.385748 0.120396 -0.130389 56 87 140
0.118283 0.621857 -0.138476 68 1 84
0.126260 -0.318109 -0.170913 68 1 84
0.467821 -0.399900 -0.094205 68 1 84
-0.596414 -0.073322 0.147699 68 1 84
0.543182 -0.326094 0.007141 68 1 84
-0.147982 0.131483 -0.271422 51 96 141
-0.592276 -0.109150 0.081688 68 1 84
0.622344 -0.100042 0.360684 68 1 84
0.061802 -0.321488 -0.245525 68 1 84
0.047148 -0.459295 -0.343575 60 78 138
0.054268 -0.057796 -0.438156 30 155 137
0.032196 0.089864 -0.315504 66 64 133
-0.088504 0.504732 -0.205555 38 128 142
0.488301 0.253147 0.132634 68 1 84
0.594236 -0.451753 0.117890 68 1 84
-0.623934 -0.515266 0.184299 68 1 84
-0.172930 -0.107352 -0.253276 66 62 133
0.234747 0.341226 -0.162271 68 1 84
-0.149045 -0.291908 -0.175348 68 1 84
-0.027022 0.389708 -0.234281 68 1 84
-0.481135 0.131300 0.002533 71 15 98
-0.272142 0.332548 -0.152196 68 2 85
0.648329 -0.203396 0.522415 72 34 115
-0.382614 0.203381 -0.108358 71 37 117
0.592482 -0.034237 0.271053 68 1 84
-0.289090 -0.430547 -0.248741 68 1 84
-0.663473 -0.211346 0.394097 68 1 84
0.607806 -0.022630 0.380352 68 1 84
0.561952 -0.077637 0.079159 68 1 84
-0.130462 0.098626 -0.267071 53 93 140
-0.623801 -0.525872 0.185746 68 1 84
0.101256 -0.166888 -0.286489 68 1 84
-0.159006 -0.057870 -0.279209 57 84 139
-0.441309 0.423059 0.261475 68 1 84
0.299743 0.551957 0.144490 68 1 84
0.428212 0.311928 0.036821 68 1 84
0.454898 0.183059 -0.002498 68 1 84
-0.120208 -0.175735 -0.302810 48 104 141
0.619219 -0.096321 0.349041 68 1 84
-0.314690 0.399510 -0.066268 68 1 84
0.573910 0.118290 0.317017 68 1 84
-0.576276 -0.007415 0.126388 68 1 84
0.561481 -0.495371 0.046430 68 1 84
0.292904 0.008582 -0.201566 68 1 84
-0.437012 0.429743 0.334386 68 1 84
0.531278 0.190411 0.194572 68 1 84
-0.451957 0.413218 0.356344 68 1 84
-0.551479 0.154847 0.244804 70 47 124
-0.028296 -0.318267 -0.337000 64 68 135
-0.101068 -0.348599 -0.255362 68 1 84
0.552330 -0.068002 0.051067 68 1 84
-0.683315 -0.474735 0.404403 68 1 84
-0.650670 -0.138685 0.399114 68 1 84
0.289752 0.386090 -0.110112 68 1 84
0.464879 0.403827 0.290840 68 1 84
-0.650951 -0.158015 0.480145 70 11 94
0.545224 0.068566 0.151459 68 1 84
-0.529362 -0.489854 -0.068562 68 1 84
-0.348630 0.514046 0.276731 68 1 84
-0.533797 -0.023726 -0.016559 68 1 84
0.593588 0.012547 0.328502 68 1 84
0.079482 -0.400400 -0.303666 68 1 84
0.051849 -0.214415 -0.333134 70 49 126
0.519843 -0.072115 -0.025361 68 1 84
-0.209658 0.278928 -0.210960 66 62 133
-0.504645 0.333661 0.464404 69 54 129
0.276279 -0.272625 -0.176569 68 1 84
0.252520 -0.358429 -0.176885 68 1 84
-0.059003 -0.451366 -0.344224 64 67 135
0.685612 -0.389928 0.479627 68 1 84
-0.584427 -0.481850 0.064858 68 1 84
0.059403 0.232946 -0.334379 67 59 131
-0.507634 -0.169197 -0.066102 68 1 84
0.320386 -0.138805 -0.177076 68 1 84
-0.633470 -0.424071 0.194895 68 1 84
0.023620 0.505891 -0.220335 49 100 141
-0.340639 0.171030 -0.162419 51 97 141
0.255250 0.504075 -0.068798 68 1 84
0.165779 -0.165703 -0.230112 68 1 84
-0.503995 0.333562 0.371371 61 76 137
-0.000499 -0.029467 -0.489428 167 219 51
0.053434 0.151737 -0.321853 58 83 139
0.119674 0.184020 -0.310024 67 60 132
0.177388 -0.398218 -0.236264 68 1 84
0.533844 -0.451065 -0.010531 68 1 84
-0.174259 0.131931 -0.258527 52 95 141
0.131147 0.409964 -0.201620 71 37 117
-0.121286 0.436233 -0.195472 63 69 135
-0.641457 -0.381114 0.196490 68 1 84
0.503160 0.134890 0.081948 68 1 84
-0.619103 -0.030608 0.371476 70 9 92
-0.348061 0.512381 0.173552 68 1 84
-0.012515 0.271986 -0.308055 42 117 142
0.219494 -0.249936 -0.176480 68 1 84
0.077179 -0.244695 -0.276849 68 1 84
-0.011852 -0.449694 -0.346136 59 81 138
-0.630178 -0.078607 0.519847 65 65 134
-0.658525 -0.335598 0.236320 68 1 84
-0.624822 -0.186073 0.190411 68 1 84
0.572991 -0.002833 0.207108 68 1 84
-0.464577 0.077639 -0.061689 67 60 132
0.045654 0.554458 -0.212619 68 57 130
-0.578570 -0.023481 0.108471 68 1 84
0.525068 0.139780 0.143705 68 1 84
-0.665575 -0.280572 0.319398 68 1 84
-0.172474 -0.355209 -0.187187 68 1 84
0.691989 -0.473946 0.277067 68 1 84
0.510641 -0.142098 -0.052728 68 1 84
-0.661494 -0.315776 0.473502 68 1 84
0.474170 -0.116823 -0.092850 68 1 84
-0.533582 -0.488439 -0.058536 68 1 84
-0.497597 0.049679 -0.031504 71 22 105
-0.188528 0.620267 -0.061072 68 1 84
0.139840 0.477373 -0.174352 68 1 84
0.477945 0.386218 0.295776 68 1 84
0.574749 -0.305516 0.054490 68 1 84
-0.293907 0.378472 -0.106997 64 68 135
0.159831 0.247876 -0.282223 68 1 84
0.631670 -0.513663 0.211066 68 1 84
0.653448 -0.297582 0.330734 68 1 84
-0.426664 0.326395 0.069402 71 21 103
0.561471 0.134521 0.262926 68 1 84
-0.158510 -0.414340 -0.298058 68 1 84
-0.618842 -0.435714 0.158624 68 1 84
-0.049255 -0.293123 -0.344558 54 91 140
-0.361029 0.504410 0.270623 68 1 84
-0.174924 -0.367740 -0.200843 68 1 84
-0.614587 -0.284542 0.126264 68 1 84
0.351896 0.090494 -0.165769 68 1 84
-0.255293 -0.280189 -0.169111 68 1 84
-0.349381 0.097197 -0.163657 65 65 134
-0.580534 0.104772 0.335763 66 64 133
-0.326034 0.504799 0.060616 68 1 84
-0.628324 -0.072617 0.496765 70 45 124
-0.386509 -0.058649 -0.154508 68 1 84
0.111492 0.054072 -0.297423 71 39 119
0.150724 -0.192496 -0.229107 68 1 84
0.369226 0.340057 -0.056302 68 1 84
0.333382 0.334057 -0.105707 68 1 84
0.113656 0.616594 -0.147320 68 1 84
0.552594 0.087216 0.193309 68 1 84
0.637845 -0.515968 0.221596 68 1 84
-0.150484 0.232982 -0.305658 31 161 135
0.157330 0.398110 -0.194568 68 1 84
-0.563314 0.186173 0.436781 59 80 138
-0.574230 -0.396807 0.039966 68 1 84
0.364823 -0.218734 -0.144725 68 1 84
0.370229 0.053559 -0.157617 68 1 84
0.120940 0.033768 -0.325021 70 11 94
-0.244066 0.596365 0.120382 68 1 84
0.145327 -0.018249 -0.256681 68 1 84
-0.233182 -0.102198 -0.215303 69 53 128
-0.387076 0.007837 -0.150953 71 44 123
-0.468517 0.384658 0.449713 71 38 118
0.371718 0.480554 0.145795 68 1 84
0.629703 -0.340109 0.180721 68 1 84
0.409655 -0.368118 -0.110896 68 1 84
0.439155 0.242633 0.004049 68 1 84
0.592844 -0.349836 0.092505 68 1 84
-0.076557 0.529591 -0.210484 41 120 142
-0.505588 0.246225 0.190104 70 47 124
-0.661538 -0.186817 0.415643 68 1 84
-0.298448 0.337319 -0.130960 70 14 97
0.657056 -0.277885 0.291449 68 1 84
-0.601423 -0.048885 0.238591 68 1 84
-0.665669 -0.383520 0.300289 68 1 84
-0.047488 -0.407642 -0.330851 66 61 132
-0.542338 -0.449340 -0.044275 68 1 84
0.265432 -0.477691 -0.283975 65 65 134
0.600156 0.007616 0.373734 68 1 84
0.033554 0.003525 -0.470170 31 163 134
0.614462 -0.397400 0.137642 68 1 84
-0.491199 0.353527 0.466466 69 53 128
0.101359 -0.434568 -0.324729 72 25 107
-0.588074 -0.532576 0.074791 68 1 84
-0.092229 -0.109360 -0.410225 94 201 97
0.611111 -0.329574 0.130115 68 1 84
0.621015 -0.094032 0.361971 68 1 84
-0.516384 0.097588 0.051976 72 34 115
-0.177095 0.100889 -0.244919 57 85 139
0.498835 0.068353 0.011783 68 1 84
0.364611 -0.158812 -0.158500 68 1 84
-0.539904 -0.274842 -0.004339 68 1 84
0.271788 0.315296 -0.156733 68 1 84
-0.629981 -0.519580 0.203661 68 1 84
0.275447 0.430827 -0.091353 68 1 84
0.579744 0.115356 0.447393 68 1 84
0.438935 0.432462 0.324707 68 1 84
-0.459822 0.075922 -0.068176 71 39 119
-0.489947 0.153920 0.047349 68 1 84
0.091861 0.430222 -0.204563 68 1 84
-0.006746 0.362879 -0.266454 68 1 84
0.656163 -0.257373 0.487223 69 5 88
0.289459 -0.383023 -0.234448 68 2 85
0.211474 0.599553 -0.044305 68 1 84
0.736285 -0.584398 0.293985 68 1 84
-0.642406 -0.103129 0.410728 68 1 84
0.589235 -0.493858 0.110326 68 1 84
-0.371910 0.340447 -0.041199 56 86 139
0.130367 0.641350 -0.100276 68 1 84
-0.039908 0.655083 -0.128615 68 1 84
0.487515 -0.407562 -0.072817 68 1 84
-0.555606 0.210347 0.416825 60 78 138
0.437856 -0.178560 -0.116834 68 1 84
0.690196 -0.440720 0.308065 68 1 84
-0.441458 -0.482062 -0.199735 68 1 84
-0.487394 0.312798 0.210026 68 57 130
-0.535223 -0.441805 -0.058364 68 1 84
0.063025 -0.266163 -0.278942 68 1 84
-0.667323 -0.239902 0.400552 68 1 84
-0.032914 -0.361454 -0.324070 68 55 129
-0.588809 -0.113348 0.067714 68 1 84
0.299577 -0.507666 -0.283007 71 44 123
-0.575296 -0.176867 0.027288 68 1 84
-0.390840 0.017606 -0.147344 71 44 123
-0.579502 0.057022 0.544189 59 80 138
0.210463 0.168949 -0.246343 71 22 105
0.577119 -0.192557 0.069798 68 1 84
-0.195145 -0.272931 -0.169329 68 1 84
-0.659394 -0.198627 0.325169 68 1 84
-0.567196 -0.045910 0.037696 68 1 84
0.133976 -0.033937 -0.281851 71 42 121
0.475842 -0.250138 -0.068275 68 1 84
-0.572554 -0.374526 0.037820 68 1 84
0.480202 -0.045413 -0.073238 68 1 84
0.249629 0.007597 -0.213859 68 1 84
-0.072238 -0.011203 -0.476559 129 211 76
-0.408985 -0.273309 -0.110262 68 1 84
-0.201779 0.492946 -0.127414 55 89 140
0.318142 -0.284068 -0.169455 68 1 84
