ply
format ascii 1.0
element vertex 1243
property float x
property float y
property float z
property uchar red
property uchar green
property uchar blue
end_header
0.255809 0.055473 -0.197206 68 1 84
-0.142556 -0.459910 -0.242023 31 149 139
-0.201179 -0.264471 -0.166050 71 42 121
-0.573090 0.160472 0.187652 39 173 128
-0.114817 -0.230549 -0.260818 68 1 84
-0.109974 -0.328764 -0.196231 59 80 138
-0.390507 0.449384 0.002876 66 61 132
0.207373 0.173373 -0.249982 68 1 84
-0.069416 -0.340908 -0.278239 71 18 101
0.424587 0.441192 0.129828 41 120 142
-0.350731 0.115909 -0.163218 69 8 91
0.047518 0.010411 -0.308512 68 1 84
-0.627585 -0.489131 0.277891 37 171 129
-0.459860 -0.122936 -0.112580 40 122 142
0.390102 -0.067641 -0.132628 68 1 84
-0.138178 -0.031630 -0.364447 68 1 84
-0.155599 -0.191688 -0.220798 68 1 84
-0.327214 -0.417941 -0.137363 48 180 122
0.374861 0.497827 0.191766 30 151 138
-0.079229 -0.537472 -0.297839 47 179 123
-0.689686 -0.415818 0.397531 40 122 142
0.184303 0.251063 -0.209331 68 1 84
0.594341 -0.133924 0.134994 46 108 142
0.231668 0.050530 -0.206364 68 1 84
-0.621347 -0.353464 0.229943 30 157 136
0.048161 0.584158 -0.267543 68 1 84
-0.537667 -0.543792 -0.044904 57 185 118
-0.541322 0.144840 0.092309 35 136 141
0.546311 0.205209 0.284033 33 167 132
-0.156199 -0.102813 -0.287933 68 1 84
-0.607516 0.138792 0.313816 35 169 130
0.457621 -0.381115 -0.080695 33 167 132
0.393547 0.236370 -0.061818 71 22 105
0.044083 -0.302728 -0.324293 68 1 84
0.256510 0.285645 -0.191612 68 1 84
0.521043 -0.105520 -0.023126 71 18 101
-0.399405 -0.076267 -0.144782 68 57 130
0.158964 0.104602 -0.266972 68 1 84
0.498901 0.334066 0.466452 94 201 97
-0.321619 0.470487 -0.098891 69 8 91
-0.534506 0.211735 0.108929 30 157 136
-0.403603 -0.070475 -0.143091 51 97 141
-0.315839 -0.305302 -0.134383 31 148 139
0.410001 0.481057 0.275977 33 166 133
0.173850 0.258540 -0.215756 68 1 84
-0.662710 -0.046061 0.563620 44 113 142
-0.540485 0.376167 0.257007 54 184 119
-0.577124 0.199780 0.225413 30 156 137
0.038414 0.198274 -0.303005 68 1 84
-0.265580 0.518683 -0.168774 68 1 84
-0.108613 0.617336 -0.228132 68 1 84
0.559202 0.135158 0.508047 30 156 137
-0.574792 0.233775 0.477321 47 105 141
-0.582866 -0.214114 0.054296 30 152 138
0.486534 -0.095340 -0.065571 68 1 84
0.194020 -0.184141 -0.189374 68 1 84
-0.170978 -0.356677 -0.137503 42 118 142
0.449966 -0.434238 -0.138783 56 185 118
0.283397 0.561911 0.029910 56 86 139
0.298231 -0.010579 -0.178661 68 1 84
0.270077 -0.371722 -0.126437 33 140 141
-0.116586 0.492740 -0.286991 68 1 84
-0.095852 -0.172149 -0.373760 68 1 84
0.723577 -0.359637 0.436424 35 135 141
-0.397168 0.532454 0.175101 50 98 141
-0.027717 -0.526791 -0.302679 34 167 132
0.596570 -0.032952 0.300093 35 169 130
-0.081534 -0.365908 -0.236581 47 106 141
0.183304 0.384936 -0.231009 68 1 84
-0.360132 0.552359 0.132605 54 90 140
-0.439977 0.443793 0.068232 39 126 142
-0.617575 0.126009 0.408258 32 143 140
0.095460 -0.360755 -0.205393 71 18 101
-0.245961 0.499929 -0.197818 68 1 84
0.268095 -0.035013 -0.186895 68 1 84
0.591839 -0.008963 0.313919 35 169 130
0.138899 0.440637 -0.257057 68 1 84
-0.040926 -0.184341 -0.434559 68 1 84
0.120849 -0.048507 -0.359643 68 1 84
-0.385398 0.404647 -0.027658 36 132 141
-0.057872 0.011126 -0.360499 68 1 84
0.736813 -0.480599 0.441345 54 91 140
0.257995 0.117763 -0.204726 68 1 84
0.587377 -0.087255 0.156848 57 85 139
-0.613868 -0.429789 0.238169 32 165 133
-0.156270 -0.299852 -0.170280 61 76 137
0.560934 -0.324265 0.046534 38 128 142
-0.631508 -0.035539 0.347951 34 139 141
0.599230 -0.112986 0.185131 46 109 142
-0.173324 -0.263854 -0.179629 71 43 122
-0.578048 -0.345765 0.071000 71 40 120
-0.667148 -0.228277 0.308333 36 132 141
-0.639238 0.020611 0.447660 36 134 141
-0.646356 -0.013509 0.431915 35 136 141
0.523421 0.005188 0.024780 68 2 85
0.521149 0.276604 0.453428 89 199 100
-0.000541 0.203533 -0.310877 68 1 84
-0.524305 -0.559197 -0.073450 114 207 85
-0.191169 -0.126168 -0.206534 68 1 84
-0.307291 0.079254 -0.192121 68 1 84
-0.625069 -0.000691 0.346208 34 138 141
0.466578 0.374583 0.155327 30 151 138
-0.021312 -0.100053 -0.485077 68 1 84
0.608650 -0.277932 0.159554 39 125 142
0.403614 -0.369160 -0.082015 32 143 140
-0.608852 0.162510 0.437851 42 117 142
-0.296414 0.585258 0.039515 71 15 98
-0.699365 -0.307298 0.458839 33 140 141
0.558016 0.115883 0.256934 33 140 141
-0.545283 -0.052584 -0.014854 31 147 139
0.311308 0.362665 -0.105373 72 29 111
-0.515796 -0.060642 -0.057269 34 139 141
-0.550450 0.288079 0.185102 43 177 125
0.745835 -0.497671 0.283380 31 149 139
0.308598 0.112386 -0.164110 68 1 84
0.246139 -0.010528 -0.195803 68 1 84
-0.229760 0.608292 -0.098501 67 58 131
0.283823 0.561364 0.028041 52 95 141
-0.615707 0.139902 0.404494 36 133 141
-0.181473 0.089754 -0.261502 68 1 84
-0.460506 -0.131198 -0.111694 38 127 142
0.049744 0.258468 -0.293869 68 1 84
-0.398922 0.438212 0.007367 64 68 135
0.343837 -0.418569 -0.158654 50 181 122
-0.650055 -0.512006 0.321968 33 167 132
-0.687935 -0.251925 0.385682 41 120 142
-0.090415 0.074194 -0.320935 68 1 84
-0.593311 0.047551 0.207758 33 142 140
0.058299 -0.361439 -0.269459 71 15 98
-0.511814 0.132882 0.030358 46 107 142
0.528557 0.003753 0.034325 72 25 107
0.381638 0.221778 -0.081065 68 1 84
0.474461 0.384745 0.429859 38 172 129
0.493877 0.359085 0.211386 32 144 140
0.201586 0.446911 -0.213669 68 1 84
0.612952 -0.097386 0.256409 32 144 140
0.539154 0.046860 0.098576 67 59 131
-0.702948 -0.344292 0.460128 33 141 140
-0.024331 0.405271 -0.291454 68 1 84
0.437166 0.410642 0.119324 45 110 142
0.563542 0.148379 0.374380 61 187 116
0.109422 -0.053495 -0.377112 68 1 84
-0.576555 0.231194 0.473038 47 105 141
0.201949 -0.319745 -0.137373 70 47 124
0.373622 0.228495 -0.087554 68 1 84
0.162738 0.154359 -0.276339 68 1 84
0.376503 0.222324 -0.086214 68 1 84
0.044202 0.348742 -0.285215 68 1 84
-0.460867 -0.125934 -0.111827 43 115 142
-0.644924 -0.264331 0.251911 36 134 141
-0.177251 -0.009661 -0.218912 68 1 84
-0.593985 0.197663 0.286169 40 174 127
-0.517569 -0.121059 -0.064968 35 136 141
0.112528 -0.424808 -0.246499 30 153 138
-0.294390 -0.332061 -0.135941 44 113 142
-0.623050 -0.353640 0.236514 33 142 140
0.545067 0.218970 0.288343 47 179 123
-0.321149 0.533981 -0.060327 61 75 137
0.594365 0.041067 0.421645 35 136 141
-0.218431 0.494448 -0.224658 68 1 84
-0.450028 -0.274197 -0.067020 34 167 132
-0.121901 0.272369 -0.286260 68 1 84
-0.614574 -0.062746 0.225424 44 112 142
-0.136576 -0.106164 -0.354945 68 1 84
-0.449411 0.160952 -0.056332 56 86 139
-0.253092 -0.318525 -0.139977 51 96 141
0.047039 -0.303378 -0.317472 68 1 84
-0.011936 -0.379551 -0.313143 46 109 142
0.220190 0.592588 -0.093736 68 1 84
0.683730 -0.216975 0.227629 35 169 130
0.545609 0.213347 0.286429 32 165 133
-0.096383 -0.359815 -0.208952 42 118 142
0.487428 0.185224 0.070003 60 78 138
0.553483 -0.441537 0.004131 33 166 133
0.155291 0.128653 -0.277451 68 1 84
0.700233 -0.301404 0.157623 35 168 131
0.594091 -0.020480 0.308374 46 178 124
-0.456212 -0.317203 -0.053276 32 145 140
0.358096 -0.075101 -0.147488 68 1 84
-0.131211 0.200056 -0.281131 68 1 84
-0.222488 -0.505836 -0.243459 48 180 122
-0.003778 -0.488279 -0.301726 33 167 132
0.543451 -0.146105 0.011290 50 99 141
-0.531368 -0.011662 -0.019319 41 121 142
0.047155 -0.398676 -0.283329 50 99 141
0.221666 -0.509736 -0.271504 31 162 134
-0.660433 -0.461575 0.335951 31 148 139
-0.372961 0.543459 0.138781 51 97 141
-0.668591 -0.225921 0.313223 37 131 141
0.490582 -0.476540 -0.136277 162 218 55
-0.332142 0.437233 -0.094520 67 60 132
-0.466373 -0.212637 -0.084927 31 147 139
0.074482 -0.169000 -0.350445 68 1 84
-0.159640 -0.080712 -0.331182 68 1 84
0.167490 0.079587 -0.247844 68 1 84
0.563021 0.095834 0.261165 36 133 141
-0.553022 -0.442720 -0.024065 51 182 121
0.059379 0.050107 -0.304624 68 1 84
0.651831 -0.281304 0.159033 57 185 118
-0.453473 0.358339 0.039854 31 149 139
-0.504170 0.434728 0.366154 30 155 137
-0.480141 0.098224 -0.039113 46 109 142
-0.393839 -0.567192 -0.205284 241 229 28
-0.492812 0.454153 0.317410 30 157 136
0.442167 -0.010873 -0.091531 67 58 131
0.461087 0.127234 -0.010817 71 15 98
0.435462 0.278617 0.028656 49 102 141
0.096366 -0.514933 -0.299458 33 140 141
-0.606355 0.111881 0.285102 30 153 138
0.449249 0.369145 0.103799 65 66 134
0.136979 -0.456358 -0.263344 40 174 127
0.054305 0.082173 -0.321081 68 1 84
0.673950 -0.280947 0.149089 37 171 129
-0.424166 0.228016 -0.056623 48 103 141
0.350065 0.397952 -0.029172 65 65 134
0.276755 0.474080 -0.115507 66 62 133
0.499482 0.365400 0.361135 38 172 129
0.737071 -0.465021 0.470720 65 66 134
-0.691852 -0.110582 0.439325 35 135 141
0.410566 0.478466 0.231642 41 175 127
0.735798 -0.387293 0.355233 30 156 137
0.530733 -0.033445 0.016930 62 72 136
-0.218744 0.601959 -0.143041 71 39 119
-0.695147 -0.321684 0.422048 36 134 141
-0.118397 0.081351 -0.300976 68 1 84
-0.036348 0.056386 -0.343974 68 1 84
-0.194781 0.409705 -0.241936 69 5 88
0.294427 0.359857 -0.131668 68 1 84
0.014250 -0.461430 -0.299364 32 145 140
-0.651301 -0.119621 0.305942 38 129 142
0.043189 -0.370475 -0.291214 67 58 131
-0.285566 -0.510551 -0.220216 131 211 75
0.639260 -0.057893 0.373317 48 180 122
-0.176939 0.245615 -0.233454 68 1 84
-0.317189 0.436452 -0.121235 68 1 84
-0.136698 0.108613 -0.301044 68 1 84
-0.085124 0.498023 -0.298121 68 1 84
-0.617501 -0.187254 0.137451 36 133 141
-0.482163 0.452143 0.183762 33 166 133
-0.022736 0.616950 -0.239811 68 1 84
0.318866 0.542048 0.135942 49 101 141
-0.564894 -0.193431 0.014983 31 161 135
0.513688 -0.020302 -0.007659 68 1 84
0.319609 0.405170 -0.069702 57 85 139
-0.199636 0.244462 -0.214779 68 1 84
-0.667984 -0.069390 0.500242 40 122 142
0.208445 0.012419 -0.208336 68 1 84
0.105238 -0.091952 -0.368984 68 1 84
-0.020597 0.527234 -0.297082 68 1 84
0.685168 -0.200633 0.260589 43 177 125
-0.039008 0.355884 -0.285389 68 1 84
0.465060 0.128899 -0.002990 71 21 103
0.031139 0.422139 -0.291781 68 1 84
-0.582871 0.107820 0.189161 30 151 138
0.259229 0.039675 -0.195242 68 1 84
0.204838 0.451183 -0.210514 68 1 84
-0.622187 0.023127 0.337719 39 124 142
-0.497601 -0.004598 -0.060243 47 106 141
-0.526536 0.386820 0.417210 43 115 142
-0.378255 0.215309 -0.116224 68 3 87
0.346549 0.519804 0.161478 45 110 142
-0.474385 -0.403722 -0.077297 73 193 109
-0.566046 -0.009017 0.050426 38 128 142
-0.239720 -0.078936 -0.194262 68 1 84
-0.108240 -0.192485 -0.314167 68 1 84
-0.557450 0.304459 0.219624 68 190 112
-0.678610 -0.114278 0.562843 46 107 142
0.737074 -0.430199 0.411231 37 130 142
-0.517999 0.392535 0.194484 66 190 113
0.643143 -0.136113 0.293189 31 163 134
-0.682355 -0.148394 0.561605 54 90 140
-0.638454 -0.195840 0.215860 48 104 141
-0.596208 0.008195 0.195643 43 115 142
-0.699056 -0.280762 0.500288 38 127 142
0.352705 0.418967 -0.014506 53 93 140
-0.269859 -0.116965 -0.181045 68 1 84
-0.024582 -0.070488 -0.489966 68 1 84
0.545132 0.242009 0.420485 41 175 127
0.405866 0.250260 -0.035514 62 72 136
0.578950 0.033859 0.285742 30 160 135
-0.620101 0.100146 0.401921 39 126 142
0.597414 0.002421 0.529377 42 119 142
-0.213716 -0.313485 -0.142366 65 65 134
0.405963 0.214660 -0.051700 72 30 112
-0.319575 0.569897 0.057379 72 29 111
0.293877 0.446354 -0.095001 55 88 140
-0.318923 -0.381457 -0.126555 30 152 138
0.590995 -0.020512 0.286703 32 144 140
-0.607529 0.083398 0.288172 33 140 141
-0.542088 0.295988 0.166958 32 165 133
-0.537658 0.368613 0.399610 31 161 135
-0.119534 -0.300981 -0.198901 60 77 138
0.039814 0.247827 -0.292899 68 1 84
0.531160 0.214639 0.502376 48 180 122
0.695353 -0.274328 0.168228 54 184 119
0.716604 -0.264524 0.253576 34 138 141
-0.411648 -0.051943 -0.139272 61 74 137
-0.524257 0.339962 0.153163 51 182 121
-0.371883 -0.349474 -0.116719 39 125 142
-0.079604 -0.467949 -0.283185 30 157 136
-0.616915 -0.075234 0.215636 49 102 141
-0.192847 -0.267653 -0.167295 70 48 125
0.060039 -0.289268 -0.295698 68 1 84
0.462244 -0.263385 -0.044908 58 82 139
-0.358428 0.279592 -0.125891 68 1 84
-0.168169 0.228864 -0.236851 68 1 84
0.545106 0.179619 0.502551 46 178 124
-0.608154 0.130560 0.310986 33 166 133
-0.070070 0.008898 -0.330185 68 1 84
0.399322 0.122541 -0.091122 72 30 112
0.297282 0.473227 -0.078041 64 68 135
-0.194516 0.444865 -0.244982 72 34 115
-0.042695 -0.452586 -0.291085 39 126 142
0.057266 -0.089913 -0.437641 68 1 84
-0.220519 -0.480170 -0.202341 40 174 127
0.077979 0.260951 -0.282176 68 1 84
-0.642936 0.000767 0.503670 38 127 142
0.209191 0.554973 -0.181736 68 1 84
-0.556624 -0.040833 0.011788 33 141 140
0.725054 -0.231647 0.422284 34 139 141
0.561133 -0.459605 0.061471 32 145 140
-0.611138 0.146052 0.443018 45 111 142
0.744905 -0.493117 0.221290 103 204 92
0.590387 -0.021531 0.279498 30 157 136
0.017318 0.340594 -0.287835 68 1 84
-0.446934 0.464105 0.110730 35 135 141
-0.355909 0.143306 -0.156045 69 5 88
-0.606308 0.077627 0.520659 43 115 142
0.285159 -0.334798 -0.129508 55 89 140
0.581146 -0.078441 0.127703 54 91 140
0.399626 0.033368 -0.115358 68 1 84
-0.687062 -0.374009 0.388798 36 134 141
-0.034555 -0.243054 -0.404382 68 1 84
-0.507171 0.427512 0.384183 30 151 138
-0.600789 -0.543674 0.209729 34 167 132
0.216558 0.545712 -0.177221 68 1 84
-0.370120 0.193342 -0.132299 70 11 94
0.369323 0.501543 0.180095 35 136 141
0.748191 -0.391202 0.274816 81 196 104
0.608201 -0.135335 0.202129 43 116 142
0.154165 0.094409 -0.264864 68 1 84
0.526215 0.237249 0.488745 66 190 113
0.034522 -0.027267 -0.384157 68 1 84
0.674458 -0.179054 0.284523 48 180 122
-0.574150 0.284624 0.424093 31 150 139
0.075574 -0.355522 -0.235216 71 43 122
0.694046 -0.149800 0.349318 42 176 126
-0.589787 0.239552 0.360920 30 158 136
-0.539861 0.321141 0.178129 56 185 118
-0.309376 0.464303 -0.124878 68 1 84
0.174520 0.574927 -0.209939 68 1 84
-0.211391 0.455510 -0.232099 71 39 119
0.370627 -0.206336 -0.122583 68 3 87
0.519389 0.306825 0.444185 85 198 102
-0.062301 -0.295172 -0.338974 68 1 84
-0.184389 0.108794 -0.269176 68 1 84
-0.546276 -0.361462 0.009583 36 170 130
-0.674786 -0.081089 0.417550 33 142 140
-0.502013 0.404117 0.158233 46 178 124
0.664897 -0.214488 0.203665 77 194 107
0.267075 -0.121711 -0.171738 68 1 84
0.206148 -0.364284 -0.120917 64 68 135
0.625865 -0.190835 0.215118 35 136 141
-0.205839 0.461749 -0.236156 71 39 119
0.312286 -0.343972 -0.126759 42 119 142
-0.540136 -0.203667 -0.017910 31 147 139
-0.262596 -0.285878 -0.142640 47 105 141
-0.402477 0.209868 -0.089731 72 32 113
0.536400 0.214670 0.477265 66 190 113
0.475227 0.349553 0.153781 31 148 139
-0.705729 -0.366484 0.491659 38 127 142
-0.286204 0.537997 -0.124996 69 8 91
-0.201102 -0.316807 -0.144087 64 68 135
-0.298903 0.157746 -0.203743 68 1 84
-0.274085 -0.300369 -0.138432 45 111 142
-0.009987 0.022915 -0.393166 68 1 84
-0.642269 -0.312822 0.292023 35 137 141
0.306606 0.276266 -0.152943 68 1 84
-0.510092 0.395376 0.169960 56 185 118
-0.159584 0.086945 -0.274605 68 1 84
-0.222182 0.497825 -0.221072 68 1 84
0.067210 0.630932 -0.209438 68 1 84
0.336133 0.362400 -0.070318 71 44 123
-0.436973 0.370460 0.024537 30 151 138
0.723815 -0.307362 0.349642 49 102 141
0.488752 0.387699 0.258028 57 185 118
0.415934 -0.276504 -0.075754 48 104 141
0.378914 -0.256833 -0.102627 70 12 95
0.008954 0.045204 -0.347184 68 1 84
-0.399767 -0.129756 -0.139299 55 88 140
0.307825 -0.426734 -0.185568 32 165 133
0.703609 -0.172463 0.330981 41 175 127
0.600106 -0.007803 0.511361 41 120 142
0.149767 -0.418073 -0.199629 30 160 135
0.377117 0.308695 -0.046294 71 21 103
-0.677671 -0.244152 0.328645 39 126 142
0.573869 -0.259698 0.070870 43 116 142
0.256385 -0.357401 -0.128135 45 110 142
0.090340 0.271647 -0.279208 68 1 84
0.448744 0.179715 0.001099 58 82 139
0.256225 0.580240 -0.026982 66 61 132
0.379327 -0.041862 -0.137248 68 1 84
-0.079439 -0.456958 -0.278432 30 153 138
0.705748 -0.173523 0.480844 32 144 140
-0.409895 0.472913 0.048647 47 106 141
0.428501 0.462553 0.308833 53 183 120
0.103388 -0.326533 -0.194077 68 1 84
0.564490 -0.432834 0.061001 62 188 115
-0.328354 -0.326714 -0.133618 35 136 141
-0.525832 0.009910 -0.017314 46 109 142
0.157335 -0.155865 -0.215245 68 1 84
0.202914 -0.364070 -0.120556 62 72 136
0.130992 -0.114622 -0.253730 68 1 84
0.345995 0.517011 0.135048 51 97 141
-0.097199 0.002782 -0.292791 68 1 84
0.292621 0.296184 -0.163005 68 1 84
0.579048 0.070257 0.325538 32 145 140
-0.570656 -0.453494 0.069506 33 142 140
0.697243 -0.262726 0.183031 77 194 107
0.548615 0.204420 0.310023 34 167 132
-0.489558 -0.239522 -0.054030 32 164 133
0.036944 0.077200 -0.329603 68 1 84
0.575849 0.116056 0.339968 30 159 136
-0.011915 0.096608 -0.328416 68 1 84
-0.178559 0.272953 -0.247954 68 1 84
0.385162 0.095567 -0.110929 68 1 84
0.565502 -0.003719 0.156881 59 81 138
0.630173 -0.256273 0.166988 35 168 131
0.099264 -0.374411 -0.208359 72 25 107
-0.075744 0.130542 -0.330034 68 1 84
0.287447 -0.142554 -0.162554 68 1 84
-0.615688 0.055294 0.538516 49 101 141
-0.098702 -0.373235 -0.209099 42 119 142
-0.601829 0.178397 0.355787 30 156 137
0.728570 -0.288653 0.400984 42 117 142
-0.635687 0.015975 0.492974 40 122 142
-0.152808 0.113883 -0.292152 68 1 84
0.548822 0.150182 0.232466 38 129 142
-0.477889 -0.424711 -0.096001 66 190 113
-0.143976 -0.406198 -0.174703 32 145 140
0.157164 -0.145179 -0.218006 68 1 84
-0.186222 0.272250 -0.241318 68 1 84
0.382791 0.294765 -0.047538 64 67 135
-0.591490 -0.451599 0.159398 30 157 136
-0.327964 0.559427 0.042007 71 44 123
0.060304 -0.432918 -0.283580 41 121 142
-0.114768 -0.267216 -0.230117 68 1 84
0.463329 0.050085 -0.045061 70 9 92
-0.334768 -0.418421 -0.138687 73 193 109
-0.562396 -0.005473 0.044340 39 126 142
0.353828 -0.112848 -0.144663 68 1 84
0.718606 -0.215354 0.378601 30 153 138
0.297480 -0.429801 -0.194264 30 152 138
0.730068 -0.268463 0.431440 41 121 142
0.420364 0.194111 -0.038828 64 67 135
0.542038 0.248935 0.422400 59 186 117
0.510820 0.220115 0.146971 41 120 142
0.077550 0.192568 -0.299117 68 1 84
-0.339460 0.287027 -0.150910 68 1 84
-0.198918 -0.038790 -0.204825 68 1 84
-0.337074 -0.181161 -0.153450 72 34 115
0.365749 -0.460924 -0.197224 73 193 109
-0.119285 -0.137948 -0.352470 68 1 84
-0.590644 0.028536 0.180289 40 122 142
0.251107 0.086048 -0.204249 68 1 84
0.364617 0.033084 -0.140040 68 1 84
-0.466337 -0.151830 -0.105281 35 136 141
0.701046 -0.305238 0.156892 32 164 133
-0.299329 0.113048 -0.198995 68 1 84
-0.708201 -0.422727 0.479102 41 120 142
0.553594 0.019259 0.126004 71 44 123
0.169995 -0.482435 -0.270984 36 134 141
-0.503918 0.438054 0.347210 37 171 129
-0.616961 -0.017354 0.291352 40 123 142
0.481127 0.224153 0.080414 54 91 140
-0.229789 0.581842 -0.161626 68 1 84
-0.641131 0.010977 0.466428 42 117 142
-0.632363 -0.364188 0.274057 30 154 137
-0.685855 -0.143390 0.387377 36 132 141
0.148834 -0.201350 -0.210278 68 1 84
0.515292 0.193019 0.133303 42 119 142
-0.520953 0.081481 0.018465 49 102 141
0.241463 -0.275351 -0.147574 71 17 99
-0.520987 0.192055 0.072934 31 147 139
-0.457465 0.358058 0.044422 30 151 138
0.745981 -0.496655 0.280177 30 153 138
-0.696326 -0.266703 0.479687 36 133 141
0.121427 -0.102900 -0.317312 68 1 84
-0.065127 -0.501471 -0.297318 30 159 136
0.157569 0.445793 -0.246979 68 1 84
-0.694750 -0.238247 0.472542 38 127 142
-0.634867 -0.023891 0.390100 32 145 140
0.092551 -0.142281 -0.332007 68 1 84
-0.147846 0.138512 -0.298734 68 1 84
-0.688923 -0.253536 0.417479 35 137 141
-0.567028 -0.245293 0.036496 30 158 136
-0.682042 -0.101482 0.482355 52 95 141
-0.456731 0.494116 0.266612 30 153 138
0.236293 0.303062 -0.195560 68 1 84
-0.622238 0.100168 0.433408 35 136 141
0.458613 0.431033 0.228980 30 151 138
-0.062071 -0.285198 -0.348493 68 1 84
-0.448585 0.165530 -0.055507 55 89 140
0.582938 -0.081308 0.134515 47 105 141
0.032477 -0.250219 -0.377442 68 1 84
-0.423758 -0.399466 -0.094992 39 173 128
0.197795 -0.111764 -0.198750 68 1 84
-0.170622 0.017852 -0.226756 68 1 84
0.037950 0.438487 -0.297459 68 1 84
-0.086401 0.589669 -0.260312 68 1 84
0.069363 0.011629 -0.291950 68 1 84
0.132416 -0.063877 -0.334525 68 1 84
-0.197304 -0.479001 -0.222964 33 166 133
-0.633440 0.022251 0.484184 39 126 142
0.425257 0.218569 -0.014393 58 83 139
0.061863 0.625154 -0.221043 68 1 84
-0.303180 -0.135852 -0.168872 69 6 90
-0.671566 -0.139123 0.328716 37 131 141
0.351032 0.380900 -0.037862 68 57 130
-0.561889 -0.199186 0.012102 34 167 132
-0.683118 -0.123080 0.378573 38 128 142
-0.501430 -0.293021 -0.022414 36 170 130
-0.104289 -0.208785 -0.306860 68 1 84
-0.667261 -0.435696 0.347928 35 137 141
0.452994 0.106435 -0.033270 68 55 129
-0.351819 0.522386 -0.001040 57 85 139
-0.073745 -0.476381 -0.288203 31 149 139
-0.476795 -0.469973 -0.131897 159 217 56
0.551636 0.208906 0.363166 37 171 129
0.059611 -0.034110 -0.401081 68 1 84
-0.482409 0.383369 0.096571 35 169 130
0.425166 0.457185 0.166094 31 146 140
-0.185377 0.623315 -0.134870 68 1 84
0.141911 -0.486269 -0.282852 32 165 133
-0.608866 0.083807 0.297015 35 136 141
-0.229264 -0.238496 -0.167928 70 12 95
0.635845 -0.080021 0.458258 35 135 141
0.018982 0.360571 -0.282937 68 1 84
-0.479108 0.066620 -0.054346 45 111 142
-0.370282 0.243945 -0.119450 69 6 90
0.532165 0.284214 0.306930 36 170 130
-0.647638 -0.005267 0.553801 38 128 142
-0.587034 0.150266 0.232095 33 166 133
0.425752 0.036561 -0.093032 68 1 84
0.266317 -0.023178 -0.188826 68 1 84
0.126656 -0.489870 -0.289216 33 142 140
0.168475 0.545292 -0.229863 68 1 84
0.657998 -0.427069 0.145092 35 168 131
0.071333 0.347513 -0.282807 68 1 84
-0.406509 0.522316 0.159539 46 107 142
0.622059 -0.048361 0.345854 47 179 123
-0.377136 0.033376 -0.155410 70 14 97
0.573549 0.047244 0.269025 42 118 142
0.546079 0.137863 0.196817 35 136 141
-0.068742 0.463404 -0.299338 68 1 84
-0.566287 0.299103 0.258943 42 176 126
0.156741 0.586235 -0.219285 68 1 84
0.547117 0.164727 0.241411 31 161 135
0.377244 -0.149173 -0.131633 68 1 84
-0.390062 0.033466 -0.147081 71 42 121
0.500333 0.334888 0.208066 40 174 127
0.737991 -0.472040 0.419529 45 110 142
0.072487 0.611706 -0.235997 68 1 84
0.179048 0.616674 -0.103393 68 1 84
-0.367508 0.220868 -0.128944 68 2 85
-0.499843 -0.057914 -0.073085 38 128 142
0.583708 0.047938 0.503639 37 130 142
0.647054 -0.099761 0.477167 36 134 141
0.109478 0.029804 -0.262649 68 1 84
0.221834 -0.280617 -0.149276 71 22 105
-0.036446 -0.160219 -0.453098 68 1 84
-0.083884 -0.518709 -0.297718 43 177 125
-0.344913 -0.279824 -0.125469 37 131 141
-0.698372 -0.276885 0.495405 35 137 141
-0.241930 0.605657 -0.078391 65 65 134
-0.221000 -0.191247 -0.187362 68 1 84
0.533690 -0.486733 -0.059498 83 197 103
0.115859 0.103693 -0.292990 68 1 84
0.753466 -0.363553 0.230539 40 174 127
-0.427658 -0.243267 -0.094130 35 169 130
0.448227 0.178142 -0.000923 53 93 140
-0.145379 0.477794 -0.273649 68 1 84
-0.074633 -0.344193 -0.260735 50 98 141
-0.422749 0.123123 -0.099198 69 54 129
0.615106 -0.228199 0.164855 30 153 138
0.279616 0.443772 -0.120199 69 54 129
0.321857 0.331447 -0.106816 68 1 84
-0.392427 -0.607120 -0.203623 116 208 84
-0.602340 -0.066293 0.135405 45 111 142
-0.225768 0.379095 -0.224091 68 1 84
0.334814 -0.387256 -0.126982 30 153 138
0.081663 0.513669 -0.287826 68 1 84
0.607630 -0.043386 0.322171 44 177 125
-0.178238 0.492996 -0.256445 68 1 84
-0.526203 -0.438785 -0.069536 141 214 68
0.401121 -0.128688 -0.125007 68 1 84
-0.517161 -0.132358 -0.065716 33 140 141
0.069069 0.124360 -0.320731 68 1 84
-0.436285 0.120536 -0.086171 62 73 137
0.561468 -0.493845 0.054813 42 119 142
0.453976 -0.360185 -0.061114 32 165 133
-0.528831 0.406239 0.322730 38 172 129
0.487456 0.012179 -0.032018 66 62 133
0.717302 -0.235129 0.319774 31 148 139
-0.012503 -0.310403 -0.368293 68 1 84
0.379807 0.491088 0.161914 36 133 141
-0.594456 0.128549 0.496160 46 107 142
-0.080868 -0.223236 -0.353226 68 1 84
-0.695687 -0.245803 0.448834 37 131 141
0.603782 -0.001858 0.410747 30 151 138
-0.052671 -0.002847 -0.406507 68 1 84
0.190066 -0.124417 -0.200302 68 1 84
0.582780 -0.420084 0.116743 30 160 135
0.438177 -0.031332 -0.099281 71 17 99
-0.413253 0.191333 -0.085507 62 72 136
-0.379921 0.394727 -0.038925 60 77 138
-0.618980 0.105384 0.398762 38 129 142
-0.621983 -0.164898 0.151902 40 122 142
0.535019 0.057392 0.094824 63 69 135
-0.503192 -0.079641 -0.074385 34 137 141
-0.561109 0.318207 0.386144 30 153 138
0.546428 0.150668 0.210326 34 137 141
0.184208 0.084316 -0.240066 68 1 84
0.396152 0.080405 -0.106141 68 1 84
-0.569758 0.261576 0.233828 30 153 138
0.595214 -0.113357 0.162763 56 87 140
-0.336651 -0.020429 -0.176439 72 34 115
0.107197 0.060963 -0.272331 68 1 84
-0.365647 0.166226 -0.142898 70 9 92
0.439032 -0.158487 -0.100511 68 1 84
0.281616 0.438894 -0.118290 66 62 133
0.467602 0.419869 0.314070 32 165 133
-0.008926 0.229172 -0.295682 68 1 84
-0.605424 0.108873 0.480820 38 127 142
0.163876 0.394573 -0.241318 68 1 84
-0.646951 -0.290339 0.285928 32 144 140
0.411476 0.214452 -0.041770 64 67 135
0.292462 0.336601 -0.145443 68 1 84
-0.517355 0.400545 0.208971 68 190 112
0.506290 0.337997 0.242545 31 162 134
-0.066205 0.641921 -0.178560 68 1 84
-0.576756 0.182341 0.217311 31 162 134
-0.680646 -0.205902 0.389490 44 114 142
0.526994 -0.373209 -0.034442 43 177 125
0.748185 -0.435352 0.255349 53 183 120
-0.505724 0.100902 0.004696 48 104 141
0.173193 -0.407250 -0.160439 41 121 142
0.580199 0.055245 0.519922 33 141 140
0.162142 0.427979 -0.241911 68 1 84
-0.551287 0.113094 0.099225 40 122 142
-0.594641 -0.101643 0.077469 41 120 142
-0.195057 -0.149170 -0.201677 68 1 84
-0.327830 -0.378854 -0.126041 35 135 141
0.579099 0.111084 0.357795 41 175 127
-0.439108 0.468914 0.100019 36 134 141
0.569678 -0.141416 0.061227 48 103 141
-0.629258 -0.393780 0.269820 30 160 135
0.543715 0.196043 0.481708 39 173 128
-0.623780 -0.341306 0.231671 30 153 138
0.051528 0.277363 -0.296513 68 1 84
0.012356 0.026466 -0.360893 68 1 84
0.261834 0.396489 -0.162102 68 1 84
0.716886 -0.192592 0.432613 32 143 140
0.745969 -0.504017 0.315363 33 140 141
-0.629890 -0.216339 0.184635 42 117 142
0.478538 0.116113 0.013471 70 47 124
-0.528285 0.195907 0.088119 30 152 138
0.018134 0.367123 -0.282344 68 1 84
-0.436242 0.472568 0.099886 43 116 142
0.307118 0.523133 -0.010012 44 112 142
-0.587289 0.243343 0.289392 30 155 137
-0.512689 0.426911 0.263235 57 185 118
0.633952 -0.184822 0.251332 34 167 132
-0.164925 -0.084986 -0.287535 68 1 84
0.525278 0.290947 0.264271 37 171 129
0.243327 0.014062 -0.198444 68 1 84
-0.520982 0.001497 -0.028401 44 113 142
-0.145865 0.412867 -0.261456 68 1 84
0.687900 -0.236595 0.196365 96 201 96
0.499634 0.357519 0.264949 46 178 124
-0.483349 0.357556 0.081874 30 157 136
-0.325744 0.129917 -0.182701 68 1 84
-0.478959 0.472847 0.261373 30 155 137
-0.565814 -0.184793 0.014146 30 159 136
-0.297455 0.560681 -0.071961 71 42 121
0.222688 0.142818 -0.236535 68 1 84
-0.590885 -0.405361 0.136639 44 114 142
0.059700 -0.455853 -0.291122 37 131 141
-0.271651 0.566352 -0.114964 61 76 137
0.637716 -0.101789 0.314302 31 162 134
-0.601820 -0.039058 0.168171 45 110 142
-0.330965 -0.085369 -0.169377 71 37 117
-0.630794 -0.157722 0.190105 48 104 141
-0.424989 0.235016 -0.051965 48 104 141
0.235026 0.299506 -0.196033 68 1 84
-0.554824 0.317622 0.460604 41 175 127
0.477645 0.403491 0.305858 33 167 132
0.207012 -0.347039 -0.123037 70 45 124
0.338808 -0.428721 -0.193944 48 180 122
0.334796 0.067586 -0.154088 68 1 84
0.309217 0.110168 -0.163959 68 1 84
-0.586531 0.265401 0.331247 35 168 131
-0.087887 0.071977 -0.322163 68 1 84
-0.286650 0.276725 -0.186613 68 1 84
0.673617 -0.414079 0.153279 32 165 133
0.419611 -0.491966 -0.186814 56 185 118
0.081443 -0.022516 -0.335366 68 1 84
-0.190958 -0.264728 -0.169832 70 14 97
-0.048309 -0.449889 -0.288572 34 138 141
0.105700 -0.249498 -0.239520 68 1 84
-0.335943 0.453460 -0.079921 69 54 129
0.336617 0.162732 -0.135821 68 1 84
0.604826 -0.007510 0.409103 30 152 138
0.077241 0.332671 -0.285593 68 1 84
0.302581 -0.315624 -0.131532 54 90 140
-0.047238 0.301635 -0.297279 68 1 84
-0.404056 0.227609 -0.080750 66 61 132
0.518071 0.323475 0.317518 59 186 117
-0.477571 0.175050 -0.005729 40 122 142
-0.310868 -0.047224 -0.182251 68 1 84
-0.223485 -0.295940 -0.145104 49 100 141
-0.682719 -0.134677 0.514529 50 98 141
0.012538 -0.129878 -0.465159 68 1 84
-0.075807 0.108612 -0.330299 68 1 84
0.730815 -0.259327 0.449644 40 122 142
-0.385471 0.530150 0.126137 43 115 142
0.316923 0.500996 -0.012398 58 82 139
-0.222305 0.402474 -0.225368 71 17 99
0.542046 0.159377 0.195938 30 156 137
0.064226 0.219323 -0.279830 68 1 84
-0.205561 0.367747 -0.236988 68 1 84
-0.255294 0.584549 -0.114804 58 83 139
0.562526 -0.475757 0.072830 32 164 133
-0.554253 0.300004 0.204447 69 191 111
-0.108068 -0.412648 -0.224344 34 138 141
0.244335 -0.399397 -0.143249 33 142 140
-0.585333 0.031365 0.144398 44 112 142
0.733802 -0.282124 0.504079 44 114 142
-0.629325 -0.206943 0.181431 43 116 142
0.165341 0.123802 -0.270490 68 1 84
0.560280 -0.337943 0.041665 30 158 136
-0.508001 0.238235 0.078713 32 144 140
-0.675291 -0.086830 0.406372 35 136 141
-0.043794 0.620199 -0.231217 68 1 84
-0.049856 0.308510 -0.295658 68 1 84
-0.212428 -0.123766 -0.197898 68 1 84
-0.117599 -0.174968 -0.307185 68 1 84
-0.688412 -0.322587 0.390826 33 140 141
0.214310 0.606740 -0.046429 71 21 103
0.112597 -0.386747 -0.202684 65 65 134
0.416762 -0.262221 -0.077539 68 1 84
-0.624021 -0.325854 0.221920 31 146 140
0.376974 -0.406501 -0.139455 30 159 136
0.422358 -0.328889 -0.063720 31 148 139
-0.581708 -0.120437 0.039401 35 135 141
0.652338 -0.075872 0.362874 35 169 130
0.499948 0.293268 0.173513 31 146 140
-0.045285 0.012311 -0.384926 68 1 84
-0.068108 -0.444310 -0.278319 34 139 141
0.469007 -0.092999 -0.083159 68 1 84
0.442523 0.446905 0.200999 30 152 138
0.293836 -0.467739 -0.218346 30 157 136
-0.031725 0.271663 -0.303739 68 1 84
-0.380464 -0.540861 -0.205994 233 228 25
-0.013486 0.109626 -0.326764 68 1 84
-0.369480 0.447815 -0.028047 59 80 138
0.441954 0.451228 0.227935 30 158 136
0.506111 0.341699 0.412958 75 194 108
-0.456881 0.491513 0.235636 31 149 139
0.062213 0.406378 -0.276198 68 1 84
0.461697 -0.056715 -0.084191 72 29 111
0.537589 -0.361554 -0.009128 30 153 138
-0.434722 0.075518 -0.102149 57 84 139
-0.510785 0.334049 0.123228 39 173 128
-0.013956 -0.356729 -0.328914 69 52 127
0.740617 -0.413545 0.339768 35 168 131
0.720924 -0.255238 0.318989 44 114 142
-0.553751 0.146118 0.123605 33 142 140
0.386432 -0.352570 -0.089668 40 123 142
-0.261352 0.350661 -0.200737 68 1 84
-0.182650 0.229571 -0.226124 68 1 84
0.428605 0.173503 -0.039713 61 75 137
-0.215148 0.417350 -0.229377 70 49 126
0.532360 0.290011 0.411114 66 190 113
0.259492 -0.445683 -0.196815 30 155 137
-0.344139 0.144587 -0.166831 68 1 84
0.593666 -0.157983 0.121051 43 116 142
-0.445486 -0.106578 -0.121214 51 96 141
-0.476213 -0.005728 -0.083855 60 78 138
-0.490366 0.458900 0.276702 33 167 132
-0.187173 0.353327 -0.248783 68 1 84
-0.387098 -0.088014 -0.149205 66 61 132
0.439426 -0.567654 -0.176226 46 178 124
-0.168800 -0.102020 -0.224727 68 1 84
-0.358400 0.547159 0.101589 54 91 140
0.625145 -0.044420 0.371014 32 164 133
0.385894 0.394985 0.014031 69 8 91
0.656877 -0.080834 0.374258 32 164 133
0.456923 0.014841 -0.068322 72 30 112
-0.587764 -0.212358 0.063665 33 141 140
0.367734 -0.554438 -0.225959 51 182 121
-0.295572 -0.325746 -0.136684 30 160 135
-0.426695 -0.601359 -0.180891 129 211 76
-0.208683 -0.385514 -0.121669 32 143 140
0.535034 0.204103 0.209242 32 144 140
0.168847 0.391158 -0.238780 68 1 84
-0.385404 -0.263637 -0.108535 39 125 142
-0.297902 0.259099 -0.190921 68 1 84
-0.008428 0.518534 -0.299652 68 1 84
-0.451267 0.256339 -0.009390 48 104 141
0.293545 0.046391 -0.179739 68 1 84
-0.059332 -0.529328 -0.300512 38 172 129
0.585175 0.041699 0.348560 30 153 138
0.539825 -0.125001 0.005253 58 82 139
-0.541909 0.358832 0.223894 75 194 108
0.743764 -0.407053 0.303841 34 167 132
0.740709 -0.479598 0.393293 42 118 142
0.003425 -0.290214 -0.379405 68 1 84
0.543277 0.179029 0.226373 35 137 141
-0.438607 0.341772 0.012687 34 138 141
0.642433 -0.171443 0.271265 33 166 133
-0.528825 -0.120529 -0.051396 35 136 141
-0.683639 -0.186440 0.417632 39 125 142
0.427459 -0.035510 -0.107809 71 15 98
0.748839 -0.424676 0.259619 68 190 112
-0.167422 0.558202 -0.245410 68 1 84
-0.684128 -0.187159 0.420550 42 118 142
-0.536200 -0.513914 -0.062863 114 207 85
-0.591207 0.225925 0.293002 33 166 133
0.575484 0.051669 0.286936 30 158 136
0.401328 0.203806 -0.062775 69 50 127
-0.079605 -0.031800 -0.432111 68 1 84
0.487447 -0.369850 -0.062361 57 185 118
-0.695179 -0.256730 0.483044 41 121 142
-0.267830 0.582858 -0.092530 55 89 140
-0.064355 0.583003 -0.268410 68 1 84
0.081997 -0.185180 -0.320475 68 1 84
0.284752 0.220019 -0.193127 68 1 84
0.341886 0.514129 0.095919 61 75 137
0.164495 0.187660 -0.268303 68 1 84
-0.091534 -0.145824 -0.410501 68 1 84
0.108598 -0.013088 -0.337043 68 1 84
0.517720 0.071574 0.057065 69 54 129
0.015860 -0.271193 -0.384761 68 1 84
0.040353 0.452264 -0.301269 68 1 84
-0.683452 -0.195596 0.414385 36 133 141
0.093275 -0.173957 -0.303099 68 1 84
-0.401224 0.176969 -0.102707 67 58 131
0.736095 -0.425632 0.433028 40 122 142
-0.359124 0.416406 -0.059732 57 84 139
0.346752 -0.013050 -0.155400 68 1 84
0.479615 0.115729 0.015081 70 48 125
-0.338058 0.109145 -0.173509 68 1 84
-0.706308 -0.468055 0.465890 36 134 141
-0.320027 0.199348 -0.188678 68 1 84
0.611328 -0.031146 0.424618 33 140 141
0.540650 -0.288770 0.024408 39 125 142
-0.104632 0.143419 -0.320089 68 1 84
0.401278 -0.407894 -0.136071 37 171 129
-0.553912 0.349471 0.285200 39 173 128
-0.570592 -0.457218 0.072698 35 136 141
-0.600947 0.171580 0.321660 35 168 131
-0.187251 0.398488 -0.246005 68 1 84
-0.072099 -0.102958 -0.463601 68 1 84
0.277193 -0.247999 -0.145910 71 17 99
0.300664 0.413912 -0.096278 61 76 137
-0.507040 -0.228323 -0.043945 31 161 135
0.276149 0.567275 0.018087 52 95 141
0.183885 -0.170279 -0.195490 68 1 84
0.442165 -0.566164 -0.174086 83 197 103
-0.551053 -0.430764 -0.023237 30 160 135
-0.239216 -0.425432 -0.147907 30 153 138
-0.666052 -0.377487 0.340278 33 140 141
0.335185 0.339395 -0.083773 68 1 84
0.393763 -0.351832 -0.082777 39 125 142
-0.406566 0.037590 -0.134947 72 33 114
0.414219 0.234120 -0.026873 64 67 135
-0.622005 -0.339329 0.223597 30 154 137
-0.163796 0.027821 -0.233606 68 1 84
0.590316 -0.237518 0.106597 31 147 139
0.577695 0.071834 0.484927 31 150 139
0.215064 0.273209 -0.202150 68 1 84
-0.299342 0.205779 -0.206358 68 1 84
-0.570668 -0.120062 0.014390 31 148 139
0.604446 -0.081820 0.245981 38 129 142
-0.222580 0.451964 -0.223733 71 24 106
0.239638 -0.159466 -0.175643 68 1 84
0.535651 -0.268564 0.020144 54 90 140
-0.497553 -0.323333 -0.023038 47 179 123
0.744962 -0.484536 0.221746 112 206 86
0.367321 0.444279 0.027726 71 17 99
-0.645036 -0.276305 0.261277 31 146 140
0.701940 -0.231288 0.245408 43 177 125
-0.611593 -0.358871 0.193748 50 99 141
0.429102 -0.179076 -0.100306 72 30 112
0.685973 -0.381495 0.157905 30 153 138
0.386243 -0.106499 -0.133323 68 1 84
0.128108 0.585807 -0.238324 68 1 84
0.269442 0.440787 -0.137813 68 1 84
0.599584 -0.159019 0.140704 36 133 141
-0.218437 0.520058 -0.220444 68 1 84
0.570258 0.128640 0.384312 35 168 131
0.003764 0.479088 -0.305525 68 1 84
0.528096 -0.244905 0.009588 52 95 141
0.179511 -0.446450 -0.221688 33 167 132
0.395777 -0.335113 -0.084333 43 116 142
-0.538370 -0.044365 -0.023289 34 138 141
0.726923 -0.299733 0.394873 40 123 142
-0.649598 -0.188008 0.254955 39 124 142
-0.446909 -0.489447 -0.157400 151 216 62
0.553023 0.210800 0.373452 38 172 129
-0.013123 0.004499 -0.433219 68 1 84
0.506808 0.318427 0.468059 89 199 100
-0.039246 0.115661 -0.326877 68 1 84
0.326987 -0.516632 -0.237486 35 169 130
-0.260468 -0.507795 -0.226258 121 209 81
-0.435025 -0.347206 -0.063839 48 180 122
-0.437169 -0.516642 -0.173645 165 218 53
-0.578810 -0.108512 0.033820 36 133 141
-0.513461 0.405288 0.427889 38 128 142
0.752788 -0.422520 0.247077 66 190 113
0.226317 0.329941 -0.203164 68 1 84
0.127743 -0.301760 -0.181711 68 1 84
-0.562537 -0.449997 0.016924 36 134 141
-0.489885 -0.271447 -0.039540 35 169 130
-0.241718 0.133768 -0.240190 68 1 84
0.192283 0.033561 -0.217459 68 1 84
-0.030611 -0.510558 -0.302243 35 168 131
0.733197 -0.271787 0.473805 40 123 142
0.335574 0.009667 -0.160997 68 1 84
-0.406086 0.294839 -0.053159 71 43 122
0.277469 0.376817 -0.148197 68 1 84
0.442209 0.450709 0.225279 32 144 140
-0.043868 -0.003186 -0.429278 68 1 84
0.396996 0.359373 0.010135 71 44 123
0.175153 -0.313100 -0.149879 72 34 115
0.628513 -0.307347 0.155256 31 147 139
0.502434 0.348353 0.403265 42 176 126
-0.479266 0.429265 0.133237 30 158 136
-0.433096 -0.218275 -0.103397 31 146 140
0.051846 -0.433076 -0.286877 36 132 141
0.636899 -0.057083 0.359598 35 169 130
0.524955 0.151328 0.127645 53 92 140
-0.649761 -0.427948 0.312984 36 133 141
-0.247233 0.572073 -0.149098 69 52 127
-0.115355 -0.417117 -0.220908 34 139 141
0.113657 -0.264136 -0.218373 68 1 84
0.704793 -0.267204 0.199754 56 185 118
0.263759 0.341530 -0.175756 68 1 84
-0.624611 0.006172 0.349338 38 127 142
0.058426 -0.279857 -0.305074 68 1 84
-0.602419 -0.187243 0.093762 36 133 141
-0.340424 0.089824 -0.172669 68 1 84
0.535830 0.225201 0.233919 33 167 132
0.292696 -0.493362 -0.235084 46 178 124
0.150278 0.225002 -0.233757 68 1 84
0.588721 -0.196970 0.102823 56 86 139
0.691075 -0.289035 0.153302 56 185 118
-0.585050 -0.376466 0.098120 72 34 115
0.638748 -0.184214 0.259426 31 163 134
0.147205 0.312272 -0.252311 68 1 84
-0.440322 0.041356 -0.105746 60 78 138
-0.299057 0.579285 -0.002264 71 37 117
0.490124 -0.369298 -0.061039 64 189 114
-0.458590 0.315770 0.028791 39 124 142
-0.041556 0.361046 -0.284297 68 1 84
-0.613559 -0.397584 0.222090 51 182 121
-0.238705 0.041631 -0.209685 68 1 84
0.600240 -0.006522 0.365738 31 161 135
-0.353652 0.115121 -0.160824 70 14 97
0.759959 -0.365648 0.256858 42 176 126
-0.674475 -0.089035 0.400701 36 134 141
-0.643609 -0.304891 0.290342 35 137 141
0.032579 0.212394 -0.293824 68 1 84
0.593166 -0.287337 0.116884 39 125 142
-0.473275 -0.108575 -0.103489 41 120 142
-0.429650 0.050346 -0.113065 65 66 134
0.664944 -0.107746 0.351688 39 173 128
-0.093370 0.319752 -0.292211 68 1 84
-0.167012 -0.437689 -0.184226 31 163 134
0.655694 -0.111641 0.471612 32 145 140
0.218971 0.102261 -0.225820 68 1 84
0.440326 0.199653 0.001107 64 68 135
-0.381405 -0.416359 -0.145375 68 190 112
0.363187 -0.494250 -0.211605 57 185 118
-0.593950 -0.092703 0.078409 38 128 142
0.006680 0.612955 -0.243785 68 1 84
-0.568097 0.179079 0.177525 34 167 132
0.732497 -0.394647 0.442816 38 128 142
0.557379 -0.158055 0.036342 42 117 142
-0.690374 -0.503996 0.408222 32 144 140
0.065911 0.634365 -0.202566 68 1 84
-0.691200 -0.117842 0.422030 34 138 141
-0.156220 -0.485781 -0.258864 30 158 136
-0.685078 -0.504741 0.395353 36 132 141
-0.687710 -0.195271 0.496036 56 86 139
0.743245 -0.513847 0.216125 85 198 102
-0.594950 -0.216039 0.080281 30 153 138
-0.081617 0.496423 -0.298878 68 1 84
0.071093 -0.490413 -0.298592 42 119 142
0.591404 -0.182464 0.110721 47 106 141
-0.270800 -0.431717 -0.159169 30 158 136
0.542372 0.097071 0.156605 47 106 141
-0.571246 0.157507 0.177724 38 172 129
-0.446814 0.499567 0.230690 30 151 138
-0.630110 -0.411084 0.274689 31 150 139
0.556525 0.195553 0.399659 33 167 132
0.542802 0.178808 0.513244 35 168 131
0.649657 -0.173530 0.277679 30 159 136
0.347742 0.169072 -0.124299 68 1 84
-0.194162 0.251738 -0.221762 68 1 84
-0.580620 0.012782 0.110524 47 106 141
0.068098 0.600956 -0.249571 68 1 84
0.327257 0.431152 -0.044339 56 87 140
-0.201169 0.471902 -0.240092 68 1 84
0.459785 0.240410 0.052687 58 82 139
-0.432611 0.333911 -0.000736 32 144 140
0.011655 0.186496 -0.321886 68 1 84
-0.042202 0.009152 -0.401183 68 1 84
0.150927 0.060584 -0.247726 68 1 84
-0.409154 -0.015782 -0.139583 63 71 136
0.032201 -0.044179 -0.453686 68 1 84
-0.226741 0.094275 -0.233876 68 1 84
0.505133 0.253240 0.159046 42 118 142
0.545048 -0.368176 0.000011 30 157 136
-0.575022 0.280352 0.283932 34 167 132
0.419728 -0.168799 -0.108918 68 1 84
0.427660 0.258041 0.005920 56 86 139
0.463644 -0.549437 -0.156268 112 206 86
0.348615 0.152050 -0.126791 68 1 84
0.719040 -0.333256 0.400267 44 114 142
-0.571691 0.058802 0.110801 46 108 142
0.344889 0.482793 0.029058 69 53 128
-0.486508 -0.516373 -0.140505 253 231 36
-0.595810 0.208865 0.334114 35 169 130
0.511279 0.201970 0.130292 44 113 142
-0.651989 -0.495873 0.323252 34 139 141
-0.041689 -0.509067 -0.301162 30 154 137
-0.684692 -0.171418 0.530842 51 97 141
0.623500 -0.316690 0.153629 30 154 137
0.537516 0.267413 0.314431 51 182 121
0.340099 0.361037 -0.065308 72 28 110
-0.590256 0.233978 0.364501 30 160 135
-0.189371 0.216473 -0.232567 68 1 84
-0.501392 -0.192801 -0.066270 30 158 136
0.600310 -0.226467 0.140642 42 119 142
-0.540520 0.346751 0.428820 33 166 133
0.289566 -0.397839 -0.131740 38 129 142
-0.602489 -0.438710 0.195298 47 179 123
0.069133 0.614181 -0.234199 68 1 84
-0.228885 0.580166 -0.165675 68 1 84
-0.139941 -0.101080 -0.353617 68 1 84
0.491175 -0.006185 -0.035726 70 47 124
0.736330 -0.370276 0.333747 30 157 136
-0.431399 0.203523 -0.060102 64 67 135
0.329628 0.036068 -0.161754 68 1 84
-0.324713 0.345934 -0.144087 68 1 84
-0.197901 0.465875 -0.242218 69 8 91
-0.464396 -0.543582 -0.158973 218 226 24
0.274855 0.191001 -0.202947 68 1 84
0.496360 0.364822 0.278231 48 180 122
0.563013 -0.024926 0.109877 70 48 125
-0.211113 -0.264210 -0.162676 66 61 132
0.050765 -0.338236 -0.292162 68 1 84
0.578024 0.098070 0.400127 33 167 132
0.056359 -0.234106 -0.338362 68 1 84
-0.611851 0.023450 0.277930 39 126 142
0.523595 0.032141 0.043909 72 30 112
-0.271143 0.267755 -0.190703 68 1 84
-0.265297 -0.052297 -0.192152 68 1 84
-0.171530 -0.370492 -0.135333 38 127 142
-0.083980 -0.399228 -0.244577 48 103 141
-0.082520 -0.371311 -0.236103 42 119 142
-0.540955 0.340888 0.454861 31 161 135
0.480326 0.223832 0.078629 50 99 141
-0.116508 -0.246037 -0.244552 68 1 84
-0.452551 -0.114827 -0.117006 37 130 142
-0.552255 0.200068 0.138475 61 187 116
-0.548894 0.211644 0.138415 46 178 124
-0.605596 0.155874 0.343219 30 158 136
-0.692569 -0.282200 0.421569 31 146 140
0.110983 0.010254 -0.298057 68 1 84
0.109792 -0.385154 -0.204571 62 73 137
0.491788 0.299096 0.156055 42 118 142
0.042425 -0.439287 -0.291606 36 134 141
0.107043 -0.273835 -0.220369 68 1 84
0.017745 -0.364469 -0.317336 68 57 130
0.565079 -0.116256 0.054579 51 97 141
-0.355783 -0.346901 -0.125656 38 128 142
0.451845 0.103889 -0.035969 69 53 128
-0.123053 -0.528337 -0.290735 30 158 136
-0.619298 0.042701 0.505436 37 131 141
0.455381 0.349835 0.102279 36 132 141
0.419752 0.117542 -0.073238 70 48 125
0.305516 0.519026 -0.023541 54 91 140
-0.439115 0.504846 0.223268 31 147 139
0.564575 -0.064915 0.073490 63 71 136
-0.233843 -0.141356 -0.188322 68 1 84
-0.611195 -0.350217 0.186843 47 106 141
-0.112688 0.636516 -0.191305 68 1 84
0.469722 0.403670 0.198443 31 162 134
0.424009 0.435921 0.121290 36 133 141
0.544139 -0.133101 0.012257 56 86 139
0.719781 -0.493703 0.180823 157 217 58
0.737235 -0.435207 0.477331 47 106 141
-0.615977 0.102847 0.379351 30 153 138
-0.386316 0.419642 -0.019111 46 109 142
-0.330990 0.108069 -0.178878 68 1 84
-0.317409 0.537542 -0.063855 63 69 135
0.461879 0.270096 0.071701 59 80 138
-0.065813 0.169399 -0.325513 68 1 84
-0.435563 0.067372 -0.103556 61 76 137
-0.231022 -0.530168 -0.259125 59 186 117
-0.458917 -0.197563 -0.096469 39 124 142
0.499993 0.050805 0.011475 62 72 136
0.619783 -0.131253 0.245189 41 120 142
-0.021455 0.530294 -0.295935 68 1 84
0.174182 0.122512 -0.264419 68 1 84
-0.467801 0.297362 0.034246 30 152 138
0.688230 -0.138045 0.434788 30 154 137
-0.050895 -0.169222 -0.439734 68 1 84
-0.320349 0.506540 -0.085328 72 33 114
0.275922 0.543229 -0.064662 71 44 123
0.535776 0.219712 0.228003 31 161 135
-0.556922 0.283570 0.507532 48 103 141
-0.483430 -0.082572 -0.092903 41 121 142
0.566936 0.127545 0.401140 35 169 130
0.205406 0.322002 -0.215089 68 1 84
-0.064827 -0.063299 -0.473369 68 1 84
-0.015042 0.031362 -0.374828 68 1 84
-0.031227 -0.119420 -0.476801 68 1 84
0.505952 -0.490388 -0.114563 105 204 91
0.456331 0.089575 -0.034422 71 43 122
0.417432 0.474221 0.272642 61 187 116
-0.553848 -0.010176 0.022183 43 115 142
-0.404818 0.468924 0.036802 39 124 142
0.616358 -0.453531 0.149506 35 136 141
-0.678459 -0.105595 0.521759 47 106 141
0.177953 0.610863 -0.135429 68 1 84
0.149489 0.625879 -0.152675 68 1 84
0.588847 -0.051850 0.219227 52 95 141
0.059291 0.481807 -0.299565 68 1 84
-0.032623 0.644211 -0.177713 68 1 84
0.457612 -0.241115 -0.055280 69 54 129
-0.695797 -0.316048 0.428411 30 157 136
0.713162 -0.216871 0.313144 31 162 134
-0.153920 0.009705 -0.283750 68 1 84
0.550568 0.201013 0.330029 57 185 118
-0.083731 0.220453 -0.288181 68 1 84
0.716351 -0.338724 0.175580 39 173 128
0.565737 0.139613 0.383822 47 179 123
-0.075034 0.375094 -0.277983 68 1 84
-0.024697 -0.341605 -0.338883 68 1 84
-0.216054 0.557981 -0.205471 68 1 84
0.346311 0.373110 -0.049171 57 84 139
-0.624815 -0.208874 0.163989 42 119 142
-0.209824 -0.480471 -0.213910 47 179 123
-0.663372 -0.095293 0.346508 38 129 142
0.086741 -0.366898 -0.221038 71 38 118
-0.084541 0.044849 -0.314091 68 1 84
-0.616189 -0.454752 0.254569 31 161 135
-0.392613 -0.016581 -0.149936 71 44 123
0.062934 0.359364 -0.280500 68 1 84
0.740594 -0.387909 0.316539 30 153 138
-0.625781 -0.024199 0.325594 44 114 142
-0.590686 -0.094448 0.067814 39 126 142
-0.479713 -0.330935 -0.035084 31 150 139
0.665464 -0.431949 0.148158 53 183 120
0.587040 0.051793 0.370471 30 158 136
-0.183091 -0.127640 -0.210898 68 1 84
0.651336 -0.423189 0.142089 43 177 125
0.176859 0.156801 -0.269149 68 1 84
-0.456268 0.344335 0.037641 37 131 141
-0.661754 -0.056659 0.496668 41 121 142
-0.239843 0.462327 -0.208252 72 25 107
0.101299 -0.212610 -0.267896 68 1 84
0.648151 -0.101673 0.473324 35 137 141
-0.040891 0.547112 -0.289411 68 1 84
0.490778 0.379522 0.277746 43 177 125
0.076841 -0.027089 -0.340284 68 1 84
0.496113 0.348245 0.207663 30 159 136
-0.656474 -0.385241 0.321768 31 147 139
-0.094999 -0.531512 -0.296133 33 167 132
-0.542925 -0.418636 -0.032453 62 188 115
-0.189899 -0.040708 -0.207816 68 1 84
0.436450 0.182023 -0.018585 54 90 140
0.208963 -0.469815 -0.240341 33 142 140
-0.013416 -0.087201 -0.487473 68 1 84
0.575584 -0.157429 0.073532 47 106 141
0.129811 -0.184133 -0.236836 68 1 84
0.198252 0.140227 -0.254019 68 1 84
0.286377 0.173669 -0.189234 68 1 84
-0.526928 0.255726 0.121778 32 144 140
-0.545715 -0.267685 0.014562 30 159 136
0.523338 0.304207 0.292795 43 177 125
0.716355 -0.193128 0.476677 30 156 137
-0.680223 -0.122550 0.537483 50 99 141
-0.518854 -0.366161 -0.024109 61 187 116
-0.384061 -0.483544 -0.180002 77 194 107
0.463914 0.129325 -0.004793 71 20 102
-0.293815 -0.453326 -0.192201 96 201 96
0.517476 0.267604 0.464016 81 196 104
0.007699 0.477837 -0.305688 68 1 84
0.532949 0.287223 0.411601 37 171 129
0.645132 -0.091580 0.494700 39 126 142
0.215736 -0.231471 -0.167891 68 1 84
0.583323 0.037677 0.330481 34 138 141
-0.051969 -0.129681 -0.465664 68 1 84
0.095426 0.510129 -0.282878 68 1 84
0.335174 0.234943 -0.122201 68 1 84
0.335692 0.191782 -0.131691 68 1 84
0.337640 0.405189 -0.043288 63 71 136
0.373030 0.147971 -0.106827 68 1 84
0.051719 -0.250520 -0.338227 68 1 84
0.091734 -0.022268 -0.349610 68 1 84
-0.617036 0.062505 0.483306 37 130 142
-0.360049 0.287436 -0.119987 68 1 84
0.389797 0.493972 0.229868 31 162 134
-0.144792 0.091533 -0.288187 68 1 84
-0.375870 0.368448 -0.059465 61 74 137
-0.592618 0.141672 0.494493 49 100 141
-0.072163 -0.030579 -0.441572 68 1 84
-0.029684 -0.284045 -0.382398 68 1 84
-0.646156 -0.209620 0.240269 40 122 142
-0.555178 -0.537492 0.018029 91 200 98
0.557635 -0.427018 0.022917 40 174 127
0.615986 -0.080815 0.293054 32 164 133
0.460303 0.286735 0.077892 53 92 140
0.088916 0.631489 -0.198326 68 1 84
0.509386 0.286562 0.491093 98 202 95
0.348281 0.485090 0.039885 71 20 102
-0.611549 -0.190814 0.119320 35 137 141
-0.340066 0.147156 -0.170193 68 1 84
-0.113016 -0.339947 -0.188807 54 90 140
0.593640 -0.027468 0.292175 32 143 140
0.218661 -0.195613 -0.177639 68 1 84
-0.438878 -0.446005 -0.131045 73 193 109
-0.372105 -0.597693 -0.216178 129 211 76
-0.679334 -0.106038 0.508984 47 106 141
-0.583079 0.238415 0.406749 30 152 138
-0.156049 0.575841 -0.241885 68 1 84
0.238128 0.383889 -0.192070 68 1 84
0.304777 0.454665 -0.071821 68 57 130
