ply
format ascii 1.0
element vertex 1284
property float x
property float y
property float z
property uchar red
property uchar green
property uchar blue
end_header
0.669761 -0.457780 0.208847 68 1 84
0.312480 -0.232621 -0.181509 68 1 84
0.545386 0.235645 0.214670 68 1 84
-0.207715 0.048821 -0.214453 68 1 84
0.380045 0.265088 -0.058933 68 1 84
0.022217 -0.487075 -0.316486 175 220 46
0.200738 0.547227 -0.103559 64 68 135
-0.603987 -0.136835 0.115454 68 1 84
0.124751 -0.422056 -0.255310 42 118 142
0.113206 0.621657 -0.112798 52 95 141
0.454836 0.317517 0.078111 68 1 84
-0.537254 0.285069 0.396091 68 1 84
-0.440437 0.359083 0.063581 58 82 139
-0.555883 -0.233956 0.026239 68 1 84
0.404377 -0.345119 -0.139674 68 1 84
-0.071664 -0.263531 -0.344105 62 72 136
-0.245209 0.443327 -0.111530 126 210 78
-0.637109 -0.162911 0.263597 68 1 84
0.185408 -0.460701 -0.271978 49 101 141
0.721488 -0.364476 0.418709 68 1 84
0.443769 0.416205 0.169905 68 1 84
-0.215223 0.394461 -0.145565 31 163 134
0.454855 -0.505753 -0.137931 68 1 84
0.648236 -0.154130 0.209122 68 1 84
0.094880 -0.189226 -0.254120 68 1 84
-0.639547 -0.506078 0.251231 68 1 84
0.373128 -0.129442 -0.172056 68 1 84
-0.110958 -0.349941 -0.234636 46 109 142
-0.149524 -0.096429 -0.293633 68 1 84
-0.481293 -0.224150 -0.061091 68 1 84
0.435940 -0.172421 -0.125601 68 1 84
-0.223062 0.134808 -0.209272 68 1 84
-0.630304 -0.051133 0.556050 68 1 84
-0.350437 0.391497 -0.040184 44 113 142
0.610683 0.105773 0.429729 68 1 84
0.703752 -0.267547 0.374933 68 1 84
-0.021423 -0.221778 -0.411906 210 225 27
0.733283 -0.241316 0.496001 68 1 84
0.372348 -0.458807 -0.225127 68 1 84
0.612655 0.036110 0.255935 68 1 84
0.278096 0.552217 0.029025 47 105 141
-0.525695 -0.181038 -0.036585 68 1 84
0.110771 0.345866 -0.221608 68 1 84
-0.633439 -0.134530 0.271966 68 1 84
-0.561126 -0.042801 0.020728 68 1 84
0.008544 -0.330832 -0.319741 67 58 131
-0.558291 0.139536 0.190418 68 1 84
0.420914 0.449182 0.166898 68 1 84
-0.627079 -0.168502 0.190976 68 1 84
0.129421 -0.165118 -0.231732 68 1 84
-0.578753 0.074825 0.512073 68 1 84
0.372137 0.133858 -0.139466 68 1 84
0.308749 0.543776 0.073751 47 106 141
0.114902 0.628486 -0.085640 37 130 142
-0.434578 -0.112310 -0.133968 68 1 84
-0.618869 -0.486028 0.191928 68 1 84
0.659509 -0.444395 0.191649 68 1 84
0.323617 0.499080 0.024458 69 50 127
0.262758 0.398643 -0.102661 68 1 84
-0.086608 0.065226 -0.417250 68 1 84
0.248571 0.166443 -0.193549 68 1 84
0.338463 0.114681 -0.170998 68 1 84
-0.103734 -0.230912 -0.276964 72 32 113
-0.191251 0.482047 -0.153300 61 187 116
0.626437 -0.203785 0.128758 68 1 84
-0.077050 0.082728 -0.401177 68 1 84
0.429354 0.191189 -0.036447 68 1 84
-0.488869 0.368855 0.207302 68 1 84
0.051477 -0.134339 -0.368753 53 92 140
-0.624261 -0.328342 0.207794 68 1 84
-0.617132 -0.011784 0.482601 68 1 84
-0.690484 -0.456615 0.464089 68 1 84
0.602235 0.124495 0.431819 68 1 84
-0.544906 0.224986 0.499959 68 1 84
0.375003 -0.533344 -0.220385 68 55 129
0.668189 -0.143752 0.298072 68 1 84
-0.518299 0.138853 0.062271 68 1 84
0.563154 -0.007714 0.065428 68 1 84
-0.173590 -0.297179 -0.171421 67 60 132
-0.238331 -0.269073 -0.187079 68 1 84
0.071764 0.472427 -0.194675 49 100 141
-0.253494 -0.485134 -0.266697 46 178 124
0.390556 -0.381877 -0.171209 68 1 84
-0.447485 0.279907 0.023980 72 35 116
0.055893 -0.076211 -0.378059 71 15 98
-0.520453 0.307154 0.227346 68 1 84
0.198485 0.089484 -0.217854 68 1 84
0.364375 0.196010 -0.109662 68 1 84
0.050746 0.002352 -0.466004 61 74 137
-0.562006 0.229439 0.342849 68 1 84
-0.565107 0.203965 0.293662 68 1 84
-0.532354 -0.367853 0.004602 68 1 84
-0.050882 0.394249 -0.204245 68 1 84
-0.265824 0.487125 -0.085064 141 214 68
-0.426681 -0.275177 -0.089179 68 1 84
0.201278 -0.340343 -0.211237 68 1 84
-0.111916 -0.113606 -0.371360 60 78 138
-0.562420 0.227510 0.327749 68 1 84
0.309819 0.534865 0.056232 54 90 140
0.742789 -0.292241 0.418990 68 1 84
-0.237198 0.557493 -0.089081 61 187 116
0.070553 -0.079199 -0.339856 68 1 84
-0.188144 0.161181 -0.229000 68 1 84
0.374073 -0.216647 -0.143671 68 1 84
0.376816 0.282012 -0.054965 68 1 84
-0.141892 -0.365114 -0.208845 35 136 141
0.371234 0.247363 -0.077041 68 1 84
0.201018 0.070566 -0.220864 68 1 84
-0.088795 0.065393 -0.395805 68 1 84
-0.647921 -0.326875 0.295499 68 1 84
0.429146 -0.107012 -0.150052 68 1 84
0.187047 -0.241956 -0.201605 68 1 84
-0.240426 -0.127259 -0.189988 68 1 84
-0.514064 0.045332 -0.027727 68 1 84
0.338948 0.531796 0.138117 47 106 141
0.107117 0.308346 -0.229061 68 1 84
0.528189 0.241799 0.169944 68 1 84
0.467166 0.373334 0.164307 68 1 84
0.547326 0.258923 0.498616 71 22 105
-0.200204 0.080968 -0.213539 68 1 84
-0.010577 0.186676 -0.308939 68 1 84
-0.493963 0.312768 0.140196 68 1 84
-0.678922 -0.339154 0.471764 68 1 84
-0.644188 -0.336931 0.282800 68 1 84
0.619752 -0.128341 0.134253 68 1 84
-0.289274 0.284100 -0.140102 71 40 120
-0.206051 0.002800 -0.226616 68 1 84
-0.059326 0.073293 -0.487238 68 1 84
0.067625 0.449861 -0.190082 45 110 142
0.658937 -0.243280 0.198692 68 1 84
-0.607503 -0.262160 0.125381 68 1 84
0.693707 -0.239372 0.381456 68 1 84
0.044032 -0.180741 -0.369012 31 162 134
0.746275 -0.236097 0.462222 68 1 84
-0.408194 0.338578 -0.002360 61 74 137
-0.480009 0.271146 0.075481 72 30 112
0.701813 -0.155927 0.424589 68 1 84
-0.498545 -0.176675 -0.069958 68 1 84
0.655533 -0.515770 0.166913 68 1 84
-0.626615 -0.038935 0.394022 68 1 84
-0.506617 0.319288 0.190183 68 1 84
0.425104 0.099393 -0.105052 68 1 84
0.631315 -0.220733 0.139168 68 1 84
-0.015466 0.639919 -0.108609 50 99 141
-0.132067 0.503230 -0.193232 64 189 114
-0.556430 0.168126 0.207375 68 1 84
-0.053728 -0.021909 -0.523015 53 92 140
-0.383644 0.430450 0.030493 61 76 137
0.439365 -0.244620 -0.096081 68 1 84
-0.098167 -0.153334 -0.380175 32 144 140
0.380520 -0.289841 -0.131168 68 1 84
0.574652 0.207379 0.461109 68 1 84
-0.241092 -0.369417 -0.204534 47 105 141
-0.248100 -0.230220 -0.181336 68 1 84
0.091699 0.487640 -0.190598 48 103 141
-0.662385 -0.420222 0.330889 68 1 84
-0.601989 -0.439270 0.145109 68 1 84
-0.077883 0.567373 -0.199967 44 113 142
-0.665032 -0.389077 0.350154 68 1 84
0.064616 0.281208 -0.239863 68 1 84
0.380705 0.480520 0.108315 68 1 84
0.574520 -0.392957 0.049275 68 1 84
-0.595008 0.091743 0.434856 68 1 84
-0.060238 -0.436873 -0.304625 59 186 117
0.596598 -0.074738 0.105684 68 1 84
0.434959 0.391688 0.106672 68 1 84
0.073400 0.050436 -0.378853 68 1 84
-0.691393 -0.460046 0.488876 68 1 84
-0.097254 -0.211193 -0.325988 30 158 136
0.591970 -0.201732 0.058654 68 1 84
0.342795 -0.204767 -0.160427 68 1 84
-0.687577 -0.464819 0.427089 68 1 84
0.248613 0.503166 -0.072856 61 75 137
-0.201910 -0.312146 -0.173064 63 69 135
0.182430 -0.242862 -0.200819 68 1 84
0.106959 0.309849 -0.229639 68 1 84
-0.081594 0.254044 -0.256095 68 1 84
0.014870 0.125825 -0.334118 68 1 84
0.289718 -0.275417 -0.202011 68 1 84
0.488836 0.137203 0.020990 68 1 84
-0.016679 0.049470 -0.512291 71 22 105
0.438032 0.346911 0.069728 68 1 84
0.681616 -0.193897 0.319566 68 1 84
0.627906 -0.338327 0.144516 68 1 84
0.572312 0.178731 0.245409 68 1 84
-0.112029 0.068768 -0.330273 68 1 84
-0.617380 -0.323836 0.173891 68 1 84
0.671054 -0.388387 0.208832 68 1 84
0.096922 0.140369 -0.252370 68 1 84
-0.346158 0.541511 0.167368 61 76 137
-0.083545 -0.468552 -0.306855 194 223 34
-0.345305 -0.507009 -0.234708 83 197 103
0.608466 0.040139 0.245080 68 1 84
0.557158 0.198419 0.212482 68 1 84
0.630422 -0.066640 0.225897 68 1 84
0.138065 -0.050887 -0.251611 68 1 84
-0.593928 0.026526 0.542331 68 1 84
-0.036877 -0.071369 -0.500257 89 199 100
0.435360 0.067645 -0.111307 68 1 84
0.044776 -0.456853 -0.306478 73 193 109
-0.448206 -0.196747 -0.096265 68 1 84
0.487610 -0.200447 -0.072352 68 1 84
-0.169844 -0.321204 -0.179302 62 73 137
0.683107 -0.210071 0.317873 68 1 84
-0.510422 -0.167001 -0.061846 68 1 84
0.609428 0.117596 0.404212 68 1 84
-0.164292 -0.361260 -0.197382 34 137 141
-0.216956 0.399979 -0.141812 33 141 140
-0.374431 -0.541709 -0.217664 31 149 139
-0.285909 -0.313296 -0.177175 61 74 137
-0.539650 -0.474294 -0.008397 68 1 84
-0.492201 0.379872 0.282519 68 1 84
-0.189342 0.553127 -0.146927 119 208 82
0.634124 -0.204548 0.149216 68 1 84
-0.649870 -0.319457 0.350246 68 1 84
-0.354938 0.130723 -0.154071 68 1 84
-0.127183 0.403599 -0.186625 71 21 103
0.621165 0.072979 0.494673 68 1 84
0.714626 -0.368400 0.372358 68 1 84
-0.674782 -0.361011 0.424623 68 1 84
0.331137 -0.254843 -0.177345 68 1 84
0.418541 0.334613 0.028036 68 1 84
0.143925 -0.143493 -0.230653 68 1 84
0.567035 0.235220 0.418645 68 1 84
0.346267 -0.128870 -0.180639 68 1 84
0.584415 0.162409 0.281141 68 1 84
0.089137 0.282607 -0.229357 68 1 84
0.068139 -0.239206 -0.257741 71 21 103
0.410875 0.470843 0.258732 68 1 84
-0.601998 -0.249836 0.111167 68 1 84
0.205695 -0.216929 -0.195675 68 1 84
-0.597355 -0.240703 0.100013 68 1 84
-0.164929 0.630956 -0.048967 246 230 31
0.013598 0.641649 -0.096917 37 131 141
0.324679 0.087652 -0.186767 68 1 84
-0.322470 0.368356 -0.076209 48 103 141
-0.626307 -0.033331 0.429523 68 1 84
-0.545117 -0.002017 0.005070 68 1 84
-0.540927 0.210426 0.521089 68 1 84
-0.459308 0.131241 -0.058611 68 1 84
-0.096376 0.186467 -0.291690 68 1 84
0.038985 -0.160199 -0.389842 31 150 139
-0.193775 -0.029861 -0.239040 68 1 84
0.646371 -0.148579 0.205983 68 1 84
-0.460173 0.358200 0.101985 68 1 84
-0.637286 -0.454250 0.253725 68 1 84
0.609317 -0.451973 0.113040 68 1 84
-0.652550 -0.171029 0.508357 68 1 84
0.124193 -0.458602 -0.291138 35 135 141
-0.515130 -0.262232 -0.014689 68 1 84
0.609802 0.006020 0.220936 68 1 84
-0.595237 -0.333536 0.114987 68 1 84
-0.005907 0.035542 -0.517931 68 1 84
-0.548815 -0.365713 0.031854 68 1 84
-0.419350 -0.423057 -0.160807 66 61 132
-0.053961 0.289671 -0.257170 68 1 84
-0.314590 -0.235367 -0.174305 68 1 84
-0.427187 -0.408921 -0.146823 72 29 111
-0.399447 0.231314 -0.067817 68 1 84
0.295678 -0.147996 -0.185881 68 1 84
-0.234913 0.563728 -0.086138 47 179 123
0.130221 -0.459801 -0.290620 49 102 141
-0.092104 0.055632 -0.483603 68 1 84
0.359890 0.036943 -0.182437 68 1 84
-0.629584 -0.321963 0.230504 68 1 84
-0.596295 0.052924 0.305740 68 1 84
0.489845 -0.412274 -0.085455 68 1 84
-0.081930 0.080621 -0.381774 68 1 84
-0.335316 -0.161682 -0.151677 68 1 84
-0.222925 0.166860 -0.212396 68 1 84
0.473938 0.400361 0.379761 71 17 99
-0.590229 -0.119808 0.077402 68 1 84
-0.581481 0.091570 0.252901 68 1 84
0.573784 -0.506388 0.040763 68 1 84
0.041290 -0.142954 -0.390096 33 140 141
0.099696 0.619337 -0.129538 69 52 127
-0.464252 0.126604 -0.054849 68 1 84
0.687143 -0.149787 0.385526 68 1 84
-0.286207 -0.126159 -0.173138 68 1 84
-0.094752 0.115939 -0.318948 68 1 84
0.297306 -0.447302 -0.238353 72 30 112
-0.125411 -0.091059 -0.346486 72 29 111
-0.424123 -0.321179 -0.098259 68 1 84
0.519549 -0.416846 -0.037150 68 1 84
0.667509 -0.097891 0.325837 68 1 84
0.367808 -0.432775 -0.213787 68 1 84
0.205682 0.102452 -0.214970 68 1 84
0.673718 -0.418021 0.226300 68 1 84
-0.398979 -0.016260 -0.158473 68 1 84
0.516469 0.301799 0.207841 68 1 84
0.047180 -0.077158 -0.411070 66 62 133
-0.080522 0.010659 -0.521162 68 1 84
-0.118101 0.334055 -0.249059 68 1 84
-0.402933 -0.011653 -0.156273 68 1 84
-0.262735 -0.141922 -0.175116 68 1 84
0.458072 0.416082 0.388744 71 20 102
0.043400 -0.058906 -0.445147 42 119 142
-0.639244 -0.082077 0.562512 68 1 84
-0.562337 0.106803 0.176402 68 1 84
-0.599416 -0.394007 0.137338 68 1 84
0.531845 -0.034702 -0.019857 68 1 84
-0.185868 0.568453 -0.141953 107 205 89
-0.076906 -0.249160 -0.347964 30 158 136
0.393088 0.125858 -0.125864 68 1 84
-0.537173 -0.068440 -0.039790 68 1 84
-0.607173 -0.308724 0.136661 68 1 84
0.658989 -0.079742 0.308068 68 1 84
0.670022 -0.196948 0.249090 68 1 84
-0.284401 0.463067 -0.070354 51 182 121
0.280180 0.464244 -0.059989 71 24 106
0.759223 -0.267213 0.446301 68 1 84
0.509905 0.175013 0.085941 68 1 84
0.651268 -0.242238 0.182287 68 1 84
-0.259481 0.308531 -0.142303 69 53 128
-0.375465 -0.317813 -0.141498 71 24 106
0.515862 0.132352 0.068978 68 1 84
-0.424939 0.455138 0.357737 61 75 137
-0.631307 -0.067692 0.401034 68 1 84
0.419533 -0.396471 -0.161833 68 1 84
-0.595717 -0.162153 0.088806 68 1 84
0.375813 -0.141358 -0.167186 68 1 84
-0.334559 0.550512 0.197323 46 108 142
-0.615079 -0.290029 0.152842 68 1 84
-0.440690 0.411938 0.121214 68 1 84
0.474531 0.132617 -0.007811 68 1 84
-0.319146 0.225239 -0.143519 68 1 84
0.723390 -0.289453 0.393296 68 1 84
0.403288 -0.235239 -0.122061 68 1 84
0.565401 0.051916 0.121454 68 1 84
-0.033881 0.624156 -0.146872 31 147 139
0.280344 0.025893 -0.214498 68 1 84
-0.178451 0.541860 -0.161467 83 197 103
-0.329581 0.076147 -0.183609 68 1 84
0.601392 -0.429193 0.098919 68 1 84
0.239389 0.172318 -0.196309 68 1 84
0.399170 0.222534 -0.056781 68 1 84
-0.594429 -0.204166 0.088316 68 1 84
-0.341783 -0.355196 -0.186501 72 26 108
-0.016198 -0.000377 -0.527175 69 54 129
-0.112914 -0.316270 -0.213332 52 95 141
0.720512 -0.527790 0.341869 68 1 84
-0.417172 -0.428197 -0.165472 66 62 133
-0.570167 -0.338523 0.066154 68 1 84
-0.113514 -0.123039 -0.358150 49 100 141
-0.592581 -0.251749 0.092086 68 1 84
-0.284221 -0.449944 -0.218254 39 173 128
0.599601 0.119610 0.459697 68 1 84
0.630457 -0.485994 0.138325 68 1 84
0.425631 0.083643 -0.113517 68 1 84
-0.345251 0.541688 0.160272 60 77 138
-0.341693 0.401831 -0.042246 42 117 142
-0.669131 -0.478164 0.353558 68 1 84
-0.346365 -0.506294 -0.233983 83 197 103
0.461003 -0.021987 -0.118763 68 1 84
-0.268866 -0.038325 -0.206823 68 1 84
0.109059 0.052250 -0.269302 68 1 84
0.714511 -0.345491 0.397298 68 1 84
-0.132822 0.045840 -0.423053 68 1 84
-0.652894 -0.107234 0.520464 68 1 84
-0.537520 0.075546 0.051514 68 1 84
0.640600 -0.086788 0.243344 68 1 84
-0.689677 -0.552998 0.430192 68 1 84
0.596552 0.134476 0.300863 68 1 84
-0.080221 -0.183784 -0.405290 30 157 136
-0.173125 0.045860 -0.298904 68 1 84
-0.001454 0.126911 -0.353260 68 1 84
0.062748 -0.312954 -0.236830 30 155 137
0.523134 -0.178033 -0.041632 68 1 84
-0.415954 0.464691 0.353585 62 72 136
0.759959 -0.265786 0.448378 68 1 84
-0.202815 -0.143135 -0.203617 68 1 84
-0.526635 0.175772 0.118265 68 1 84
-0.594634 0.060702 0.304142 68 1 84
0.275213 0.106007 -0.201366 68 1 84
-0.393573 0.224169 -0.078139 68 1 84
0.687242 -0.072255 0.464276 68 1 84
-0.587876 0.108098 0.319980 68 1 84
-0.179400 0.499353 -0.164028 79 195 105
-0.165512 0.374510 -0.188883 68 1 84
-0.585060 0.039830 0.219218 68 1 84
0.577851 -0.144231 0.038154 68 1 84
-0.583370 0.118765 0.303585 68 1 84
0.236287 0.210626 -0.192014 68 1 84
0.083001 0.008792 -0.374787 68 1 84
0.345375 0.240663 -0.106291 68 1 84
0.685003 -0.202037 0.376365 68 1 84
0.348074 -0.311335 -0.161932 68 1 84
0.211361 -0.266489 -0.208311 68 1 84
0.139601 0.377670 -0.186999 68 1 84
-0.549968 -0.317259 0.033827 68 1 84
-0.629683 -0.263289 0.207336 68 1 84
0.369767 0.255642 -0.074947 68 1 84
0.450382 -0.513025 -0.142203 68 1 84
0.333687 -0.054051 -0.197300 68 1 84
-0.512305 0.028041 -0.041774 68 1 84
0.636052 -0.020189 0.281493 68 1 84
0.477574 0.326318 0.132466 68 1 84
0.616150 0.092909 0.451998 68 1 84
0.084811 0.003372 -0.365288 68 1 84
0.013705 0.032796 -0.504744 71 21 103
-0.537562 -0.418987 -0.003005 68 1 84
-0.542220 -0.411714 0.008697 68 1 84
-0.386975 -0.020577 -0.164456 68 1 84
-0.579022 -0.111290 0.048134 68 1 84
-0.552446 0.099365 0.131603 68 1 84
0.192897 -0.302876 -0.198772 68 1 84
-0.261742 -0.177972 -0.168217 68 1 84
-0.614586 -0.296318 0.153288 68 1 84
0.474417 -0.197643 -0.085310 68 1 84
-0.437282 0.216509 -0.028688 68 1 84
0.445437 0.430666 0.245270 68 1 84
-0.215387 -0.433680 -0.229810 47 179 123
-0.591614 -0.465980 0.113667 68 1 84
-0.533248 0.013553 -0.011448 68 1 84
-0.095640 0.305807 -0.258205 68 1 84
-0.031262 -0.217071 -0.413667 170 219 50
-0.559097 0.172798 0.223556 68 1 84
-0.033958 0.641870 -0.098637 52 94 141
0.131945 0.416535 -0.173838 65 66 134
-0.348671 -0.464726 -0.213858 31 150 139
0.383580 -0.521302 -0.214190 61 74 137
0.557474 0.218735 0.522675 72 28 110
0.504868 0.344806 0.254166 68 1 84
-0.059416 0.095166 -0.448309 68 1 84
0.602113 0.085737 0.261919 68 1 84
0.184031 -0.131402 -0.216653 68 1 84
0.253692 -0.423399 -0.227040 52 94 141
0.032761 0.103544 -0.322304 68 1 84
0.446135 -0.472673 -0.156187 68 1 84
-0.642178 -0.157669 0.376143 68 1 84
0.342919 0.357665 -0.056923 68 1 84
-0.260771 0.554592 -0.050890 59 186 117
-0.112383 -0.337818 -0.222790 43 116 142
0.157959 -0.481520 -0.294154 63 71 136
0.486949 0.139100 0.018909 68 1 84
-0.564033 0.131503 0.207675 68 1 84
0.564244 0.247569 0.373085 68 1 84
0.175788 -0.466989 -0.281719 49 100 141
-0.645196 -0.200219 0.297689 68 1 84
-0.393573 0.501493 0.190539 68 1 84
-0.115398 -0.122779 -0.352829 53 93 140
0.727476 -0.255056 0.407006 68 1 84
-0.025787 -0.399685 -0.310014 39 173 128
-0.619753 -0.516671 0.186125 68 1 84
0.700821 -0.265708 0.369248 68 1 84
-0.632150 -0.361183 0.246946 68 1 84
0.603587 0.033884 0.224507 68 1 84
0.173336 0.325607 -0.180862 68 1 84
-0.553171 -0.247871 0.026384 68 1 84
0.027557 0.310643 -0.264408 68 1 84
0.165492 0.564747 -0.130459 58 83 139
-0.408673 -0.362785 -0.134858 71 22 105
-0.564476 0.047578 0.111715 68 1 84
-0.553434 0.204736 0.489552 68 1 84
-0.453647 0.295437 0.042790 72 35 116
-0.433739 0.443666 0.371356 66 64 133
0.711043 -0.480376 0.314261 68 1 84
0.340429 0.481200 0.030025 68 1 84
-0.020225 0.387767 -0.212750 68 1 84
0.540324 -0.046456 -0.009784 68 1 84
-0.475156 -0.361755 -0.079549 68 1 84
0.022031 -0.182360 -0.414669 89 199 100
0.548404 0.113172 0.127041 68 1 84
0.024513 0.466137 -0.204964 67 60 132
0.492349 0.036364 -0.049849 68 1 84
-0.115231 0.283950 -0.240455 68 1 84
0.365938 0.456246 0.043596 68 1 84
0.223521 0.375408 -0.136225 68 1 84
0.232250 -0.238474 -0.204940 68 1 84
0.758601 -0.256001 0.453400 68 1 84
-0.591963 -0.050589 0.123284 68 1 84
0.445394 0.431602 0.344322 58 82 139
0.008035 0.067527 -0.463568 68 1 84
0.064886 -0.056919 -0.356899 68 1 84
-0.166180 -0.366306 -0.199412 33 140 141
-0.435100 0.069868 -0.119102 68 1 84
-0.185456 0.350652 -0.192419 68 1 84
-0.247362 0.237011 -0.186754 68 1 84
-0.399502 -0.278588 -0.121387 68 1 84
0.706011 -0.470645 0.300598 68 1 84
0.013914 0.332193 -0.269065 68 1 84
-0.641022 -0.153075 0.336787 68 1 84
0.358495 -0.487032 -0.235371 68 1 84
-0.062509 0.603543 -0.171627 43 116 142
-0.038062 0.081470 -0.483392 68 1 84
-0.690813 -0.460857 0.461871 68 1 84
-0.179855 -0.395769 -0.212877 54 184 119
-0.681371 -0.356643 0.497865 68 1 84
-0.646026 -0.258842 0.274797 68 1 84
-0.510719 -0.035518 -0.070438 68 1 84
-0.169041 0.426909 -0.163308 35 136 141
0.353951 0.516371 0.125962 69 50 127
0.269899 0.577341 0.095965 30 155 137
-0.668006 -0.241715 0.423187 68 1 84
0.220559 0.566539 -0.056510 33 141 140
0.261402 0.559251 0.009719 41 121 142
-0.207009 0.305769 -0.182502 68 1 84
-0.480035 0.037818 -0.084157 68 1 84
0.471891 0.236309 0.057109 68 1 84
0.074004 0.212162 -0.274179 68 1 84
0.307461 0.025943 -0.206233 68 1 84
0.662538 -0.521215 0.179102 68 1 84
-0.053050 0.383749 -0.213342 68 1 84
0.349371 0.469396 0.030752 68 1 84
0.564227 0.003103 0.077773 68 1 84
-0.604569 0.065862 0.408117 68 1 84
0.706839 -0.408695 0.324009 68 1 84
0.346315 -0.320142 -0.164921 68 1 84
-0.171287 0.046186 -0.235955 68 1 84
-0.164398 0.357921 -0.203093 68 1 84
-0.293090 0.577008 0.133633 40 123 142
-0.096356 -0.400383 -0.281097 51 182 121
0.490793 0.332380 0.172528 68 1 84
-0.571464 -0.362689 0.070174 68 1 84
-0.546213 0.251673 0.257914 68 1 84
-0.302791 -0.003017 -0.199498 68 1 84
-0.282567 0.063345 -0.200088 68 1 84
-0.340436 -0.279147 -0.171842 68 1 84
-0.617450 0.014543 0.421417 68 1 84
0.704821 -0.168399 0.442081 68 1 84
-0.406009 0.113417 -0.125721 68 1 84
0.613312 -0.065314 0.169587 68 1 84
-0.176265 0.618590 -0.087346 183 221 41
-0.522936 -0.089657 -0.063769 68 1 84
-0.261008 -0.463081 -0.241145 68 190 112
-0.040096 0.253587 -0.273074 68 1 84
-0.023026 -0.132659 -0.467210 32 164 133
-0.143195 0.055945 -0.370471 68 1 84
-0.379625 -0.207113 -0.128677 68 1 84
0.051528 -0.322832 -0.263763 41 175 127
0.115385 0.332336 -0.223206 68 1 84
0.531088 0.219467 0.157260 68 1 84
-0.574105 0.162028 0.294358 68 1 84
0.052582 0.275309 -0.240973 68 1 84
-0.192702 -0.228399 -0.181357 68 1 84
0.672913 -0.028401 0.442460 68 1 84
-0.480188 0.372533 0.177586 68 1 84
0.359678 0.457704 0.034636 68 1 84
-0.549613 -0.513140 0.013791 68 1 84
0.465995 0.341138 0.121904 68 1 84
-0.684631 -0.541011 0.400842 68 1 84
-0.277811 -0.319961 -0.176858 54 91 140
-0.576313 0.121434 0.257150 68 1 84
-0.171294 -0.229061 -0.186191 68 1 84
0.192669 0.410246 -0.143575 72 26 108
0.247781 0.253153 -0.175956 68 1 84
0.327207 0.107912 -0.179370 68 1 84
0.670488 -0.425393 0.218369 68 1 84
-0.091087 0.484798 -0.205005 44 114 142
-0.192372 0.335647 -0.194622 68 1 84
-0.627973 -0.043278 0.421340 68 1 84
-0.501782 0.279489 0.130924 68 1 84
-0.300568 -0.077216 -0.185847 68 1 84
-0.421092 -0.416111 -0.155059 67 58 131
0.596311 -0.511183 0.080481 68 1 84
0.487955 -0.284654 -0.052104 68 1 84
-0.089127 0.202814 -0.294154 68 1 84
-0.325161 0.181054 -0.153145 68 1 84
0.049694 0.298250 -0.254378 68 1 84
-0.508099 0.341996 0.399065 68 1 84
-0.268131 0.073403 -0.201284 68 1 84
0.265996 0.040039 -0.217173 68 1 84
0.309142 0.348341 -0.096759 68 1 84
-0.606171 0.001929 0.301305 68 1 84
-0.050835 0.143160 -0.344749 68 1 84
0.186857 -0.038994 -0.233867 68 1 84
-0.528400 0.241267 0.175520 68 1 84
0.350470 -0.530815 -0.238380 64 68 135
-0.483764 0.150168 -0.003691 68 1 84
0.228909 -0.249155 -0.207926 68 1 84
-0.590751 -0.082342 0.091913 68 1 84
0.035904 0.057984 -0.370637 68 1 84
0.144697 -0.139843 -0.231346 68 1 84
-0.641856 -0.104289 0.438913 68 1 84
0.082591 0.358226 -0.231803 68 1 84
0.462983 0.347274 0.121622 68 1 84
0.249004 0.561986 -0.010863 49 100 141
-0.062796 0.329861 -0.267168 68 1 84
-0.281388 -0.324233 -0.176781 53 93 140
-0.586400 0.042659 0.534638 68 1 84
0.536355 -0.508369 -0.020717 68 1 84
0.733694 -0.420548 0.428819 68 1 84
0.625173 0.079996 0.453442 68 1 84
-0.120132 -0.081583 -0.376551 68 1 84
-0.044698 -0.165508 -0.445904 94 201 97
-0.656893 -0.287261 0.375075 68 1 84
-0.678594 -0.312228 0.458285 68 1 84
0.545626 0.289786 0.372455 68 1 84
-0.371297 0.226356 -0.099050 68 1 84
0.662246 0.016961 0.477036 68 1 84
0.180006 -0.482795 -0.288551 43 116 142
0.581008 0.182050 0.296881 68 1 84
0.599367 -0.062536 0.124960 68 1 84
-0.002043 0.638517 -0.112021 49 101 141
0.549531 -0.473466 0.001805 68 1 84
0.660467 -0.162303 0.247927 68 1 84
-0.629875 -0.250255 0.203503 68 1 84
0.192406 0.606880 0.007525 91 200 98
-0.014859 0.481590 -0.212748 69 53 128
-0.636241 -0.207254 0.224494 68 1 84
-0.186345 -0.070057 -0.247260 68 1 84
-0.420365 0.157990 -0.088507 68 1 84
0.330423 -0.334447 -0.182140 68 1 84
-0.310671 0.230268 -0.149348 68 1 84
0.444556 -0.266545 -0.086535 68 1 84
0.242130 -0.383308 -0.228003 68 1 84
-0.502377 0.356321 0.250368 68 1 84
-0.641310 -0.153956 0.364936 68 1 84
-0.584106 -0.425692 0.098535 68 1 84
-0.671258 -0.319502 0.421236 68 1 84
-0.650810 -0.489836 0.289626 68 1 84
0.208900 -0.251701 -0.207105 68 1 84
0.207125 0.270159 -0.187001 68 1 84
0.109752 -0.224704 -0.211668 68 1 84
0.198498 0.243116 -0.204134 68 1 84
-0.177496 0.258056 -0.212597 68 1 84
0.230540 -0.165460 -0.193198 68 1 84
-0.597696 0.089339 0.421116 68 1 84
-0.150390 -0.167233 -0.245634 68 1 84
-0.653535 -0.284226 0.359395 68 1 84
0.315406 0.328995 -0.100469 68 1 84
0.632492 0.065834 0.423389 68 1 84
-0.685277 -0.412737 0.491100 68 1 84
-0.257634 0.472875 -0.096268 144 214 67
-0.211561 -0.251891 -0.183544 68 1 84
-0.115558 -0.143700 -0.337009 69 50 127
-0.252203 -0.171527 -0.171262 68 1 84
0.338828 0.034172 -0.192619 68 1 84
-0.631458 -0.095537 0.344297 68 1 84
0.566614 -0.229816 0.021739 68 1 84
-0.632542 -0.379079 0.247435 68 1 84
-0.108760 -0.340009 -0.230948 40 122 142
-0.232946 -0.440370 -0.226610 48 180 122
0.047184 0.053289 -0.401468 68 1 84
0.685026 -0.146507 0.378642 68 1 84
-0.479077 -0.543088 -0.110593 68 1 84
0.496480 0.367299 0.299655 68 1 84
0.520911 0.017087 -0.011171 68 1 84
0.705278 -0.274514 0.371935 68 1 84
0.547482 0.192719 0.179104 68 1 84
0.682960 -0.440505 0.244536 68 1 84
-0.435140 0.437885 0.148692 71 42 121
0.062581 0.225432 -0.278792 68 1 84
0.470516 -0.397692 -0.109242 68 1 84
0.727490 -0.380659 0.417465 68 1 84
0.580066 0.171859 0.270911 68 1 84
0.202448 0.584166 -0.057710 30 153 138
-0.596483 -0.309697 0.111492 68 1 84
0.588528 -0.332575 0.067463 68 1 84
0.415345 0.436501 0.117992 68 1 84
0.480509 0.126362 -0.002291 68 1 84
0.009237 0.615843 -0.161265 63 69 135
0.348310 0.526780 0.166473 59 80 138
0.536626 0.062260 0.058641 68 1 84
-0.086560 -0.390044 -0.284227 30 151 138
0.707086 -0.191680 0.472503 68 1 84
-0.333548 -0.435781 -0.201022 42 119 142
0.691152 -0.075129 0.506064 68 1 84
0.146151 0.428905 -0.163979 63 71 136
0.196119 0.557084 -0.102982 64 67 135
-0.486561 -0.422868 -0.104385 68 1 84
-0.521537 0.315854 0.405230 68 1 84
0.229561 -0.007552 -0.226845 68 1 84
0.110570 -0.221473 -0.212888 68 1 84
0.251636 -0.075917 -0.213670 68 1 84
0.052907 0.641228 -0.090291 39 125 142
-0.305761 0.201333 -0.160185 68 1 84
0.512097 -0.287075 -0.030390 68 1 84
0.220673 -0.395108 -0.227728 70 45 124
-0.538565 -0.361945 0.016488 68 1 84
0.401642 0.070329 -0.144962 68 1 84
0.739428 -0.455630 0.447773 68 1 84
-0.468398 0.413163 0.312103 68 1 84
0.577387 0.181351 0.271205 68 1 84
0.713479 -0.378694 0.362944 68 1 84
0.159922 0.254606 -0.211615 68 1 84
-0.066008 0.486506 -0.211236 45 111 142
0.461608 0.283240 0.067100 68 1 84
0.609012 -0.300440 0.097346 68 1 84
0.684009 -0.155023 0.374705 68 1 84
0.514691 0.131959 0.066413 68 1 84
-0.085504 -0.261062 -0.310568 70 12 95
0.638018 -0.013378 0.292469 68 1 84
-0.506704 0.354893 0.319336 68 1 84
-0.627442 -0.111759 0.256445 68 1 84
-0.112787 -0.318106 -0.213737 51 97 141
0.730463 -0.305209 0.404750 68 1 84
-0.469871 0.413013 0.258823 68 1 84
-0.516592 0.010113 -0.044677 68 1 84
0.432186 0.005695 -0.140555 68 1 84
-0.657833 -0.397202 0.327161 68 1 84
-0.161687 -0.392803 -0.219835 61 187 116
0.285376 0.451807 -0.060660 68 1 84
-0.056349 0.485354 -0.212069 47 105 141
0.541380 -0.480324 -0.011232 68 1 84
-0.527077 0.017005 -0.021606 68 1 84
-0.678332 -0.328214 0.488508 68 1 84
0.119795 0.278117 -0.210725 68 1 84
-0.353811 -0.398001 -0.195810 54 90 140
0.010418 -0.243144 -0.383180 124 210 79
-0.619170 0.008036 0.402643 68 1 84
-0.646379 -0.201029 0.310410 68 1 84
-0.008886 0.098181 -0.410402 68 1 84
0.668946 -0.003340 0.442710 68 1 84
0.622004 -0.067811 0.195240 68 1 84
0.587032 0.149476 0.274115 68 1 84
-0.008921 0.086079 -0.436319 68 1 84
0.050837 -0.316416 -0.264600 51 182 121
0.388890 0.366245 0.004204 68 1 84
0.022894 0.111823 -0.332798 68 1 84
-0.258277 0.283427 -0.149415 71 24 106
-0.026808 -0.245732 -0.392138 218 226 24
-0.526473 0.314819 0.293516 68 1 84
0.080546 0.475816 -0.192316 45 111 142
-0.526023 0.286837 0.473147 68 1 84
-0.360321 0.143915 -0.145282 68 1 84
0.320403 0.462541 -0.014882 68 1 84
0.002334 -0.149017 -0.450071 44 177 125
-0.616363 -0.424241 0.191984 68 1 84
0.038585 0.091442 -0.319833 68 1 84
-0.149528 0.542391 -0.180830 109 206 88
-0.059340 0.092371 -0.453972 68 1 84
0.566802 0.016548 0.097293 68 1 84
0.387153 -0.470429 -0.216433 68 1 84
-0.341574 0.541306 0.135907 55 88 140
-0.057969 -0.050983 -0.507465 33 140 141
0.239352 0.149190 -0.200788 68 1 84
-0.568234 0.200002 0.426151 68 1 84
-0.234669 0.598333 -0.001585 91 200 98
-0.535389 0.049642 0.021079 68 1 84
-0.131339 0.183057 -0.266029 68 1 84
0.326569 0.383641 -0.059006 68 1 84
0.658027 -0.367580 0.190869 68 1 84
-0.531931 0.304050 0.310865 68 1 84
0.097333 -0.170710 -0.263748 68 1 84
-0.175995 0.114619 -0.228052 68 1 84
-0.415703 0.309558 -0.007667 69 54 129
0.139298 -0.464762 -0.291669 56 86 139
-0.629776 -0.056456 0.451820 68 1 84
0.147681 -0.013274 -0.242545 68 1 84
-0.176800 -0.479627 -0.292121 44 177 125
0.591576 0.147261 0.294897 68 1 84
-0.524183 0.247514 0.540153 68 1 84
-0.653004 -0.263699 0.340507 68 1 84
0.230581 0.251107 -0.187551 68 1 84
-0.197583 0.087734 -0.214662 68 1 84
-0.519415 -0.281608 -0.006036 68 1 84
-0.550838 0.183651 0.200838 68 1 84
-0.157620 -0.087545 -0.282516 68 1 84
-0.470110 0.398328 0.403915 68 1 84
0.435598 0.413315 0.135430 68 1 84
-0.511799 0.331636 0.415906 68 1 84
0.464916 -0.058311 -0.121239 68 1 84
-0.314877 -0.300267 -0.175618 70 12 95
-0.564268 0.169286 0.244911 68 1 84
0.734190 -0.415306 0.436010 68 1 84
0.623372 0.016938 0.273955 68 1 84
-0.575816 0.177653 0.366830 68 1 84
0.287693 0.304717 -0.131575 68 1 84
-0.589409 0.046947 0.505760 68 1 84
0.460203 -0.054774 -0.125533 68 1 84
-0.077395 0.021756 -0.521466 68 1 84
0.581121 0.110781 0.214437 68 1 84
0.003391 0.071873 -0.450413 68 1 84
-0.191140 -0.427413 -0.238810 79 195 105
-0.614144 -0.004556 0.492315 68 1 84
0.107059 0.041110 -0.326102 68 1 84
-0.021370 -0.340394 -0.322419 41 121 142
-0.157822 0.019026 -0.361110 68 1 84
-0.242154 0.267055 -0.163652 68 1 84
0.013560 -0.077331 -0.478839 30 157 136
-0.233401 -0.057735 -0.217145 68 1 84
-0.204674 0.318144 -0.186696 68 1 84
-0.594963 -0.502084 0.118640 68 1 84
-0.261549 0.235060 -0.180114 68 1 84
-0.614821 -0.006134 0.352569 68 1 84
0.003209 0.077481 -0.411158 68 1 84
-0.331284 0.415987 -0.044021 31 161 135
-0.076641 -0.133766 -0.443875 79 195 105
-0.194461 -0.171170 -0.194325 68 1 84
0.035593 0.056632 -0.388951 68 1 84
0.349477 -0.015355 -0.193311 68 1 84
-0.459722 -0.285032 -0.057785 68 1 84
0.566115 0.021751 0.099837 68 1 84
-0.243540 0.600937 0.069312 38 129 142
0.049279 0.523287 -0.208773 39 125 142
-0.521679 -0.255974 -0.009469 68 1 84
-0.380256 0.492523 0.105848 49 101 141
-0.007091 0.220020 -0.301132 68 1 84
0.145539 0.256979 -0.215383 68 1 84
-0.503463 0.206180 0.081544 68 1 84
-0.487891 -0.471605 -0.110081 71 18 101
0.035181 -0.163694 -0.397926 33 142 140
-0.578613 0.163596 0.416836 68 1 84
-0.571401 0.144920 0.256728 68 1 84
0.563322 0.162787 0.201239 68 1 84
0.598687 0.027405 0.204074 68 1 84
0.053258 0.518637 -0.207900 34 138 141
0.481241 0.119937 -0.006218 68 1 84
0.069888 0.446718 -0.188893 51 97 141
0.556717 0.241340 0.268725 68 1 84
-0.381885 0.317344 -0.050413 67 59 131
0.198006 -0.397091 -0.225724 60 77 138
-0.167438 -0.152761 -0.231528 68 1 84
0.078037 -0.050290 -0.329703 68 1 84
0.575950 -0.115714 0.039802 68 1 84
-0.524288 0.318117 0.364542 68 1 84
-0.102874 0.351775 -0.243484 68 1 84
0.336404 -0.305780 -0.173488 68 1 84
0.533087 -0.229557 -0.018958 68 1 84
0.163303 0.064189 -0.222672 68 1 84
-0.540725 0.204556 0.183017 68 1 84
0.311439 0.253634 -0.129859 68 1 84
0.338168 -0.254036 -0.171172 68 1 84
0.226917 -0.123646 -0.205481 68 1 84
0.256726 0.578393 0.058587 30 158 136
-0.453868 0.431825 0.305238 71 20 102
-0.417783 0.239377 -0.041249 68 1 84
0.292824 0.555677 0.068872 31 149 139
0.083711 0.587250 -0.173704 68 1 84
0.447267 -0.329670 -0.097681 68 1 84
0.091835 -0.163863 -0.276378 68 1 84
-0.254201 -0.101316 -0.194459 68 1 84
-0.106373 0.569271 -0.191155 59 186 117
-0.272335 0.290361 -0.141937 65 66 134
-0.032728 0.254306 -0.271602 68 1 84
-0.249132 0.587957 -0.002028 121 209 81
-0.654516 -0.473821 0.305428 68 1 84
0.382296 0.390966 0.011368 68 1 84
0.373807 0.087347 -0.159359 68 1 84
0.239715 -0.305518 -0.201615 68 1 84
-0.602617 -0.498659 0.137996 68 1 84
0.204086 0.381440 -0.145937 68 1 84
-0.056646 -0.326246 -0.315286 52 95 141
-0.518572 0.268436 0.533027 68 1 84
-0.102319 -0.439022 -0.293335 124 210 79
0.024898 0.126464 -0.321421 68 1 84
0.287733 0.522497 -0.003648 54 91 140
0.623920 -0.268948 0.122522 68 1 84
-0.162731 -0.382079 -0.209790 39 173 128
-0.679978 -0.433705 0.397032 68 1 84
-0.087854 0.418768 -0.190997 68 1 84
0.266511 0.339347 -0.129062 68 1 84
0.218487 0.462233 -0.114232 62 73 137
0.527299 0.015313 0.000222 68 1 84
-0.084651 -0.056194 -0.493243 43 116 142
-0.068283 -0.085835 -0.482383 83 197 103
0.593600 0.088696 0.236095 68 1 84
-0.513914 -0.095250 -0.075918 68 1 84
0.257771 0.155666 -0.193017 68 1 84
-0.128325 -0.060842 -0.358738 68 1 84
-0.002592 0.262253 -0.256240 68 1 84
0.578761 -0.522394 0.047122 68 1 84
-0.145347 -0.336645 -0.192917 45 111 142
0.157671 0.072005 -0.222256 68 1 84
0.706051 -0.343276 0.343770 68 1 84
0.293102 0.162597 -0.175310 68 1 84
0.558729 -0.388485 0.023565 68 1 84
-0.680181 -0.339115 0.515133 68 1 84
-0.141676 -0.349151 -0.200070 40 123 142
-0.649654 -0.324003 0.304764 68 1 84
0.207538 -0.415183 -0.225577 34 139 141
-0.666977 -0.411355 0.342861 68 1 84
0.296229 0.408436 -0.073548 68 1 84
0.140200 0.324482 -0.205551 68 1 84
0.670691 -0.460528 0.210095 68 1 84
-0.653206 -0.519238 0.294297 68 1 84
-0.622104 -0.095509 0.237492 68 1 84
-0.156568 0.222058 -0.252000 68 1 84
-0.391395 -0.026953 -0.162230 68 1 84
0.735438 -0.353734 0.450698 68 1 84
-0.481488 0.251125 0.065935 71 20 102
-0.624359 -0.142498 0.193664 68 1 84
0.345001 0.131332 -0.160365 68 1 84
0.281992 -0.416580 -0.223425 68 57 130
0.031856 0.249269 -0.266228 68 1 84
-0.646184 -0.203664 0.303623 68 1 84
0.134778 0.626243 -0.050516 41 121 142
-0.220084 -0.105618 -0.211306 68 1 84
0.105559 0.567585 -0.174662 63 69 135
-0.500910 0.365201 0.311295 68 1 84
0.613323 -0.417145 0.122506 68 1 84
0.575708 0.067914 0.167667 68 1 84
0.555770 0.001767 0.053924 68 1 84
0.437525 0.058196 -0.113895 68 1 84
-0.588274 0.073347 0.277202 68 1 84
0.667856 -0.073623 0.341592 68 1 84
-0.677744 -0.356573 0.443047 68 1 84
0.676475 -0.124259 0.351117 68 1 84
0.008261 0.525635 -0.215401 49 102 141
-0.479063 -0.480636 -0.121291 70 45 124
0.054419 -0.043576 -0.415609 68 1 84
-0.386154 0.169378 -0.114830 68 1 84
-0.391745 -0.445266 -0.187073 47 106 141
-0.364103 0.487103 0.059824 65 66 134
0.066468 0.512546 -0.204066 43 116 142
0.401855 -0.321100 -0.125046 68 1 84
-0.651897 -0.167477 0.546060 68 1 84
0.041185 -0.302437 -0.289146 32 143 140
0.493112 0.273494 0.121151 68 1 84
0.039375 0.284006 -0.248861 68 1 84
-0.244366 -0.180016 -0.171748 68 1 84
-0.261659 0.578976 0.005279 51 182 121
-0.421486 0.421633 0.090237 71 37 117
-0.530445 -0.510410 -0.027041 68 1 84
0.102319 0.034344 -0.343829 68 1 84
-0.640786 -0.116055 0.409731 68 1 84
0.355520 0.019508 -0.187654 68 1 84
-0.041027 0.187214 -0.307697 68 1 84
0.585219 0.147789 0.493164 68 1 84
-0.594116 -0.440597 0.123125 68 1 84
0.130142 -0.138730 -0.242154 68 1 84
0.541155 0.266238 0.243146 68 1 84
0.408857 -0.019375 -0.163075 68 1 84
0.629413 -0.173664 0.143616 68 1 84
0.687445 -0.174105 0.390425 68 1 84
-0.294279 0.125058 -0.184040 68 1 84
0.047058 -0.284205 -0.280676 53 92 140
-0.681890 -0.369038 0.477789 68 1 84
0.139120 0.256134 -0.220288 68 1 84
-0.340685 0.309364 -0.093328 72 26 108
0.697916 -0.458171 0.279661 68 1 84
-0.636925 -0.429485 0.253811 68 1 84
-0.512241 -0.254354 -0.019996 68 1 84
0.142237 0.146690 -0.231221 68 1 84
-0.544231 -0.325640 0.026144 68 1 84
0.490958 0.350354 0.204157 68 1 84
0.046097 0.607462 -0.169249 72 35 116
-0.132151 0.089962 -0.281861 68 1 84
-0.227139 0.451341 -0.124563 124 210 79
0.540958 -0.038655 -0.004966 68 1 84
0.679187 -0.174360 0.323292 68 1 84
-0.458840 0.417829 0.191800 68 1 84
-0.411692 -0.272448 -0.106322 68 1 84
-0.693636 -0.478547 0.485347 68 1 84
-0.669796 -0.245654 0.429178 68 1 84
-0.416300 0.285823 -0.019223 72 26 108
-0.022051 0.318369 -0.271658 68 1 84
-0.325978 -0.514537 -0.245653 81 196 104
0.479444 0.288655 0.105118 68 1 84
-0.542409 0.201895 0.521272 68 1 84
0.290276 -0.211225 -0.182997 68 1 84
-0.413975 0.093441 -0.127752 68 1 84
-0.433725 -0.141868 -0.125537 68 1 84
-0.592288 0.115551 0.387111 68 1 84
-0.106261 0.281458 -0.241623 68 1 84
0.437456 0.409707 0.135231 68 1 84
-0.671450 -0.530023 0.353596 68 1 84
0.523686 0.330809 0.369641 68 1 84
0.373240 0.482001 0.092525 68 1 84
0.224516 -0.504154 -0.284523 66 64 133
0.688895 -0.233994 0.362394 68 1 84
0.061813 -0.312860 -0.238892 31 150 139
-0.529524 -0.121241 -0.052203 68 1 84
-0.396037 0.414403 0.036212 58 83 139
-0.341877 0.375833 -0.057353 52 94 141
0.282220 0.006915 -0.214732 68 1 84
0.073828 -0.252882 -0.236392 69 5 88
0.080033 0.511148 -0.198990 60 77 138
-0.106136 -0.130883 -0.374649 58 82 139
-0.608840 -0.009366 0.303471 68 1 84
0.453178 -0.325969 -0.089929 68 1 84
-0.493932 -0.073169 -0.095967 68 1 84
0.653343 -0.072410 0.295779 68 1 84
0.107586 -0.119858 -0.273753 68 1 84
0.173405 0.120005 -0.218105 68 1 84
0.479894 -0.427561 -0.106219 68 1 84
-0.639086 -0.130676 0.369842 68 1 84
-0.223863 0.356137 -0.157350 69 54 129
0.443136 -0.165645 -0.123056 68 1 84
-0.462126 0.074238 -0.089684 68 1 84
-0.673540 -0.309350 0.421692 68 1 84
-0.260328 -0.482304 -0.261410 71 192 110
-0.616078 -0.041240 0.301718 68 1 84
0.166985 -0.059480 -0.238430 68 1 84
-0.176663 0.554864 -0.157502 77 194 107
0.281349 -0.387375 -0.224499 72 26 108
-0.091509 -0.342003 -0.267544 41 120 142
0.092672 0.062703 -0.333366 68 1 84
-0.149372 0.354232 -0.217498 68 1 84
0.552049 0.067068 0.097323 68 1 84
0.480180 0.201005 0.049503 68 1 84
-0.068919 -0.464074 -0.308583 175 220 46
-0.514538 -0.057281 -0.070617 68 1 84
0.585419 -0.090071 0.067996 68 1 84
-0.596350 -0.340144 0.119215 68 1 84
-0.576020 0.061735 0.194243 68 1 84
0.027214 0.458737 -0.201934 68 57 130
-0.601227 0.048002 0.452334 68 1 84
0.745739 -0.258542 0.473764 68 1 84
-0.300347 0.129727 -0.180634 68 1 84
0.253464 -0.440168 -0.234793 57 85 139
0.191654 0.590820 -0.063451 48 104 141
-0.499208 0.248397 0.100794 68 1 84
-0.306936 0.423647 -0.062275 40 174 127
-0.073411 0.598668 -0.175847 39 124 142
-0.051007 0.635189 -0.116397 35 135 141
-0.259385 0.589659 0.050122 34 138 141
-0.608858 0.047568 0.415463 68 1 84
-0.444375 -0.342204 -0.094880 68 1 84
0.381580 0.499387 0.254698 71 24 106
0.576690 0.207495 0.434379 68 1 84
0.462184 -0.295041 -0.072532 68 1 84
-0.282816 0.233398 -0.168801 68 1 84
0.523758 -0.478223 -0.039441 68 1 84
0.540606 0.116408 0.112076 68 1 84
-0.081989 0.076568 -0.390325 68 1 84
0.322766 -0.084992 -0.196049 68 1 84
0.068907 0.022667 -0.415997 68 1 84
-0.073595 0.378346 -0.217848 68 1 84
-0.151435 0.579525 -0.162995 131 211 75
0.633159 -0.403200 0.157856 68 1 84
0.593656 -0.113953 0.076162 68 1 84
0.087585 -0.261488 -0.215527 69 5 88
-0.352733 0.376991 -0.047262 42 119 142
-0.612693 0.030654 0.424834 68 1 84
0.251239 0.114733 -0.205695 68 1 84
-0.475056 -0.394125 -0.099166 68 1 84
-0.007740 -0.280018 -0.361611 32 165 133
0.542508 0.002299 0.023277 68 1 84
-0.415902 0.474901 0.291813 71 22 105
0.169568 0.051616 -0.225334 68 1 84
0.675651 -0.436192 0.227917 68 1 84
0.040263 0.310656 -0.261797 68 1 84
-0.583437 0.145626 0.414190 68 1 84
-0.300844 -0.103443 -0.177082 68 1 84
-0.426568 0.452133 0.364722 70 47 124
0.552381 0.272274 0.415473 68 1 84
0.457544 0.366287 0.130074 68 1 84
-0.636013 -0.077357 0.456938 68 1 84
0.525549 -0.434258 -0.031065 68 1 84
-0.221056 0.548928 -0.115073 114 207 85
-0.205364 0.098919 -0.212997 68 1 84
0.723315 -0.385782 0.400723 68 1 84
-0.375952 -0.465257 -0.205017 34 139 141
0.203832 0.481102 -0.121910 56 86 139
0.737156 -0.340258 0.448778 68 1 84
-0.358202 0.417634 -0.013387 30 153 138
0.327387 0.539843 0.122027 47 106 141
-0.637748 -0.092600 0.424970 68 1 84
-0.146915 0.592161 -0.156486 134 212 73
-0.415262 0.479751 0.221393 64 68 135
-0.185452 0.373673 -0.176807 70 47 124
-0.120932 -0.123945 -0.337656 71 38 118
-0.009528 -0.406236 -0.309825 39 173 128
-0.343218 -0.052397 -0.178340 68 1 84
-0.189221 0.622445 -0.032347 253 231 36
0.045525 -0.218670 -0.343505 42 119 142
0.641613 -0.451846 0.162383 68 1 84
0.161356 -0.424414 -0.237383 43 115 142
0.513210 0.206331 0.110827 68 1 84
-0.487976 0.370741 0.207782 68 1 84
0.599803 0.066379 0.237159 68 1 84
-0.267056 -0.173911 -0.167249 68 1 84
-0.448408 -0.526606 -0.150916 68 55 129
-0.108583 -0.215433 -0.284099 65 66 134
0.676072 -0.050145 0.436101 68 1 84
0.670029 -0.075668 0.347726 68 1 84
-0.527467 -0.369894 -0.004349 68 1 84
-0.344648 -0.366887 -0.194052 66 61 132
0.336991 0.531855 0.124701 58 83 139
-0.461898 0.111750 -0.068538 68 1 84
0.109590 0.313043 -0.228834 68 1 84
-0.479877 0.365138 0.164361 68 1 84
0.488365 -0.215368 -0.066717 68 1 84
0.473650 0.070677 -0.056459 68 1 84
-0.446828 0.125162 -0.079443 68 1 84
0.341377 0.164894 -0.146082 68 1 84
0.499856 0.161477 0.058965 68 1 84
-0.003438 -0.214682 -0.413199 181 221 43
0.507512 -0.147261 -0.066926 68 1 84
-0.456403 -0.383381 -0.110389 68 1 84
0.397017 -0.017625 -0.170453 68 1 84
-0.603805 -0.029397 0.228604 68 1 84
-0.392908 -0.449388 -0.189456 46 108 142
0.682162 -0.498174 0.230798 68 1 84
-0.028309 -0.134736 -0.467042 89 199 100
-0.140663 0.432404 -0.174248 47 105 141
-0.395805 -0.450749 -0.189412 44 112 142
-0.489228 -0.219913 -0.056638 68 1 84
-0.260178 -0.370255 -0.206362 59 81 138
0.567040 0.088678 0.157108 68 1 84
0.017595 0.224735 -0.296799 68 1 84
-0.435676 -0.208323 -0.098421 68 1 84
0.552997 -0.410701 0.013320 68 1 84
-0.141684 -0.076554 -0.312710 68 1 84
-0.595496 0.031714 0.508626 68 1 84
-0.354840 0.228408 -0.112496 68 1 84
0.093626 0.194941 -0.261901 68 1 84
0.151561 0.484524 -0.158522 62 72 136
0.031795 0.025347 -0.488779 65 65 134
0.536897 -0.239910 -0.012969 68 1 84
-0.298113 -0.096969 -0.180187 68 1 84
0.478091 0.018959 -0.082482 68 1 84
0.628698 -0.020648 0.258557 68 1 84
0.680205 -0.294935 0.263093 68 1 84
0.677703 -0.518041 0.216857 68 1 84
-0.389015 -0.454545 -0.193844 39 126 142
0.456647 0.417389 0.256090 68 1 84
-0.455730 0.421524 0.366404 68 57 130
0.690602 -0.238877 0.368858 68 1 84
-0.658962 -0.515932 0.312869 68 1 84
0.070334 -0.167574 -0.314932 65 65 134
0.047285 -0.282726 -0.280825 58 82 139
-0.075922 -0.472394 -0.309279 154 216 60
-0.683988 -0.389836 0.483285 68 1 84
-0.044920 -0.466605 -0.313010 207 225 28
0.516997 -0.027345 -0.044304 68 1 84
0.408844 0.464386 0.162867 68 1 84
-0.453506 0.041185 -0.111955 68 1 84
0.020457 -0.363664 -0.303669 35 135 141
-0.236246 -0.038702 -0.219549 68 1 84
-0.589196 0.126978 0.387151 68 1 84
-0.643910 -0.251510 0.264518 68 1 84
-0.352786 -0.446482 -0.199751 40 123 142
-0.527643 0.287289 0.225480 68 1 84
0.458669 0.345882 0.110419 68 1 84
0.215382 0.348285 -0.150673 68 1 84
-0.611955 -0.458617 0.174232 68 1 84
0.401499 0.478847 0.294300 71 24 106
0.125743 0.343692 -0.212285 68 1 84
0.233575 0.266954 -0.180164 68 1 84
-0.231486 -0.072847 -0.214683 68 1 84
-0.671998 -0.228431 0.397200 68 1 84
-0.434002 0.140690 -0.084209 68 1 84
0.548174 0.278601 0.437910 68 1 84
0.551654 -0.443781 0.008216 68 1 84
-0.124488 -0.131980 -0.324153 68 1 84
0.342679 -0.416769 -0.209506 68 1 84
-0.556043 -0.386844 0.041065 68 1 84
-0.402516 0.013852 -0.154897 68 1 84
0.449337 0.133805 -0.047898 68 1 84
0.643881 0.042841 0.468779 68 1 84
0.155144 -0.114696 -0.233056 68 1 84
-0.470432 0.121433 -0.049407 68 1 84
-0.036997 -0.127541 -0.470816 141 214 68
0.182271 0.093262 -0.217868 68 1 84
-0.409465 -0.346199 -0.124503 72 26 108
0.430836 0.375287 0.079989 68 1 84
0.636281 -0.156894 0.169848 68 1 84
-0.537418 0.292601 0.338989 68 1 84
0.070249 0.038679 -0.406525 68 1 84
0.471065 -0.202809 -0.086490 68 1 84
-0.062743 0.355281 -0.249936 68 1 84
0.620564 0.060483 0.305168 68 1 84
-0.562720 0.187102 0.255626 68 1 84
0.457512 0.418297 0.278717 68 1 84
0.635385 -0.424803 0.161147 68 1 84
0.580170 -0.318181 0.051586 68 1 84
0.608600 0.110333 0.429539 68 1 84
0.439610 -0.059313 -0.143927 68 1 84
0.118488 0.190315 -0.247466 68 1 84
-0.567536 -0.030963 0.045736 68 1 84
0.709856 -0.182583 0.498075 68 1 84
0.631319 -0.045238 0.247004 68 1 84
0.464992 -0.156374 -0.109102 68 1 84
0.081752 -0.350797 -0.222916 31 150 139
0.593366 -0.538984 0.068885 68 1 84
-0.485787 0.381331 0.383394 68 1 84
0.115939 0.046401 -0.245307 68 1 84
-0.349474 0.259048 -0.106123 68 1 84
-0.419816 -0.442943 -0.174565 66 61 132
0.607316 0.109908 0.322821 68 1 84
0.545639 0.001078 0.029433 68 1 84
0.716332 -0.344676 0.404232 68 1 84
-0.544169 0.123591 0.127068 68 1 84
0.707991 -0.205856 0.441985 68 1 84
-0.611338 -0.029411 0.287125 68 1 84
-0.264342 0.333195 -0.132150 69 52 127
-0.224716 -0.306662 -0.177024 69 52 127
-0.457607 0.428896 0.243784 72 30 112
-0.211050 0.610762 -0.024338 154 216 60
0.248949 0.565647 -0.002842 40 122 142
0.658632 0.003114 0.418308 68 1 84
0.589494 0.156991 0.301688 68 1 84
-0.528537 -0.432860 -0.027187 68 1 84
-0.252729 0.486458 -0.099103 81 196 104
-0.462897 -0.459473 -0.147351 71 18 101
-0.000171 -0.030379 -0.512974 46 109 142
-0.534615 -0.080970 -0.046167 68 1 84
0.732169 -0.404088 0.430449 68 1 84
0.406614 0.475078 0.241257 68 1 84
-0.336049 0.464358 -0.006916 32 143 140
0.566132 -0.071388 0.033181 68 1 84
0.507670 0.288702 0.164579 68 1 84
-0.620695 -0.408039 0.205915 68 1 84
0.266517 0.541412 -0.013237 47 105 141
0.149333 -0.262753 -0.196767 69 6 90
-0.033190 0.018534 -0.530807 71 39 119
0.408191 0.267950 -0.022172 68 1 84
-0.643452 -0.094963 0.468463 68 1 84
-0.615881 -0.181202 0.144572 68 1 84
0.677412 -0.251379 0.261637 68 1 84
0.582391 0.191377 0.327567 68 1 84
0.260415 0.063943 -0.215358 68 1 84
-0.072108 0.439752 -0.195184 67 60 132
-0.626785 -0.105707 0.262077 68 1 84
-0.109610 -0.363081 -0.248240 31 163 134
0.006085 -0.202562 -0.417396 134 212 73
0.115952 -0.267187 -0.197702 68 1 84
0.408715 -0.144805 -0.152138 68 1 84
-0.213437 0.604986 -0.047775 215 226 25
0.575443 0.216413 0.351056 68 1 84
-0.608352 -0.199887 0.121239 68 1 84
-0.499157 0.368047 0.312592 68 1 84
0.215424 -0.364290 -0.224846 68 1 84
0.058138 -0.158281 -0.344079 49 102 141
0.087453 -0.458293 -0.298686 48 104 141
0.608350 -0.419643 0.112541 68 1 84
0.415117 0.371731 0.047729 68 1 84
-0.458668 0.377666 0.121249 68 1 84
0.430958 0.356752 0.064065 68 1 84
0.522812 -0.244246 -0.026656 68 1 84
-0.516536 -0.148841 -0.062144 68 1 84
-0.433757 -0.298653 -0.081740 68 1 84
0.553720 -0.413076 0.014225 68 1 84
-0.464446 0.181721 -0.011598 68 1 84
-0.055363 0.387679 -0.209117 68 1 84
-0.537780 -0.112532 -0.040672 68 1 84
-0.050737 0.113809 -0.412338 68 1 84
0.658496 -0.228963 0.199147 68 1 84
-0.500377 0.335077 0.469791 68 1 84
-0.004403 -0.284020 -0.357649 36 170 130
-0.309141 0.420531 -0.061606 36 170 130
-0.678827 -0.342857 0.461584 68 1 84
0.225366 0.573674 -0.034449 38 128 142
0.480396 -0.521504 -0.104375 68 1 84
-0.594709 -0.226212 0.092049 68 1 84
-0.524086 -0.147521 -0.052955 68 1 84
0.467468 0.407894 0.323431 68 1 84
-0.488004 -0.311702 -0.038194 68 1 84
-0.198201 -0.411151 -0.216687 31 150 139
0.647729 -0.351328 0.176088 68 1 84
-0.014291 -0.310924 -0.338858 50 181 122
0.234614 0.169886 -0.198598 68 1 84
-0.555795 -0.516166 0.026590 68 1 84
0.219867 -0.393011 -0.227612 72 33 114
-0.149916 -0.455378 -0.288839 54 184 119
0.367438 0.507498 0.147091 70 11 94
-0.311795 0.430103 -0.055431 41 175 127
0.524645 -0.411154 -0.028573 68 1 84
0.263904 -0.507142 -0.274163 68 1 84
-0.384382 -0.311907 -0.132819 68 1 84
0.653930 -0.326010 0.191872 68 1 84
-0.593438 0.101278 0.353710 68 1 84
-0.351183 0.479461 0.028314 57 85 139
-0.634952 -0.072598 0.462027 68 1 84
-0.208607 -0.437372 -0.239299 66 190 113
0.083948 0.361861 -0.228154 68 1 84
-0.511650 0.204390 0.099863 68 1 84
-0.494469 0.174932 0.038989 68 1 84
0.544563 0.082075 0.091241 68 1 84
0.593833 0.165565 0.373243 68 1 84
-0.087498 -0.010977 -0.515366 69 54 129
0.072788 -0.057452 -0.338280 68 1 84
-0.456766 0.089790 -0.087876 68 1 84
-0.150506 0.635835 -0.052639 33 166 133
-0.538977 -0.018816 -0.019586 68 1 84
0.272851 0.244079 -0.160352 68 1 84
0.268354 0.508597 -0.046251 44 112 142
0.046753 -0.190288 -0.358338 30 157 136
0.546708 -0.041101 0.004825 68 1 84
-0.496436 -0.462953 -0.097291 68 1 84
-0.131095 0.211468 -0.268302 68 1 84
0.377293 -0.378494 -0.176735 68 1 84
0.302951 -0.366340 -0.210514 68 1 84
-0.160514 0.013254 -0.344766 68 1 84
0.515087 -0.161489 -0.055067 68 1 84
-0.559642 -0.496928 0.035030 68 1 84
0.052893 0.248356 -0.261317 68 1 84
-0.539192 0.230646 0.513415 68 1 84
0.075987 0.467207 -0.191767 51 96 141
-0.651183 -0.267611 0.320244 68 1 84
0.727635 -0.268055 0.402514 68 1 84
-0.555958 -0.032933 0.011843 68 1 84
0.527055 -0.061960 -0.039161 68 1 84
0.438033 0.441517 0.272727 68 1 84
-0.607474 -0.030663 0.254081 68 1 84
0.620682 -0.454462 0.132533 68 1 84
0.569175 0.226651 0.441646 68 1 84
0.634642 0.056557 0.351081 68 1 84
0.207769 -0.430967 -0.230458 30 152 138
0.451142 0.147887 -0.034761 68 1 84
-0.542155 0.282201 0.326038 68 1 84
