ply
format ascii 1.0
element vertex 1247
property float x
property float y
property float z
property uchar red
property uchar green
property uchar blue
end_header
0.547153 -0.449443 -0.012285 69 5 88
0.625602 -0.249329 0.140607 57 85 139
0.404178 0.433348 0.288286 44 112 142
0.650475 -0.175186 0.341523 31 162 134
0.320817 0.315813 -0.124093 68 3 87
0.084682 -0.343220 -0.297050 68 1 84
0.180023 -0.427703 -0.347975 68 1 84
0.359102 -0.405744 -0.273789 68 1 84
0.099814 -0.400799 -0.344233 68 1 84
-0.180685 0.605118 -0.043053 68 1 84
0.583862 0.145891 0.493119 31 162 134
-0.585141 -0.014876 0.059142 61 75 137
-0.265929 0.551094 0.025162 68 1 84
0.171644 -0.124144 -0.225468 60 77 138
0.268494 -0.372086 -0.292588 68 1 84
-0.633656 -0.136301 0.178097 30 156 137
-0.099746 -0.279038 -0.267973 68 1 84
-0.509640 0.139935 0.001348 69 53 128
-0.151395 0.005960 -0.259053 56 87 140
-0.436666 0.158636 -0.093527 69 53 128
-0.168174 0.508123 -0.144234 68 1 84
0.537552 0.192157 0.135789 49 101 141
-0.333372 -0.058640 -0.186918 70 49 126
0.286769 0.049474 -0.211978 54 91 140
-0.467860 -0.072875 -0.127562 69 54 129
-0.536340 -0.496999 -0.092042 68 1 84
0.133757 0.194495 -0.256425 40 123 142
-0.707270 -0.527795 0.400381 35 168 131
0.010659 0.400294 -0.214829 71 43 122
-0.564085 -0.292198 0.016515 61 75 137
0.233170 0.400480 -0.138843 68 1 84
-0.396690 0.044877 -0.167802 71 43 122
0.178568 0.289252 -0.216618 49 101 141
-0.100542 -0.315391 -0.287291 68 1 84
-0.355701 -0.321781 -0.231521 68 1 84
-0.621244 -0.012967 0.230657 52 94 141
-0.097499 -0.037520 -0.357378 72 29 111
-0.347396 -0.293365 -0.191081 68 1 84
-0.371911 0.448937 0.046020 68 1 84
0.528371 -0.367981 -0.028931 68 1 84
-0.573925 0.163486 0.485683 53 183 120
0.006208 0.397822 -0.217773 70 49 126
-0.582938 0.179645 0.341437 33 166 133
0.073787 0.140408 -0.291516 32 145 140
-0.643783 -0.327897 0.180855 49 100 141
-0.513843 0.322628 0.254186 59 81 138
0.295436 0.095991 -0.204372 58 83 139
-0.575872 0.111661 0.153012 40 122 142
-0.344195 0.480344 0.043617 68 1 84
-0.525799 -0.436011 -0.123741 68 1 84
0.339049 0.494379 0.164499 71 43 122
-0.583122 0.002164 0.066788 66 61 132
-0.627988 -0.106981 0.176356 33 167 132
0.322321 0.157277 -0.178780 67 58 131
0.674464 -0.503423 0.337897 49 100 141
0.050298 0.452815 -0.189731 72 26 108
-0.055201 0.155973 -0.304445 36 134 141
0.404976 -0.493082 -0.277351 68 1 84
-0.474239 -0.361146 -0.150516 68 1 84
-0.293793 0.477703 -0.038850 68 1 84
0.612406 -0.028340 0.196203 46 107 142
-0.368944 0.409187 -0.004311 68 3 87
-0.338210 0.228950 -0.134567 66 64 133
0.164391 -0.094521 -0.237517 49 101 141
0.144247 -0.379913 -0.307709 68 1 84
0.032681 0.575764 -0.170451 68 1 84
0.630691 -0.084009 0.235096 44 113 142
0.541891 -0.087762 -0.045342 58 82 139
-0.631521 -0.355002 0.145657 46 109 142
0.016232 0.448851 -0.190758 71 42 121
0.517209 0.233223 0.122938 58 82 139
-0.149658 0.007472 -0.268172 61 76 137
-0.039114 0.106615 -0.340884 44 112 142
-0.502964 0.272265 0.095318 70 49 126
-0.419556 -0.325854 -0.173955 68 1 84
0.280318 0.535736 0.117068 72 28 110
0.671089 -0.402626 0.412005 33 166 133
-0.639381 -0.041063 0.508225 246 230 31
-0.590297 -0.047085 0.049265 56 86 139
-0.531478 -0.271078 -0.018289 67 58 131
0.545337 0.121120 0.092188 48 104 141
-0.282470 -0.412384 -0.282295 68 1 84
-0.664549 -0.242971 0.369496 83 197 103
0.168410 0.032956 -0.239060 39 126 142
-0.663065 -0.160025 0.399511 64 189 114
-0.304587 0.422890 -0.071089 68 1 84
0.569405 -0.038011 0.022484 60 77 138
0.475203 -0.506424 -0.179945 68 1 84
-0.664371 -0.239975 0.379786 83 197 103
0.658477 -0.356313 0.326436 53 92 140
0.632946 -0.206153 0.174199 47 106 141
0.491574 -0.103335 -0.106312 68 55 129
0.137563 -0.144955 -0.241218 47 105 141
-0.057486 0.594878 -0.153575 68 1 84
-0.349388 -0.234104 -0.182469 68 1 84
0.596122 0.037372 0.185542 47 106 141
-0.364487 0.494316 0.221664 69 5 88
-0.203237 0.314989 -0.169782 68 1 84
0.642713 -0.093822 0.449843 35 136 141
-0.283511 -0.371477 -0.248439 68 1 84
0.408024 0.394604 0.076889 68 55 129
-0.330413 0.519556 0.186251 68 1 84
-0.540959 0.200209 0.532488 91 200 98
-0.291904 0.363172 -0.115411 68 1 84
0.505890 0.299375 0.418718 40 122 142
-0.297400 0.251475 -0.156260 71 17 99
0.471669 0.356489 0.309129 53 93 140
0.292351 0.417027 -0.079794 68 1 84
0.123407 0.341024 -0.215220 68 55 129
-0.389651 0.250039 -0.084335 72 28 110
0.591496 -0.322664 0.068885 51 96 141
-0.374251 0.418673 0.011376 68 1 84
-0.614075 -0.079846 0.129230 34 138 141
0.508014 0.239779 0.104780 57 85 139
0.257671 0.183061 -0.205164 51 97 141
0.444985 -0.170460 -0.120752 71 37 117
-0.547738 -0.202590 -0.024199 65 66 134
-0.307943 -0.295711 -0.195890 68 1 84
0.283708 -0.045954 -0.208931 70 48 125
-0.419092 0.387145 0.051368 68 1 84
0.606724 -0.523176 0.123939 72 32 113
-0.357874 -0.330349 -0.258745 68 1 84
-0.413478 0.172287 -0.108126 63 69 135
-0.251756 0.496686 -0.075328 68 1 84
-0.190806 0.233113 -0.224064 57 85 139
-0.638566 0.016986 0.388835 103 204 92
0.266444 0.478723 -0.056259 71 24 106
0.319539 0.028613 -0.201695 69 54 129
0.544441 0.110579 0.081303 50 99 141
-0.415766 0.450710 0.174571 69 5 88
-0.497707 0.217563 0.037352 69 50 127
-0.687517 -0.474741 0.318375 45 110 142
-0.191574 -0.362719 -0.255210 68 1 84
0.626124 -0.049272 0.236261 38 127 142
-0.290155 -0.017739 -0.205781 62 72 136
0.084431 -0.189852 -0.267439 54 91 140
0.142348 -0.098087 -0.251671 46 109 142
-0.168706 0.071126 -0.293557 45 111 142
-0.410803 0.450224 0.272641 72 29 111
-0.692994 -0.457593 0.412853 32 165 133
0.642851 -0.113752 0.296052 43 115 142
-0.489765 0.356603 0.297852 66 64 133
0.453998 0.373560 0.173202 63 69 135
-0.684351 -0.405027 0.373974 31 161 135
-0.174719 0.052864 -0.218002 68 55 129
0.617468 -0.344503 0.133991 55 88 140
0.598051 0.025713 0.184159 43 115 142
0.247271 0.087981 -0.218696 59 80 138
-0.653670 -0.123712 0.491848 149 215 63
0.633238 -0.207852 0.175150 51 96 141
-0.114276 -0.089012 -0.300834 65 66 134
-0.170424 0.537287 -0.132542 68 1 84
-0.523621 0.306839 0.266845 44 113 142
0.020956 0.191794 -0.308153 30 158 136
-0.380888 0.439043 0.047668 69 5 88
0.587022 -0.040254 0.078035 50 98 141
-0.081851 0.242052 -0.298032 46 108 142
-0.626608 -0.497479 0.167295 59 81 138
-0.289731 0.513679 -0.004905 68 1 84
-0.628709 -0.395168 0.148822 38 127 142
0.457622 0.016148 -0.120959 60 78 138
-0.309942 -0.124072 -0.172636 65 66 134
0.579041 0.156865 0.259411 59 80 138
0.608901 0.037495 0.238735 61 74 137
-0.011022 0.314472 -0.255456 54 90 140
0.628927 -0.273496 0.154970 47 106 141
0.537288 -0.465988 -0.037773 68 1 84
0.384105 -0.391043 -0.245901 68 1 84
0.095670 0.299794 -0.227619 66 62 133
-0.488111 0.100998 -0.062461 68 57 130
-0.643231 -0.247997 0.173197 37 130 142
0.533840 0.252272 0.226654 44 114 142
0.425060 0.417316 0.223413 59 81 138
0.561436 -0.299106 0.020457 60 78 138
-0.039991 0.292243 -0.273887 42 118 142
0.409310 -0.430573 -0.266984 68 1 84
0.496609 -0.454525 -0.137646 68 1 84
0.157494 0.244276 -0.249412 55 88 140
0.095422 -0.373962 -0.322986 68 1 84
0.440660 -0.198730 -0.108585 69 50 127
-0.513894 0.322529 0.250478 56 86 139
-0.400527 -0.109649 -0.153602 71 44 123
-0.288975 0.237850 -0.164944 71 20 102
-0.670688 -0.471712 0.268937 30 152 138
-0.590756 0.108871 0.208981 38 129 142
0.485588 -0.457568 -0.164667 68 1 84
-0.382534 -0.312150 -0.203459 68 1 84
-0.394535 0.250807 -0.079170 71 40 120
0.402644 -0.092163 -0.164100 65 65 134
-0.346020 0.453698 0.009417 68 1 84
0.623225 -0.014612 0.248136 52 94 141
-0.185846 0.160456 -0.219415 67 59 131
-0.579487 -0.350266 0.033515 47 105 141
-0.658051 -0.146064 0.455918 38 172 129
-0.106210 -0.173269 -0.280616 72 33 114
-0.278259 0.548730 0.076252 68 1 84
-0.638982 -0.176044 0.178379 34 167 132
-0.457432 -0.392980 -0.198656 68 1 84
0.027147 0.579609 -0.168399 68 1 84
-0.188872 -0.307950 -0.211331 68 1 84
0.566825 0.176675 0.502027 34 139 141
0.146019 0.274744 -0.246344 48 104 141
0.555538 0.222807 0.349328 37 131 141
-0.250041 -0.353053 -0.237166 68 1 84
0.414915 -0.078426 -0.159974 65 66 134
0.315712 -0.264243 -0.199406 68 1 84
0.112683 -0.223548 -0.220383 72 29 111
0.490020 0.332068 0.237532 56 86 139
0.519893 0.245032 0.146529 55 89 140
-0.595396 -0.412520 0.061381 41 120 142
0.423819 -0.236169 -0.104690 71 37 117
-0.662883 -0.123308 0.411833 64 189 114
-0.050130 -0.303513 -0.317280 68 1 84
0.049478 0.412736 -0.205684 72 35 116
0.554573 -0.132176 -0.026803 60 77 138
-0.251023 -0.446230 -0.329215 68 1 84
0.446852 0.180871 -0.056782 70 49 126
0.065705 -0.339649 -0.307844 68 1 84
-0.616985 -0.442177 0.130359 55 89 140
-0.345320 0.509339 0.165177 68 1 84
-0.253813 0.490813 -0.076948 68 1 84
0.139826 0.435112 -0.174603 68 1 84
-0.646510 -0.550291 0.205837 39 124 142
-0.302656 0.530445 0.075470 68 1 84
0.164669 0.581146 -0.086037 68 1 84
-0.351422 0.377163 -0.054610 68 1 84
0.499483 -0.111918 -0.098520 66 61 132
0.167825 0.065343 -0.231896 46 107 142
-0.584264 0.128776 0.201326 41 120 142
0.133861 0.159345 -0.247066 39 126 142
0.065809 -0.025421 -0.407433 47 106 141
-0.161853 -0.287283 -0.203348 68 1 84
-0.468386 0.359550 0.386618 52 94 141
-0.428660 -0.221687 -0.104719 71 37 117
-0.087482 -0.240051 -0.282828 68 2 85
-0.455888 0.383909 0.344913 62 72 136
0.517563 -0.055917 -0.073717 68 55 129
0.367108 0.041078 -0.179547 68 55 129
0.583442 -0.044024 0.061562 55 89 140
0.674658 -0.504281 0.338386 49 102 141
-0.530048 -0.366117 -0.067394 71 38 118
0.003105 0.018408 -0.468843 71 40 120
0.223816 0.398235 -0.145988 69 6 90
0.033545 0.193049 -0.307716 31 162 134
0.612052 -0.351427 0.119913 60 77 138
-0.422130 0.263041 -0.041700 72 32 113
0.407742 0.281296 -0.041790 62 72 136
0.364570 0.243136 -0.114495 71 24 106
0.375366 0.351476 -0.033766 72 34 115
0.012632 0.642102 -0.041163 71 17 99
-0.634912 -0.044931 0.259809 34 167 132
0.266702 0.542037 0.083027 71 20 102
0.606785 0.091680 0.337084 40 122 142
0.337345 -0.171470 -0.162963 65 66 134
-0.554872 0.245649 0.268020 45 110 142
-0.423054 0.094015 -0.136881 70 45 124
-0.625444 0.052298 0.434836 79 195 105
-0.131942 0.565809 -0.146473 68 1 84
-0.407618 -0.281670 -0.132838 68 1 84
0.199331 0.145691 -0.225322 43 115 142
0.589619 0.136294 0.456261 38 127 142
-0.528285 -0.497251 -0.110885 68 1 84
0.631912 0.005741 0.368066 45 111 142
-0.076033 -0.250338 -0.296980 68 1 84
0.017132 0.634796 -0.085888 68 1 84
-0.694713 -0.453562 0.420857 34 167 132
-0.538924 0.259484 0.190427 66 62 133
-0.622004 -0.154060 0.114939 37 131 141
-0.254492 0.304009 -0.157697 68 1 84
-0.597534 -0.019696 0.106725 54 90 140
-0.347284 -0.452277 -0.300834 68 1 84
0.644231 -0.056127 0.378208 45 110 142
0.043257 0.635143 -0.076350 68 1 84
-0.098410 -0.132436 -0.308544 72 29 111
0.478600 0.136873 -0.038127 62 72 136
0.651220 -0.138632 0.408322 37 131 141
-0.104312 0.079141 -0.398408 49 102 141
-0.484764 0.050896 -0.093133 66 62 133
0.256419 0.090721 -0.216234 58 82 139
0.241668 0.403585 -0.131189 71 24 106
0.376366 -0.299412 -0.160057 68 1 84
0.400289 0.016875 -0.163729 65 65 134
-0.618218 -0.243000 0.095700 47 106 141
0.558061 0.056132 0.073351 63 71 136
0.460594 0.367621 0.327605 51 96 141
-0.454707 0.247382 -0.009853 71 38 118
0.622287 -0.259851 0.130734 47 105 141
0.524445 -0.456027 -0.068731 68 1 84
-0.220930 0.050217 -0.215487 66 62 133
-0.460756 0.389202 0.158134 71 18 101
-0.696397 -0.441364 0.451029 96 201 96
-0.366813 0.165849 -0.144814 60 77 138
0.332999 0.499317 0.174555 64 68 135
-0.111878 0.412591 -0.196651 68 1 84
-0.591039 -0.010348 0.086969 44 112 142
-0.111529 0.499576 -0.175509 68 1 84
-0.031849 -0.232569 -0.328151 68 1 84
-0.322809 -0.224753 -0.189460 68 1 84
-0.615313 -0.088718 0.128128 41 121 142
0.215129 0.498127 -0.098244 68 1 84
-0.514691 -0.278259 -0.032958 71 39 119
0.630106 -0.103399 0.218414 41 121 142
-0.421189 0.346704 0.013822 68 1 84
-0.525673 0.262712 0.447132 31 163 134
-0.114840 -0.214389 -0.249059 71 22 105
-0.305681 0.533079 0.107239 68 1 84
0.596995 0.080864 0.510558 43 177 125
-0.488610 0.360888 0.218221 72 33 114
-0.424500 -0.247955 -0.110708 72 34 115
0.349709 -0.472815 -0.310800 68 1 84
0.610153 -0.148909 0.097191 49 101 141
0.596143 -0.241327 0.063843 60 77 138
-0.187985 -0.100198 -0.226287 69 50 127
0.649174 -0.075234 0.493293 31 150 139
-0.658804 -0.179326 0.467923 109 206 88
0.226384 -0.129919 -0.198219 66 61 132
-0.436428 0.409587 0.327994 61 74 137
0.654233 -0.384770 0.279185 42 118 142
-0.532937 -0.425217 -0.103442 69 5 88
0.594137 -0.054879 0.091081 53 92 140
-0.405254 0.027316 -0.164835 70 48 125
-0.260931 -0.254885 -0.197941 68 1 84
-0.487971 0.351472 0.175594 71 42 121
-0.324840 -0.364833 -0.256125 68 1 84
0.128486 -0.177677 -0.230942 60 77 138
0.542646 0.245255 0.269436 56 86 139
0.575504 -0.038683 0.038978 65 66 134
0.476635 0.345822 0.345837 50 99 141
-0.235071 0.474791 -0.104900 68 1 84
-0.442076 -0.115428 -0.134815 71 38 118
-0.300861 -0.173776 -0.167934 68 1 84
-0.054726 0.369314 -0.250975 54 90 140
-0.026100 0.114248 -0.417376 47 106 141
-0.352911 -0.328008 -0.250030 68 1 84
0.232153 0.379999 -0.148771 68 1 84
0.159170 -0.009803 -0.249935 32 143 140
-0.541268 0.183928 0.110076 63 71 136
-0.186059 -0.364157 -0.261599 68 1 84
0.058316 0.333937 -0.250328 72 34 115
-0.540984 0.270696 0.336735 44 113 142
-0.655157 -0.213331 0.248707 32 165 133
0.607391 0.091679 0.372473 44 112 142
0.414633 -0.309915 -0.133259 68 1 84
-0.667471 -0.315804 0.358974 134 212 73
-0.129007 0.149124 -0.243766 46 108 142
0.353561 -0.162544 -0.159357 63 71 136
-0.111656 -0.277541 -0.249066 68 1 84
0.508972 0.305837 0.316157 47 106 141
-0.088723 -0.079985 -0.343617 71 38 118
0.388974 -0.369549 -0.222087 68 1 84
-0.582917 0.154823 0.232382 46 109 142
0.592746 -0.033072 0.113869 53 93 140
0.575922 0.174754 0.390725 35 136 141
-0.538423 0.025064 -0.026345 71 42 121
0.431572 -0.038652 -0.149327 68 57 130
0.461085 0.359785 0.162845 65 65 134
0.000571 0.622817 -0.121730 68 1 84
-0.284713 0.479861 -0.049099 68 1 84
-0.276134 -0.282235 -0.197501 68 1 84
-0.620706 0.022925 0.508026 250 230 34
0.119563 -0.135267 -0.260495 43 115 142
0.403537 0.261515 -0.062184 61 75 137
0.620865 -0.019908 0.233598 40 122 142
-0.566346 -0.450015 -0.008239 71 37 117
-0.031886 -0.097565 -0.388697 71 18 101
-0.474411 -0.113042 -0.117615 70 45 124
-0.657005 -0.072452 0.432079 159 217 56
0.572322 0.170586 0.247048 71 21 103
-0.498726 0.192827 0.020696 68 55 129
0.628039 -0.007823 0.487060 32 143 140
0.523246 0.274085 0.233414 46 107 142
0.000345 -0.340397 -0.333575 68 1 84
0.506797 0.309516 0.291503 54 91 140
0.355707 -0.002039 -0.188115 61 76 137
0.543640 -0.494112 -0.025460 68 1 84
0.460299 -0.229465 -0.086391 70 48 125
-0.495963 0.089926 -0.057023 66 62 133
0.632249 -0.003338 0.335073 35 137 141
0.636884 -0.140024 0.235144 39 126 142
-0.674045 -0.340634 0.393916 129 211 76
-0.295209 -0.075093 -0.193441 71 42 121
-0.657143 -0.146494 0.333129 46 178 124
0.614693 0.060946 0.324623 36 132 141
-0.662597 -0.314597 0.253132 36 170 130
0.014108 0.029343 -0.468588 71 43 122
0.021628 -0.098637 -0.384197 72 34 115
-0.131411 0.369689 -0.219319 71 40 120
-0.685185 -0.531213 0.286517 39 125 142
-0.574399 -0.337933 0.027423 52 95 141
-0.094794 -0.211100 -0.279590 71 42 121
-0.532016 0.260878 0.425975 30 155 137
0.342434 -0.330398 -0.237955 68 1 84
0.545291 -0.352564 0.001345 72 30 112
0.005918 -0.131128 -0.370466 69 6 90
0.399602 -0.237818 -0.122367 69 6 90
-0.161447 0.283350 -0.213535 66 61 132
0.084974 -0.102340 -0.313247 42 119 142
-0.673441 -0.418133 0.325659 50 181 122
-0.045060 -0.188136 -0.340543 72 29 111
-0.143633 -0.102720 -0.263166 68 55 129
0.366976 0.386617 -0.011984 72 34 115
0.409289 -0.487997 -0.274726 68 1 84
-0.692810 -0.427489 0.467762 165 218 53
-0.579249 -0.175913 0.008556 54 90 140
-0.640956 -0.036871 0.294860 38 172 129
-0.192420 0.418615 -0.158554 68 1 84
-0.411403 -0.334947 -0.208477 68 1 84
0.346587 0.438582 0.019080 71 22 105
-0.431459 0.307883 -0.000307 70 11 94
0.543864 0.016102 -0.001011 66 64 133
-0.409870 0.256558 -0.059749 71 38 118
-0.499352 0.294972 0.109465 71 43 122
-0.180451 0.159451 -0.221631 66 62 133
0.523092 -0.217065 -0.044446 69 54 129
-0.014916 -0.396433 -0.356384 68 1 84
-0.443722 0.216674 -0.046214 67 58 131
0.648631 -0.073284 0.501649 30 158 136
0.647518 -0.303483 0.273211 36 132 141
0.128535 -0.025976 -0.280434 30 154 137
0.633586 -0.310810 0.181529 44 114 142
0.680765 -0.525111 0.360327 38 129 142
-0.591185 0.143406 0.437653 75 194 108
0.266775 -0.333392 -0.277302 68 1 84
0.548483 0.150051 0.125412 61 74 137
0.521816 -0.006069 -0.049964 61 74 137
0.638618 -0.239564 0.199295 44 112 142
0.495258 -0.153379 -0.095078 72 34 115
-0.086496 -0.183890 -0.304765 68 1 84
0.530867 0.269405 0.290541 46 107 142
0.683791 -0.559849 0.375901 38 129 142
0.218741 0.505217 -0.090512 68 1 84
0.481511 0.173197 -0.009323 55 89 140
0.259949 0.545064 0.067660 71 15 98
0.455301 0.177436 -0.047275 68 57 130
-0.085935 0.504762 -0.183894 68 1 84
0.654259 -0.245417 0.453966 34 138 141
-0.514689 -0.333721 -0.060874 70 45 124
0.453460 0.371988 0.351634 49 100 141
0.219213 -0.329107 -0.253857 68 1 84
0.553738 0.127476 0.119368 50 99 141
-0.414646 -0.308213 -0.147585 68 1 84
-0.387994 -0.442886 -0.276149 68 1 84
0.570856 -0.516625 0.037451 68 3 87
0.007729 -0.127807 -0.371882 69 8 91
0.489263 0.185139 0.015475 52 95 141
0.514018 -0.088129 -0.083289 65 66 134
-0.625453 -0.524230 0.158242 49 101 141
0.158174 0.020940 -0.249830 30 158 136
0.602517 -0.147571 0.073342 50 99 141
-0.416690 -0.141435 -0.136500 72 34 115
0.639904 -0.260304 0.209454 44 114 142
0.635102 -0.024131 0.421177 39 124 142
-0.655489 -0.181033 0.289084 31 150 139
-0.006700 0.181093 -0.307255 41 121 142
0.621589 -0.368173 0.151536 51 97 141
0.650107 -0.315713 0.283664 34 137 141
-0.061361 -0.175484 -0.335633 70 49 126
0.482220 0.258162 0.064724 59 80 138
0.522151 0.220108 0.122132 61 74 137
0.641451 -0.312584 0.230536 42 118 142
0.218751 -0.105982 -0.211749 67 58 131
-0.419302 0.123384 -0.127062 70 49 126
0.567432 -0.440691 0.031051 68 1 84
-0.264898 0.170015 -0.188190 57 85 139
-0.048523 0.112592 -0.391677 46 107 142
-0.418793 0.388663 0.052543 68 1 84
0.661590 -0.351740 0.375572 30 152 138
-0.085868 -0.079695 -0.348213 69 52 127
-0.085237 -0.209771 -0.295659 71 15 98
0.169599 0.252609 -0.241413 51 97 141
-0.570185 -0.458170 0.001891 70 45 124
-0.434683 0.179798 -0.082315 70 45 124
0.497456 -0.359262 -0.080669 68 1 84
-0.064334 -0.181625 -0.331041 69 52 127
0.470401 -0.276995 -0.067215 70 47 124
-0.451121 0.266384 -0.001755 70 48 125
-0.662719 -0.272487 0.475612 189 222 38
0.199582 -0.412327 -0.331908 68 1 84
-0.284264 -0.311783 -0.214672 68 1 84
0.215556 -0.313101 -0.230563 68 1 84
-0.020380 0.356395 -0.258272 47 105 141
-0.563962 0.069788 0.069056 58 83 139
0.069117 0.067551 -0.427802 58 82 139
0.537973 0.255024 0.278102 50 99 141
0.655082 -0.237785 0.485812 40 174 127
0.601616 0.095694 0.473644 30 157 136
0.537018 -0.463354 -0.038054 68 1 84
0.351400 -0.466935 -0.309060 68 1 84
0.312125 0.451669 -0.020009 71 22 105
0.606135 -0.238471 0.085014 52 95 141
-0.606672 -0.436232 0.095178 52 95 141
-0.512425 0.291925 0.142523 70 49 126
-0.385024 -0.161126 -0.139996 71 38 118
0.345756 -0.384791 -0.262752 68 1 84
-0.140331 0.506330 -0.161145 68 1 84
-0.371682 -0.077036 -0.171333 71 44 123
0.375851 0.109779 -0.161072 69 52 127
0.424232 0.385235 0.099450 58 83 139
-0.618478 -0.300997 0.102023 49 102 141
0.426656 0.414868 0.243779 60 78 138
-0.599587 0.117661 0.269674 34 167 132
-0.698625 -0.476762 0.459510 68 190 112
0.577787 0.006608 0.093106 51 96 141
0.438889 0.232332 -0.032388 60 77 138
-0.404731 0.460215 0.240101 72 33 114
-0.555131 0.185639 0.152211 59 81 138
0.047858 0.227736 -0.307345 31 146 140
-0.068237 0.300856 -0.244650 62 72 136
-0.118208 0.251760 -0.273456 63 71 136
-0.501349 0.339508 0.304391 61 74 137
-0.043328 0.211925 -0.304296 66 64 133
0.457825 -0.364415 -0.155314 68 1 84
0.634898 -0.028246 0.501246 30 160 135
-0.577222 0.157128 0.484724 54 184 119
0.250960 -0.234742 -0.206867 70 11 94
-0.267660 0.419523 -0.106054 68 1 84
-0.171428 -0.292725 -0.203149 68 1 84
0.629320 0.014604 0.358052 49 100 141
-0.590509 0.048052 0.153405 36 134 141
0.509069 -0.303484 -0.034662 71 38 118
-0.191449 -0.432386 -0.338322 68 1 84
0.225468 0.373034 -0.155114 71 39 119
-0.657067 -0.143441 0.460556 91 200 98
-0.418669 -0.169557 -0.123521 67 60 132
0.586374 0.140730 0.274092 43 115 142
-0.358978 0.075953 -0.181037 63 69 135
-0.531919 -0.263110 -0.019197 68 55 129
-0.378011 -0.186461 -0.138111 71 38 118
-0.205097 -0.061981 -0.225477 66 62 133
-0.090273 -0.314254 -0.295628 68 1 84
0.625947 -0.153730 0.161513 45 111 142
-0.542019 0.265405 0.353512 31 147 139
0.480352 -0.055271 -0.114480 71 38 118
-0.255386 -0.216466 -0.195826 71 22 105
-0.644964 -0.019481 0.343272 71 192 110
0.655939 -0.391491 0.288740 47 106 141
0.587021 0.128993 0.250713 45 110 142
-0.586856 0.156354 0.429191 61 187 116
0.114730 0.007962 -0.334797 48 103 141
-0.662098 -0.178023 0.413425 43 177 125
0.056503 0.286376 -0.268136 51 97 141
-0.200326 0.259516 -0.211088 67 59 131
-0.005055 0.535231 -0.189183 68 1 84
0.018370 0.640028 -0.061804 68 1 84
-0.027254 -0.087755 -0.395764 68 1 84
-0.508251 0.244593 0.082435 70 49 126
0.223945 -0.443353 -0.349924 68 1 84
0.551845 -0.494364 -0.005642 69 6 90
-0.399161 0.465774 0.164408 69 8 91
-0.120923 0.371736 -0.224393 69 54 129
0.198061 0.301805 -0.193798 60 77 138
-0.492943 0.064979 -0.076217 66 64 133
-0.562289 -0.021260 -0.007964 58 82 139
-0.311749 0.517213 0.054157 68 1 84
-0.660892 -0.182028 0.438066 114 207 85
-0.277767 0.029863 -0.209927 70 48 125
0.588378 -0.460742 0.079308 72 35 116
-0.706334 -0.574680 0.410736 66 190 113
-0.282478 -0.460258 -0.329895 68 1 84
-0.651157 -0.102820 0.478315 94 201 97
0.018713 0.619366 -0.125614 68 1 84
0.583121 -0.314356 0.052572 56 87 140
-0.510631 -0.299945 -0.040419 70 45 124
0.566094 0.054635 0.098634 51 97 141
-0.379560 0.481472 0.144317 68 1 84
0.525538 0.273511 0.250335 49 101 141
-0.207246 -0.023625 -0.227347 62 73 137
-0.353468 -0.424297 -0.276642 68 1 84
0.518302 0.281823 0.417216 37 131 141
0.481721 0.062565 -0.074727 68 57 130
-0.593896 0.123478 0.475222 47 179 123
-0.519038 0.145570 0.024261 71 44 123
0.642992 -0.311612 0.241938 41 120 142
-0.477476 0.373595 0.293873 71 44 123
-0.492922 -0.272670 -0.051340 71 39 119
0.642830 -0.435958 0.237891 53 93 140
0.111519 0.105530 -0.304226 42 119 142
0.144789 -0.431827 -0.354742 68 1 84
0.218254 0.499958 -0.094128 68 1 84
0.550307 0.214769 0.493749 31 148 139
0.312597 0.382827 -0.089171 69 5 88
-0.150618 0.110602 -0.229397 52 94 141
0.057573 -0.247153 -0.275798 72 35 116
-0.093109 0.623710 -0.105862 68 1 84
0.651444 -0.346282 0.276221 42 117 142
0.618805 -0.425850 0.160352 61 74 137
-0.427218 0.389686 0.070002 71 21 103
-0.317623 0.394715 -0.077595 68 1 84
0.529828 -0.473759 -0.056923 68 1 84
0.657765 -0.193187 0.469109 39 126 142
0.591532 -0.243109 0.055177 61 76 137
-0.133736 0.558456 -0.149035 68 1 84
0.417059 0.421149 0.169330 70 48 125
0.088486 0.058852 -0.409399 56 86 139
0.389033 0.375048 0.013291 70 47 124
0.649252 -0.143993 0.469875 34 137 141
-0.361602 0.266724 -0.101247 70 11 94
-0.447082 -0.306648 -0.107172 69 8 91
0.263259 0.540154 0.053201 68 1 84
0.497670 0.087605 -0.038665 71 24 106
0.506799 0.289665 0.182251 57 85 139
0.251342 -0.228689 -0.206213 70 12 95
-0.188847 -0.163734 -0.200750 69 50 127
-0.252073 -0.085996 -0.202599 69 52 127
-0.314994 0.318478 -0.120530 68 2 85
-0.676651 -0.339349 0.463895 228 227 24
-0.428399 0.080896 -0.137680 70 45 124
-0.212020 -0.178979 -0.187053 70 45 124
0.116035 -0.164881 -0.249751 45 110 142
0.223751 0.155389 -0.218146 39 124 142
0.453827 -0.442846 -0.223031 68 1 84
-0.468928 -0.185569 -0.092097 70 45 124
0.601217 -0.510820 0.113202 71 44 123
-0.383985 -0.454504 -0.283191 68 1 84
-0.353804 0.401253 -0.032502 68 1 84
-0.665752 -0.290795 0.298338 71 192 110
0.598285 -0.206491 0.063836 45 110 142
0.044372 0.389027 -0.228413 70 45 124
0.650401 -0.535748 0.244910 64 68 135
-0.184558 0.301077 -0.180804 69 6 90
-0.632667 -0.401744 0.166585 46 107 142
-0.233637 -0.001325 -0.219552 67 58 131
0.205398 0.214899 -0.227878 33 142 140
0.657361 -0.338269 0.331743 54 90 140
0.307115 0.503219 0.060682 69 8 91
-0.690694 -0.384491 0.412856 96 201 96
-0.219979 0.477340 -0.116955 68 1 84
0.526594 0.267802 0.437554 31 147 139
-0.652765 -0.106916 0.497883 119 208 82
0.074095 0.223384 -0.293636 34 137 141
-0.125767 -0.015913 -0.312401 72 34 115
0.595505 0.126004 0.360204 37 130 142
0.124053 -0.067532 -0.276962 35 135 141
-0.309891 -0.424239 -0.289836 68 1 84
0.502972 0.026135 -0.062762 62 73 137
0.020832 0.346556 -0.258816 70 49 126
0.046946 -0.040846 -0.413808 50 98 141
0.251547 -0.031772 -0.219046 70 49 126
-0.120121 0.085252 -0.367644 44 114 142
-0.665539 -0.263806 0.401955 96 201 96
-0.664746 -0.318394 0.273731 57 185 118
0.078679 -0.233670 -0.253756 68 55 129
-0.517962 -0.391969 -0.124804 68 1 84
0.302802 -0.111716 -0.185924 71 40 120
0.267885 -0.050593 -0.211967 69 53 128
0.648118 -0.091910 0.347641 41 120 142
-0.653248 -0.091180 0.462398 126 210 78
-0.108662 -0.034035 -0.337141 68 55 129
-0.187050 -0.106385 -0.225708 72 25 107
-0.452174 0.013128 -0.134060 72 32 113
0.654168 -0.184862 0.494250 30 157 136
-0.671560 -0.410685 0.320221 71 192 110
-0.659069 -0.379771 0.242811 30 158 136
0.618767 0.054791 0.391606 36 132 141
0.261197 0.153117 -0.207412 56 87 140
0.004679 -0.008628 -0.455944 72 26 108
-0.446967 0.274215 -0.002005 69 50 127
0.077079 0.542031 -0.173296 68 1 84
-0.431398 0.295273 -0.008742 71 38 118
0.157718 0.151302 -0.237328 53 93 140
-0.707443 -0.534379 0.378226 30 159 136
0.579870 0.166991 0.339055 34 137 141
0.260648 0.454962 -0.081112 68 1 84
0.654646 -0.233190 0.459884 31 163 134
0.057890 -0.130556 -0.331468 63 71 136
-0.438663 0.426925 0.190408 68 1 84
0.155989 -0.207009 -0.199940 64 68 135
-0.647403 -0.074276 0.501782 253 231 36
0.608981 -0.354017 0.112086 61 75 137
0.052972 0.305147 -0.246700 69 53 128
-0.473138 0.137894 -0.061522 62 73 137
0.062983 0.604715 -0.137999 68 1 84
-0.051136 0.643303 -0.044854 68 1 84
-0.284464 -0.334539 -0.242331 68 1 84
-0.623167 0.014763 0.261164 31 150 139
0.566918 -0.067929 0.004425 62 72 136
0.628380 -0.424360 0.192417 61 74 137
-0.628076 -0.068778 0.210624 31 161 135
0.368915 -0.454820 -0.298358 68 1 84
0.493005 -0.137713 -0.101331 70 48 125
0.216487 -0.380908 -0.276624 68 1 84
-0.412009 -0.360985 -0.215199 68 1 84
-0.173872 0.032472 -0.224702 68 57 130
-0.229598 0.346134 -0.155684 71 17 99
-0.232478 -0.167553 -0.181232 71 40 120
0.548550 -0.276827 0.001062 65 65 134
-0.296391 0.435710 -0.070272 68 1 84
0.590059 0.128038 0.491886 31 162 134
-0.063183 0.196386 -0.299067 65 66 134
0.595603 0.105545 0.498693 42 176 126
-0.646088 -0.342853 0.190845 55 88 140
0.296076 -0.239784 -0.201098 68 1 84
0.527838 0.146184 0.068578 49 100 141
0.566413 0.164915 0.206009 52 94 141
0.637728 -0.399400 0.207505 62 72 136
0.539004 -0.013759 -0.025195 67 60 132
-0.285680 0.147040 -0.186147 56 87 140
0.369289 0.459449 0.114412 64 68 135
-0.651049 -0.062200 0.335198 114 207 85
0.478695 0.059814 -0.079896 66 64 133
-0.527071 -0.257014 -0.024698 71 39 119
0.179017 -0.082033 -0.233093 51 96 141
-0.643674 -0.323788 0.180015 46 109 142
-0.595018 -0.295907 0.055818 57 85 139
0.438747 -0.178749 -0.119243 69 53 128
-0.157380 0.030794 -0.285672 56 87 140
0.128499 -0.303934 -0.217527 68 1 84
0.311602 0.075895 -0.200862 60 78 138
-0.253620 0.099839 -0.203178 67 58 131
-0.164460 -0.314763 -0.222573 68 1 84
0.665741 -0.566443 0.293644 54 91 140
0.588875 -0.239523 0.049970 59 80 138
-0.457682 0.398320 0.173099 71 20 102
-0.459694 -0.274728 -0.080325 71 15 98
-0.440417 0.414574 0.297241 66 62 133
-0.097216 -0.138829 -0.307925 71 22 105
-0.341336 -0.477458 -0.310324 68 1 84
0.357682 0.410594 -0.000537 70 11 94
-0.706285 -0.564700 0.390826 33 166 133
0.170430 -0.413271 -0.342298 68 1 84
-0.600226 0.124279 0.425258 33 166 133
0.549522 0.223681 0.475588 30 154 137
-0.460563 0.062640 -0.114832 69 54 129
-0.510246 -0.230909 -0.047050 71 40 120
-0.559996 -0.269232 0.008827 61 75 137
-0.164354 0.535233 -0.138221 68 1 84
0.625920 -0.156811 0.159847 50 98 141
-0.344312 0.421247 -0.026241 68 1 84
0.240641 -0.393149 -0.289395 68 1 84
0.596498 -0.073748 0.084146 59 80 138
0.509762 0.201490 0.073171 46 107 142
0.427155 0.098821 -0.123439 71 44 123
0.597358 0.027335 0.182849 47 105 141
-0.671828 -0.515125 0.262081 30 152 138
-0.540717 0.205256 0.524344 68 190 112
-0.657378 -0.276645 0.232036 32 145 140
0.309050 0.019964 -0.205592 61 75 137
0.468689 -0.491105 -0.193990 68 1 84
0.205535 0.344214 -0.170967 66 62 133
-0.550080 0.229079 0.184751 57 84 139
-0.364321 0.490156 0.117547 68 1 84
0.605200 0.070185 0.264091 40 122 142
-0.598809 -0.180027 0.045040 54 91 140
0.672394 -0.516452 0.324472 60 78 138
0.664413 -0.442122 0.319778 52 95 141
0.066085 0.622358 -0.104074 68 1 84
0.072128 -0.092011 -0.339334 50 98 141
-0.538058 -0.149089 -0.052693 57 84 139
-0.478470 0.365398 0.171525 71 18 101
0.234732 0.056928 -0.224484 50 98 141
-0.501542 0.091499 -0.046814 62 73 137
-0.174722 0.613524 -0.004980 68 1 84
-0.474220 -0.006049 -0.118696 71 15 98
-0.662679 -0.246457 0.432731 107 205 89
0.381148 -0.266671 -0.143307 69 6 90
-0.226217 0.447570 -0.124778 68 1 84
0.279036 0.187659 -0.193947 67 60 132
-0.228033 0.580977 0.034088 68 1 84
0.495732 0.188431 0.030782 60 78 138
-0.110744 0.401173 -0.204243 72 28 110
0.674724 -0.523498 0.332235 53 92 140
0.330199 0.496965 0.118595 72 34 115
-0.077531 -0.403143 -0.351860 68 1 84
-0.660689 -0.160567 0.432156 61 187 116
0.488228 0.302773 0.135877 48 104 141
-0.396697 0.036125 -0.168813 71 40 120
-0.396577 -0.499628 -0.282324 68 1 84
0.160783 0.427757 -0.168028 68 1 84
-0.140740 0.610776 -0.091865 68 1 84
0.662024 -0.334225 0.457900 64 189 114
-0.329577 0.135002 -0.175133 55 89 140
0.117836 -0.221718 -0.216024 71 40 120
0.479592 0.211132 0.017301 55 89 140
-0.338388 0.352261 -0.084212 70 12 95
-0.600655 0.119120 0.439824 33 166 133
-0.035624 0.614610 -0.133424 68 1 84
-0.038326 0.380413 -0.241924 55 88 140
-0.458277 0.379041 0.124984 71 20 102
-0.327522 0.355090 -0.093145 68 1 84
-0.413216 -0.276412 -0.124784 68 1 84
0.139403 0.618445 -0.015065 68 1 84
0.466967 0.263944 0.040203 61 74 137
0.131278 -0.010127 -0.282230 30 160 135
-0.322603 0.113021 -0.184769 62 72 136
0.056824 0.484610 -0.187104 68 1 84
0.127485 -0.064124 -0.273821 31 146 140
-0.600826 -0.047912 0.094431 45 111 142
0.511508 0.297519 0.247135 50 99 141
0.514597 -0.258721 -0.036609 72 28 110
-0.221607 0.584114 0.001071 68 1 84
-0.446767 0.416698 0.253777 72 30 112
0.522617 -0.130093 -0.072455 67 59 131
0.598095 -0.117975 0.064433 58 83 139
0.404295 -0.455966 -0.278834 68 1 84
-0.137474 -0.125963 -0.264336 67 60 132
-0.078899 -0.229074 -0.297653 71 18 101
0.048468 0.199183 -0.302984 31 150 139
-0.474761 -0.356174 -0.143226 68 1 84
0.187244 0.590697 -0.029697 68 1 84
0.283505 0.159289 -0.197828 65 65 134
-0.418747 0.441664 0.276904 72 33 114
0.597615 -0.326408 0.081382 51 97 141
0.504245 -0.082227 -0.093338 65 66 134
0.450732 0.374777 0.162016 64 67 135
-0.569349 0.207343 0.382125 31 146 140
-0.024525 0.022327 -0.470662 72 33 114
-0.286859 0.545218 0.101408 68 1 84
0.216015 0.560613 -0.047096 68 1 84
0.569570 0.066442 0.118392 53 92 140
-0.560294 0.224871 0.381687 37 130 142
0.149020 -0.091307 -0.248110 47 105 141
-0.644823 -0.165900 0.214708 33 166 133
-0.332234 0.378918 -0.073452 68 1 84
0.644573 -0.086323 0.472567 36 133 141
-0.202123 -0.308237 -0.211425 68 1 84
0.010993 0.378797 -0.244179 58 82 139
0.628155 -0.531791 0.165909 71 40 120
-0.564407 0.152281 0.150834 54 91 140
0.606694 0.076948 0.480560 30 158 136
-0.589274 0.128697 0.486632 62 188 115
-0.620091 -0.181309 0.102082 40 123 142
-0.452909 0.397990 0.308670 62 72 136
-0.164216 0.396724 -0.183510 72 33 114
-0.510885 0.321290 0.207196 63 71 136
0.548880 0.051154 0.039050 63 69 135
-0.261607 0.225798 -0.184402 68 57 130
-0.330973 0.519287 0.158433 68 1 84
0.025136 0.119057 -0.347588 36 133 141
0.543721 -0.291375 -0.001366 67 59 131
0.600335 0.108735 0.406906 41 120 142
0.646125 -0.234580 0.300377 30 155 137
-0.047055 0.147571 -0.308848 31 146 140
0.095275 -0.288160 -0.234651 68 1 84
-0.418290 -0.346998 -0.199117 68 1 84
-0.232836 -0.319072 -0.224073 68 1 84
-0.086840 0.094935 -0.394120 51 96 141
0.568572 0.156288 0.203459 52 95 141
0.156290 -0.199703 -0.201092 63 69 135
-0.076334 0.041987 -0.444878 69 50 127
-0.308863 -0.287476 -0.192846 68 1 84
0.649009 -0.136231 0.492491 30 158 136
-0.458075 0.134258 -0.083685 67 59 131
0.240063 0.437922 -0.110993 68 1 84
-0.337755 0.416746 -0.039037 68 1 84
0.480269 0.155342 -0.023967 62 72 136
0.586103 -0.155882 0.032172 58 82 139
-0.378997 -0.051363 -0.173491 72 33 114
0.635809 -0.317277 0.193360 40 122 142
0.583005 0.140344 0.248800 44 113 142
-0.000348 -0.148163 -0.364255 71 24 106
0.454621 -0.280420 -0.079207 67 59 131
-0.393525 -0.280889 -0.150794 68 1 84
0.497469 0.323176 0.287677 57 85 139
-0.136855 0.276256 -0.241117 65 65 134
-0.190552 -0.238665 -0.187973 69 6 90
0.480960 -0.088837 -0.116689 70 48 125
0.637475 -0.438005 0.225293 54 91 140
-0.146866 0.275799 -0.236419 65 65 134
-0.188062 -0.238959 -0.187762 71 17 99
-0.651478 -0.416428 0.222610 32 144 140
-0.024181 -0.279586 -0.322118 68 1 84
0.508487 0.197961 0.067459 48 104 141
0.076209 0.048280 -0.425912 62 72 136
-0.499578 -0.291900 -0.048136 71 42 121
0.190469 -0.070646 -0.231004 50 99 141
-0.193949 -0.036917 -0.232427 62 73 137
-0.360275 0.495232 0.125051 68 1 84
-0.368966 -0.158532 -0.146714 71 37 117
0.434522 0.223087 -0.045681 61 74 137
0.000634 -0.366557 -0.344653 68 1 84
0.450648 -0.210968 -0.098470 71 39 119
0.379266 -0.046427 -0.176933 69 54 129
-0.009296 0.064255 -0.470417 70 47 124
0.558540 -0.509762 0.008573 68 1 84
0.587997 -0.027351 0.099347 48 104 141
0.283424 0.448756 -0.061419 68 1 84
0.554640 0.224731 0.301369 35 135 141
-0.188658 -0.230226 -0.190158 68 2 85
0.174777 0.592713 -0.051101 68 1 84
-0.032388 0.635143 -0.091721 68 1 84
0.472088 0.323172 0.122284 53 93 140
-0.647854 -0.401045 0.212113 38 129 142
0.360168 0.299978 -0.091615 68 1 84
0.642927 -0.272951 0.243213 40 122 142
-0.078032 -0.399551 -0.351202 68 1 84
-0.228705 0.581868 0.070666 68 1 84
-0.046426 -0.388025 -0.352398 68 1 84
0.358768 0.478557 0.219199 50 99 141
0.330976 -0.030956 -0.195971 66 62 133
-0.384207 0.416369 0.024398 71 20 102
0.629882 0.006527 0.337920 39 126 142
-0.019102 0.379146 -0.245207 60 77 138
-0.577885 -0.011563 0.036475 50 99 141
-0.531239 0.256883 0.151999 69 50 127
-0.187434 -0.275818 -0.186827 68 1 84
-0.074191 0.099111 -0.403878 46 107 142
0.120707 -0.097580 -0.271648 39 126 142
0.518682 0.291359 0.310152 40 122 142
-0.689019 -0.468819 0.393443 31 149 139
0.655619 -0.287912 0.461111 50 181 122
0.584870 -0.007283 0.108032 52 94 141
0.618680 -0.128709 0.140215 48 104 141
-0.263255 -0.068818 -0.203034 67 60 132
-0.167609 -0.247964 -0.189639 68 1 84
-0.605717 -0.041220 0.122574 35 137 141
0.113203 0.593802 -0.119491 68 1 84
0.142942 -0.091356 -0.253078 45 111 142
-0.620769 0.062901 0.452155 64 189 114
0.621204 -0.082476 0.189686 57 85 139
-0.645131 -0.292031 0.182069 37 130 142
-0.381841 -0.341611 -0.241846 68 1 84
0.658570 -0.533107 0.271257 62 73 137
0.629241 -0.005188 0.473778 30 155 137
0.502372 -0.246435 -0.051494 72 28 110
-0.444006 0.229378 -0.037018 70 49 126
-0.621321 0.061093 0.314024 66 190 113
0.616296 0.061588 0.401023 36 132 141
-0.450701 0.360044 0.078369 71 17 99
0.683353 -0.529434 0.374015 34 138 141
-0.002572 0.223364 -0.306906 54 91 140
-0.658482 -0.358602 0.238019 35 136 141
0.323430 -0.083971 -0.188302 66 61 132
0.204413 0.036906 -0.230750 47 106 141
-0.679288 -0.442779 0.344850 42 117 142
0.089641 0.515062 -0.174144 68 1 84
-0.033858 0.125145 -0.329306 37 131 141
0.491561 0.308798 0.159422 47 106 141
0.093021 0.089041 -0.330758 49 101 141
0.651184 -0.298796 0.324708 35 135 141
0.624432 -0.387048 0.165218 53 92 140
0.639822 -0.059766 0.432442 42 119 142
0.642587 -0.444640 0.237378 50 98 141
-0.508181 0.315210 0.368374 55 88 140
0.552493 0.206410 0.213532 48 104 141
0.626649 -0.456169 0.186319 60 77 138
0.614211 -0.303538 0.116676 59 81 138
0.067060 0.436443 -0.192745 72 32 113
0.057407 -0.029013 -0.413650 55 89 140
-0.627165 0.053462 0.395709 79 195 105
0.429185 0.133768 -0.106370 71 43 122
-0.218849 -0.126670 -0.200935 70 49 126
-0.027937 0.498534 -0.191631 68 1 84
0.007915 0.622098 -0.122081 68 1 84
0.080814 0.092196 -0.310114 46 107 142
0.579567 0.167441 0.328007 37 130 142
-0.056948 0.291199 -0.262929 52 95 141
0.388893 0.284948 -0.065476 65 65 134
-0.486211 0.167952 -0.019744 68 55 129
-0.343182 -0.162686 -0.154683 71 20 102
-0.047058 0.422226 -0.195547 71 38 118
-0.580448 -0.247041 0.028724 57 84 139
-0.481757 0.325641 0.445452 31 147 139
0.394620 0.400062 0.055612 71 39 119
0.241844 0.202167 -0.211106 47 106 141
0.294818 0.403117 -0.089881 68 1 84
-0.661262 -0.203935 0.432769 57 185 118
-0.711401 -0.517549 0.340746 30 151 138
-0.425220 -0.383643 -0.213336 68 1 84
0.249839 0.111287 -0.215593 48 104 141
-0.045277 -0.394002 -0.354098 68 1 84
0.183961 -0.444800 -0.355222 68 1 84
0.395161 0.446691 0.191834 72 33 114
-0.554344 -0.499762 -0.047388 68 1 84
-0.012898 -0.411355 -0.358490 68 1 84
0.657079 -0.310281 0.380668 31 150 139
-0.323598 0.193221 -0.156906 53 92 140
0.005310 -0.017547 -0.450291 71 20 102
0.660409 -0.334690 0.401045 32 145 140
0.042565 0.246302 -0.310707 43 116 142
0.642501 -0.052023 0.469479 44 112 142
-0.378117 0.441380 0.046168 68 1 84
-0.635626 -0.287302 0.149163 45 110 142
0.119832 -0.348771 -0.273543 68 1 84
0.562220 0.049151 0.079877 56 86 139
0.595943 -0.014740 0.146904 43 115 142
-0.047216 0.203317 -0.303120 63 71 136
-0.581136 0.145364 0.491172 105 204 91
-0.489436 0.339757 0.151265 72 35 116
0.014500 0.425385 -0.195533 63 69 135
0.512756 0.108111 0.001036 61 76 137
0.137296 0.026192 -0.307477 63 69 135
-0.390987 0.174193 -0.125092 69 52 127
0.560205 0.088756 0.108290 48 103 141
-0.141425 0.112538 -0.257639 42 119 142
-0.707799 -0.532590 0.374412 30 152 138
0.642915 -0.065710 0.463515 40 122 142
0.060339 0.123363 -0.306301 44 113 142
0.639954 -0.175637 0.228222 33 140 141
0.038903 -0.100428 -0.371825 63 71 136
0.612804 -0.296585 0.111406 55 89 140
-0.070773 0.078469 -0.435900 58 82 139
0.328610 0.287189 -0.128524 71 37 117
0.196898 0.420376 -0.151318 72 25 107
-0.604896 -0.028559 0.134751 34 137 141
-0.463417 -0.292627 -0.082374 72 30 112
0.190882 -0.075430 -0.230252 52 95 141
-0.618808 0.041424 0.268316 31 162 134
-0.563048 -0.372460 0.000454 52 94 141
-0.465676 0.211050 -0.020946 65 65 134
-0.461632 0.011845 -0.126465 71 20 102
0.515354 0.129290 0.023963 58 82 139
-0.540783 0.201093 0.123708 66 64 133
0.653209 -0.255243 0.371119 44 114 142
-0.601704 0.122591 0.413490 33 140 141
-0.414009 0.449956 0.157580 71 18 101
0.225243 0.563991 -0.008469 68 1 84
0.588008 -0.063364 0.061764 61 76 137
-0.188440 0.501134 -0.132530 68 1 84
-0.602873 -0.015328 0.138507 31 147 139
0.118014 -0.093303 -0.276070 36 133 141
-0.355003 -0.117440 -0.164212 68 57 130
-0.492971 0.317723 0.422539 38 128 142
0.233505 0.565302 0.080669 72 25 107
0.527182 0.227010 0.145917 49 102 141
0.266004 0.190836 -0.200422 55 89 140
-0.398800 0.407764 0.039430 71 15 98
0.603132 -0.148217 0.075038 49 101 141
-0.661287 -0.195018 0.432281 81 196 104
0.020308 -0.018355 -0.445587 71 22 105
-0.636041 -0.425470 0.187405 44 112 142
0.238411 -0.103615 -0.204752 69 52 127
0.416398 0.040077 -0.149343 65 66 134
-0.371577 -0.270758 -0.170132 69 6 90
0.656123 -0.176310 0.461788 44 112 142
-0.374887 -0.168647 -0.142016 71 42 121
-0.317696 0.222479 -0.149882 69 54 129
-0.458962 0.220773 -0.023405 67 60 132
-0.522768 0.258013 0.471317 85 198 102
0.536061 -0.199743 -0.037205 65 66 134
-0.630273 -0.056818 0.231037 41 121 142
-0.073614 -0.011514 -0.421834 72 32 113
0.146185 -0.418525 -0.349945 68 1 84
0.511185 0.164265 0.044025 55 88 140
-0.543585 0.266698 0.250137 49 102 141
0.437127 0.393477 0.329208 42 118 142
-0.482746 0.245092 0.031726 71 40 120
-0.236243 0.570558 -0.007381 68 1 84
-0.693684 -0.553002 0.300586 44 112 142
0.509806 0.002622 -0.064159 63 69 135
0.025657 -0.378851 -0.348516 68 1 84
0.640692 -0.195674 0.219860 39 125 142
0.366312 0.247599 -0.110766 70 45 124
-0.515802 -0.490842 -0.139759 68 1 84
-0.515933 0.279734 0.439373 31 163 134
0.609821 0.083243 0.382967 34 137 141
0.512769 -0.495655 -0.096636 68 1 84
-0.154314 0.288378 -0.211143 64 67 135
0.415278 -0.264779 -0.110259 71 24 106
-0.445961 0.207450 -0.049993 66 61 132
0.549251 0.235962 0.322097 39 124 142
-0.373152 0.038952 -0.180775 67 58 131
0.196701 0.132211 -0.224433 44 112 142
-0.553629 -0.153993 -0.034026 67 58 131
0.414765 0.420839 0.155699 64 67 135
-0.538365 0.003462 -0.038764 71 44 123
0.270487 0.461652 -0.065316 68 1 84
0.364851 0.048844 -0.179860 64 67 135
-0.545827 -0.402475 -0.055941 71 17 99
0.622177 0.034395 0.451933 34 139 141
0.617803 -0.220700 0.115451 49 101 141
0.526644 0.258731 0.472226 33 142 140
0.547425 0.231166 0.248204 71 40 120
0.632173 -0.012604 0.312925 42 119 142
-0.388718 0.053556 -0.170911 71 44 123
0.274449 -0.169472 -0.183199 72 30 112
-0.153604 0.268366 -0.239168 65 65 134
-0.512326 0.274088 0.472009 87 198 101
0.531853 0.138002 0.071384 49 101 141
-0.289558 0.435186 -0.077683 68 1 84
-0.250252 0.464760 -0.096585 68 1 84
-0.626136 -0.170471 0.125960 41 121 142
0.255571 0.504445 -0.047462 68 1 84
0.464335 -0.151283 -0.118768 70 48 125
0.552409 -0.233394 -0.005912 71 43 122
-0.537303 -0.458779 -0.089560 70 12 95
-0.654266 -0.317332 0.214217 32 143 140
-0.567948 -0.361120 0.012856 46 107 142
0.609189 -0.019065 0.191404 40 122 142
-0.622141 -0.502533 0.153165 64 68 135
0.180452 -0.150745 -0.208600 69 53 128
-0.524717 0.229342 0.106693 71 43 122
0.554566 0.137786 0.131224 47 106 141
-0.528976 0.283943 0.199566 62 73 137
-0.218772 -0.333282 -0.226821 68 1 84
0.365084 0.224475 -0.123208 72 34 115
0.203137 0.579555 -0.026580 68 1 84
-0.190846 0.439161 -0.151787 68 1 84
0.628106 -0.205454 0.153860 46 108 142
-0.664729 -0.319671 0.318979 69 191 111
-0.512533 0.064906 -0.046446 71 43 122
-0.582439 -0.444334 0.032406 59 81 138
0.103060 0.525845 -0.165925 68 1 84
0.608558 -0.071420 0.142744 47 105 141
0.553499 0.222742 0.394993 42 118 142
-0.696484 -0.500604 0.411548 32 164 133
0.435219 -0.428445 -0.243173 68 1 84
0.336678 0.288698 -0.120361 72 35 116
0.451956 -0.386761 -0.190687 68 1 84
-0.233368 0.176608 -0.200567 59 80 138
0.116328 -0.397261 -0.338525 68 1 84
-0.054774 -0.359448 -0.337797 68 1 84
-0.300101 0.418387 -0.077941 68 1 84
-0.652420 -0.310250 0.207439 34 138 141
-0.375523 0.485157 0.232455 69 5 88
-0.164304 -0.301891 -0.212791 68 1 84
-0.554310 0.244269 0.251264 45 110 142
0.041130 0.226342 -0.309481 44 114 142
-0.295742 -0.241562 -0.195290 68 1 84
-0.633895 -0.000829 0.294294 32 143 140
-0.679621 -0.387627 0.372322 87 198 101
-0.516374 0.195435 0.058727 66 62 133
-0.353521 0.127029 -0.167333 65 66 134
-0.593477 -0.269608 0.052118 49 101 141
0.574854 0.001266 0.073816 54 90 140
0.134163 0.190285 -0.255322 36 134 141
0.211887 0.395449 -0.154265 68 1 84
0.138629 -0.371986 -0.298290 68 1 84
0.009931 0.417703 -0.198520 71 40 120
0.506399 0.122699 -0.000629 66 64 133
0.592278 0.119398 0.268253 46 107 142
-0.527645 -0.405163 -0.111492 68 1 84
0.356529 0.183832 -0.148792 71 43 122
-0.666516 -0.456623 0.262125 30 155 137
-0.574619 -0.156948 -0.003216 65 66 134
0.365935 -0.164335 -0.154643 69 52 127
0.100866 -0.294663 -0.232187 68 1 84
0.533239 -0.228097 -0.029645 71 38 118
-0.107901 0.636712 -0.046072 68 1 84
0.198198 -0.032275 -0.234365 57 84 139
-0.307577 -0.128897 -0.171478 64 68 135
-0.507486 0.267928 0.101827 70 48 125
-0.093357 0.638790 -0.055503 68 1 84
0.587450 0.080489 0.186725 44 112 142
0.620768 -0.318589 0.138721 57 85 139
0.557903 -0.118054 -0.021947 54 90 140
0.634018 -0.009778 0.336557 36 134 141
0.552906 0.206670 0.216001 48 103 141
-0.601110 -0.183087 0.050341 48 103 141
-0.543118 0.233420 0.162033 67 59 131
-0.036006 -0.396874 -0.355321 68 1 84
-0.349049 0.449242 0.008355 68 2 85
0.334909 0.009414 -0.196255 67 58 131
-0.367204 -0.323772 -0.238067 68 1 84
-0.673701 -0.437341 0.302667 40 174 127
-0.591338 0.154872 0.302374 30 156 137
-0.585475 -0.021783 0.053050 69 50 127
0.580329 0.160457 0.440694 37 130 142
0.064941 0.100972 -0.308582 49 102 141
0.365556 -0.132077 -0.166333 66 64 133
0.133296 0.115835 -0.278806 41 121 142
-0.324885 0.514424 0.082986 68 1 84
0.533148 -0.198099 -0.041130 65 65 134
-0.149540 -0.022513 -0.258230 69 53 128
-0.603830 0.096638 0.259269 30 160 135
0.607628 -0.543809 0.121366 72 25 107
0.644408 -0.067431 0.468802 40 123 142
-0.529962 0.125508 0.031585 70 45 124
-0.656986 -0.228319 0.252372 38 172 129
0.008478 0.120913 -0.408785 37 131 141
0.125407 0.010879 -0.315552 46 108 142
-0.288545 0.022898 -0.208044 67 58 131
0.052948 0.470757 -0.187904 68 1 84
-0.590562 -0.130856 0.022879 61 76 137
0.591613 -0.011981 0.131074 43 115 142
0.623757 -0.424135 0.177139 53 92 140
0.328325 0.502896 0.171679 63 71 136
-0.194084 0.125557 -0.210297 70 45 124
-0.511426 -0.338349 -0.071572 72 35 116
0.162872 0.596731 -0.061542 68 1 84
-0.013150 0.393328 -0.221806 72 32 113
0.174135 0.600949 -0.012647 68 1 84
0.459539 0.357749 0.394254 32 143 140
0.049989 0.339967 -0.254119 70 48 125
0.547501 -0.228570 -0.013262 72 32 113
-0.606643 0.016337 0.194672 41 120 142
0.191084 0.011722 -0.236122 45 111 142
-0.426678 0.096063 -0.133196 69 53 128
0.521693 0.193887 0.094672 46 109 142
-0.375426 0.485091 0.144898 68 1 84
0.575730 0.173654 0.292363 57 85 139
-0.204243 0.553505 -0.090626 68 1 84
0.523391 0.275613 0.391596 42 118 142
0.616313 0.062143 0.351119 38 128 142
-0.200411 0.420162 -0.152931 68 1 84
-0.604460 -0.143577 0.057323 38 128 142
-0.306702 -0.195994 -0.176387 69 6 90
0.234195 -0.168522 -0.189479 71 18 101
-0.564187 0.202764 0.207594 60 78 138
-0.577494 0.011854 0.055577 42 117 142
-0.550327 0.213146 0.163439 61 74 137
0.182195 -0.364482 -0.263773 68 1 84
-0.268388 0.457529 -0.083215 68 1 84
-0.090597 0.132281 -0.285237 42 117 142
-0.099767 -0.145837 -0.302063 71 22 105
0.109116 -0.370098 -0.312398 68 1 84
0.313428 0.480814 0.022912 70 9 92
-0.387956 -0.374430 -0.240657 68 1 84
-0.434327 -0.130477 -0.133425 71 40 120
-0.057901 0.016265 -0.455174 72 25 107
0.615629 -0.489429 0.144299 72 35 116
0.157126 0.059306 -0.250354 38 129 142
-0.255063 0.420141 -0.115011 68 1 84
0.357558 0.227509 -0.128050 72 30 112
0.278892 0.459196 -0.057392 68 1 84
-0.341463 0.143304 -0.167033 58 83 139
-0.068965 0.328846 -0.251853 54 90 140
-0.623870 0.046733 0.466508 109 206 88
0.645997 -0.068124 0.378935 54 90 140
0.678461 -0.479316 0.375710 39 125 142
-0.669540 -0.309918 0.466104 248 230 33
0.024367 0.368204 -0.253044 64 67 135
0.169941 0.245710 -0.242808 52 94 141
0.266692 0.443871 -0.083419 68 1 84
-0.663231 -0.233991 0.314259 75 194 108
-0.664165 -0.349371 0.336953 112 206 86
-0.562086 -0.391735 -0.008377 59 81 138
-0.636138 0.004896 0.450718 103 204 92
0.130701 -0.184131 -0.225002 65 66 134
0.199867 0.577972 -0.041565 68 1 84
0.583131 -0.473679 0.067098 71 17 99
0.589699 -0.153155 0.040130 53 92 140
0.445625 -0.362315 -0.166491 68 1 84
0.087184 -0.146492 -0.287880 52 94 141
0.575812 0.106459 0.168987 47 105 141
-0.253457 0.372961 -0.135568 68 1 84
-0.601557 -0.317430 0.068091 42 119 142
0.660227 -0.481462 0.287779 61 74 137
0.455032 0.367830 0.364292 42 118 142
-0.618398 0.054931 0.488602 144 214 67
-0.560682 -0.356793 0.001857 51 96 141
-0.272583 0.410124 -0.107327 68 1 84
0.361242 0.040703 -0.182589 70 47 124
-0.214385 0.292929 -0.168359 71 21 103
0.110798 0.319876 -0.217597 71 44 123
0.089376 0.462731 -0.180933 68 3 87
0.009833 0.377292 -0.245699 57 85 139
0.570761 0.190241 0.351186 38 127 142
0.007316 -0.222520 -0.327912 68 1 84
0.648204 -0.139485 0.333038 30 157 136
-0.065845 0.603145 -0.144233 68 1 84
0.611817 0.063540 0.474059 31 162 134
0.501356 -0.389154 -0.106046 68 1 84
0.145209 0.043312 -0.306631 55 89 140
0.237228 -0.454398 -0.351751 68 1 84
0.510366 0.271114 0.155298 57 84 139
0.291380 0.282154 -0.162781 63 69 135
0.564829 -0.400681 0.027531 72 32 113
