ply
format ascii 1.0
element vertex 1266
property float x
property float y
property float z
property uchar red
property uchar green
property uchar blue
end_header
0.526688 0.182677 0.091651 34 139 141
-0.277645 -0.558015 -0.232972 68 1 84
-0.232307 0.073659 -0.225157 68 1 84
0.659051 -0.181355 0.253474 53 92 140
-0.616832 -0.124327 0.275500 68 1 84
-0.197279 0.579571 -0.138594 30 151 138
0.479367 -0.063006 -0.082237 57 84 139
0.725176 -0.394562 0.438428 58 82 139
-0.120113 0.557724 -0.217371 68 2 85
0.290841 0.419953 -0.089413 57 185 118
0.540051 0.098948 0.072175 50 98 141
0.582136 -0.433633 0.097028 57 85 139
0.147710 -0.208380 -0.201697 70 12 95
-0.629302 -0.293426 0.313399 68 1 84
-0.614584 -0.057031 0.312018 68 1 84
0.584135 0.111176 0.194517 63 71 136
-0.390060 0.524278 0.191193 69 52 127
-0.353778 0.343773 -0.074381 68 1 84
0.058499 -0.185169 -0.344322 68 1 84
-0.230373 -0.470375 -0.195148 68 1 84
0.635348 -0.293593 0.202701 54 90 140
-0.271205 0.579901 0.028118 38 129 142
-0.593368 -0.327420 0.192848 70 11 94
-0.072720 0.089072 -0.311357 68 1 84
0.016904 -0.338093 -0.302353 68 1 84
-0.317481 0.182143 -0.180256 68 1 84
0.630170 0.014331 0.302461 64 67 135
0.115071 -0.086695 -0.268122 68 1 84
0.118921 -0.041641 -0.325268 68 1 84
-0.554152 0.241702 0.197500 68 1 84
0.246859 -0.491730 -0.258038 68 1 84
-0.421654 0.218646 -0.073255 68 1 84
-0.110650 0.065347 -0.277118 68 1 84
0.511955 -0.484037 -0.077905 72 25 107
0.458782 0.220041 -0.019994 37 131 141
0.677710 -0.130112 0.338506 63 69 135
-0.592361 0.190242 0.467803 68 1 84
-0.632858 -0.425918 0.438275 68 1 84
0.347008 -0.187027 -0.143308 44 113 142
-0.346703 0.474656 0.000134 71 24 106
0.688448 -0.251270 0.367265 48 104 141
-0.210569 -0.304407 -0.147787 68 1 84
-0.217046 -0.259986 -0.147921 68 3 87
-0.274954 -0.252749 -0.138899 71 21 103
-0.617670 -0.030922 0.518963 68 1 84
-0.527779 0.022364 0.029533 68 1 84
0.450226 0.263729 -0.009599 39 126 142
0.561555 0.314849 0.459241 65 65 134
0.182823 0.431432 -0.163852 31 148 139
-0.270420 0.555282 -0.042849 51 97 141
-0.092120 0.260406 -0.308673 68 1 84
-0.563121 -0.004182 0.114931 68 1 84
-0.146931 -0.443130 -0.190952 68 1 84
0.432243 0.034413 -0.117177 57 84 139
-0.050113 -0.085103 -0.422490 68 1 84
0.546725 0.355234 0.333788 68 57 130
0.224744 -0.159429 -0.185093 62 73 137
-0.603562 0.136430 0.466825 68 1 84
-0.476192 0.440708 0.341289 68 1 84
-0.128294 0.561227 -0.211463 70 12 95
0.025642 0.011013 -0.340748 68 1 84
-0.512844 0.281604 0.109992 68 1 84
0.618921 0.132465 0.420412 72 33 114
-0.586586 0.229491 0.360314 68 1 84
-0.587535 -0.286599 0.158834 71 24 106
0.684934 -0.219376 0.327878 55 89 140
0.650772 -0.031207 0.386748 69 54 129
0.016515 -0.276963 -0.340653 68 1 84
-0.154014 -0.212100 -0.195223 68 1 84
0.541078 0.096882 0.073338 50 98 141
-0.164203 0.530351 -0.199722 55 89 140
-0.605865 -0.006314 0.580666 68 1 84
-0.436836 -0.039427 -0.110057 71 20 102
0.095900 0.101501 -0.285636 68 1 84
-0.525839 0.360743 0.443840 68 1 84
0.213794 0.171230 -0.248258 59 81 138
-0.623334 -0.013265 0.456897 68 1 84
-0.447749 -0.220501 -0.077664 69 50 127
-0.446974 0.397103 0.081445 68 1 84
-0.041305 -0.416126 -0.266801 68 1 84
0.570389 -0.119451 0.035433 51 96 141
-0.380753 -0.419140 -0.122178 68 1 84
0.241124 0.588514 0.017609 149 215 63
0.432999 -0.151147 -0.116524 49 100 141
0.079139 -0.431771 -0.264127 68 1 84
0.624525 -0.139659 0.154900 62 72 136
0.107294 0.556072 -0.184288 64 189 114
0.444592 -0.465278 -0.170319 68 1 84
0.588183 0.030473 0.151163 52 94 141
-0.627645 -0.255844 0.294064 68 1 84
-0.476608 -0.012935 -0.064379 69 5 88
0.107964 0.264447 -0.272281 66 64 133
0.086733 -0.007363 -0.352442 68 1 84
0.669412 -0.131149 0.404194 61 76 137
-0.637003 -0.406148 0.456352 68 1 84
0.303006 -0.400753 -0.220455 68 1 84
0.560571 0.325242 0.399850 66 61 132
0.127236 0.312788 -0.269415 46 109 142
0.481522 -0.313462 -0.030066 48 103 141
0.210755 0.284377 -0.219320 42 118 142
-0.440310 -0.038427 -0.106881 71 17 99
-0.219265 0.585757 -0.095518 34 167 132
-0.229025 -0.029620 -0.213248 68 1 84
-0.330339 0.301423 -0.118430 69 5 88
-0.626682 -0.061958 0.426677 68 1 84
0.436067 -0.483212 -0.182887 68 1 84
-0.271487 -0.301214 -0.147584 69 6 90
-0.500854 0.173718 0.029244 68 1 84
0.298351 0.307928 -0.154086 31 149 139
-0.088688 0.128445 -0.318683 68 1 84
0.628753 0.092273 0.409557 71 18 101
-0.337813 0.476150 -0.011596 70 48 125
-0.364075 -0.244345 -0.108318 68 2 85
-0.630706 -0.098081 0.460084 68 1 84
-0.136075 0.139214 -0.300650 68 1 84
-0.406336 -0.219244 -0.102725 72 33 114
-0.151244 0.531291 -0.208739 54 90 140
-0.321770 -0.423961 -0.155186 68 1 84
0.312165 0.557293 0.065707 75 194 108
-0.180539 -0.424523 -0.172835 68 1 84
0.475869 -0.380270 -0.079648 70 45 124
0.134051 0.216569 -0.289336 72 35 116
0.102909 -0.245466 -0.226669 68 1 84
-0.189253 -0.448619 -0.187051 68 1 84
0.634752 -0.238099 0.183561 50 98 141
0.357219 -0.348761 -0.144430 71 42 121
0.135295 0.150055 -0.285088 71 18 101
0.541239 0.367903 0.357080 69 53 128
0.051209 -0.279634 -0.306390 68 1 84
-0.211186 0.346403 -0.205527 72 33 114
0.434809 -0.255166 -0.070249 48 103 141
-0.149965 -0.348818 -0.133909 68 3 87
-0.034185 -0.411049 -0.271023 68 1 84
0.368879 0.505023 0.075737 54 184 119
0.649135 -0.321393 0.245230 45 110 142
-0.593928 0.072958 0.261783 68 1 84
0.305888 0.122431 -0.202295 45 111 142
0.204775 -0.512093 -0.279351 68 1 84
-0.341915 -0.172747 -0.142238 68 1 84
-0.025265 0.029374 -0.370773 68 1 84
-0.277996 -0.258372 -0.137990 70 12 95
0.366800 -0.427850 -0.188130 68 1 84
-0.371571 0.483145 0.043651 72 33 114
-0.536467 -0.314768 0.065748 72 30 112
0.348013 0.372304 -0.071070 34 167 132
-0.508817 -0.101003 -0.032228 68 1 84
0.156468 0.097378 -0.256129 72 28 110
0.291956 -0.011608 -0.204708 57 84 139
-0.605056 -0.047977 0.262374 68 1 84
0.430701 -0.324737 -0.078081 53 93 140
0.686010 -0.200187 0.449380 66 62 133
-0.298088 -0.519693 -0.199826 68 1 84
-0.432755 0.490315 0.228635 68 1 84
-0.531505 0.155430 0.087034 68 1 84
-0.062703 -0.347384 -0.242440 68 1 84
-0.603642 0.015531 0.572366 68 1 84
0.082171 0.245094 -0.283176 69 54 129
0.118094 -0.067506 -0.277458 68 1 84
0.411510 0.107781 -0.122710 39 124 142
0.652596 -0.336746 0.256295 46 108 142
-0.221371 0.457679 -0.162837 64 67 135
0.189963 0.388671 -0.185217 47 106 141
0.038676 -0.311447 -0.304614 68 1 84
0.657339 -0.104047 0.514487 61 75 137
0.159909 -0.116563 -0.229013 67 60 132
-0.564557 0.000808 0.122933 68 1 84
0.692584 -0.191215 0.405928 62 72 136
0.031370 0.377693 -0.255637 63 71 136
0.526351 -0.463253 -0.033582 71 39 119
0.657908 -0.107142 0.516449 60 77 138
-0.595924 -0.238131 0.167425 68 1 84
0.352389 0.055593 -0.177222 58 83 139
0.479440 -0.211723 -0.053456 56 87 140
0.449580 -0.282294 -0.052557 40 122 142
-0.568763 0.264305 0.281397 68 1 84
-0.085248 0.110222 -0.314160 68 1 84
-0.609769 0.074143 0.364704 68 1 84
-0.318631 0.447920 -0.057886 70 49 126
-0.150299 -0.252807 -0.170516 70 11 94
0.632879 0.069579 0.430019 71 24 106
0.504096 0.336026 0.141993 57 85 139
-0.311979 0.489382 -0.042198 71 43 122
0.593795 0.231473 0.386714 71 44 123
-0.054489 -0.382046 -0.255543 68 1 84
0.650397 -0.072489 0.297712 64 68 135
-0.227171 0.428570 -0.158455 68 1 84
-0.632132 -0.122091 0.482263 68 1 84
-0.475406 0.364940 0.104730 68 1 84
-0.508560 0.385434 0.235484 68 1 84
-0.508492 -0.522195 0.015765 68 1 84
-0.124040 -0.403293 -0.168836 68 1 84
0.367525 -0.522095 -0.232203 68 1 84
0.597655 0.199667 0.471966 71 39 119
-0.495563 -0.155796 -0.048764 72 33 114
0.464299 0.137810 -0.051268 45 111 142
0.343705 0.356103 -0.088191 30 151 138
-0.636768 -0.155080 0.452350 68 1 84
-0.292150 0.068174 -0.204065 68 1 84
0.002746 0.327987 -0.321298 68 1 84
0.013143 -0.360474 -0.291885 68 1 84
0.186136 0.022114 -0.228217 71 44 123
0.386202 0.001324 -0.157560 58 82 139
-0.588563 -0.131554 0.142588 68 1 84
0.113983 -0.076935 -0.274731 68 1 84
0.182049 0.165784 -0.265528 71 40 120
-0.597714 -0.431996 0.267864 68 1 84
0.695765 -0.329620 0.384242 56 86 139
0.009767 0.471054 -0.246973 47 106 141
-0.046698 0.570338 -0.230943 44 112 142
-0.332311 0.502471 0.005416 70 45 124
-0.129740 0.013462 -0.274620 68 1 84
-0.540516 0.175297 0.117177 68 1 84
0.298264 0.594354 0.149713 34 167 132
-0.352350 -0.315604 -0.122425 70 11 94
-0.585752 0.197397 0.287875 68 1 84
-0.231452 -0.052575 -0.210850 68 1 84
-0.130379 -0.479166 -0.240242 68 1 84
-0.644131 -0.295442 0.394896 68 1 84
-0.111173 -0.453327 -0.229518 68 1 84
0.186616 0.498588 -0.136771 61 187 116
-0.611888 -0.081736 0.275061 68 1 84
0.058508 -0.408872 -0.265442 68 1 84
-0.628786 -0.511916 0.443182 68 1 84
-0.542499 0.336238 0.296948 68 1 84
-0.168690 -0.507645 -0.248977 68 1 84
-0.635996 -0.528080 0.519154 68 1 84
0.292572 -0.300633 -0.161951 71 44 123
-0.089117 0.401162 -0.235724 40 122 142
-0.268433 -0.145782 -0.171834 71 24 106
0.186209 -0.427061 -0.199834 68 1 84
0.679291 -0.350079 0.348484 49 100 141
0.468514 0.100753 -0.059443 54 91 140
-0.036322 -0.151139 -0.382538 68 1 84
0.523845 0.383551 0.473678 69 54 129
-0.627954 -0.191479 0.552332 68 1 84
0.449848 -0.252013 -0.059721 47 106 141
-0.169348 -0.207890 -0.186021 68 1 84
0.636628 -0.037519 0.272379 54 91 140
-0.358340 -0.421674 -0.147939 68 1 84
0.705232 -0.343841 0.398903 66 62 133
-0.476190 0.086053 -0.044394 68 1 84
-0.137761 -0.246550 -0.185666 70 9 92
-0.345432 0.464244 -0.010380 72 35 116
-0.146529 -0.339257 -0.137443 69 5 88
0.244620 0.559498 -0.020747 136 213 71
0.256579 0.381377 -0.141604 35 169 130
0.647309 -0.296743 0.234868 45 110 142
0.501820 0.146770 0.014547 39 126 142
-0.510488 0.205848 0.061634 68 1 84
-0.476172 0.424559 0.191855 68 1 84
-0.318557 -0.259375 -0.126329 70 11 94
-0.236666 -0.583977 -0.254546 68 1 84
-0.028155 -0.083572 -0.431599 68 1 84
-0.248634 -0.355629 -0.143807 68 1 84
0.564737 0.012070 0.068510 41 121 142
0.255142 -0.070401 -0.204854 62 73 137
-0.091263 -0.256572 -0.233797 68 1 84
-0.131720 -0.454967 -0.211608 68 1 84
0.187988 0.589185 -0.060438 181 221 43
-0.525862 0.059603 0.038351 68 1 84
-0.212188 0.028134 -0.219080 68 1 84
0.598635 0.211500 0.370073 70 48 125
0.544787 0.310106 0.227223 66 64 133
-0.643474 -0.307618 0.421960 68 1 84
-0.491217 0.170283 0.010077 68 1 84
0.455086 -0.278777 -0.048680 43 115 142
-0.094961 -0.371366 -0.181873 68 1 84
0.507737 0.078188 -0.010274 38 128 142
-0.452081 0.262618 -0.009882 68 1 84
0.472507 -0.455105 -0.138850 70 11 94
-0.631161 -0.110295 0.447529 68 1 84
0.132956 0.466616 -0.184943 39 126 142
0.298403 -0.228206 -0.152668 66 62 133
-0.168515 0.383526 -0.213450 69 8 91
0.619270 -0.316777 0.162473 58 83 139
0.702620 -0.338283 0.395876 63 69 135
0.191222 -0.412177 -0.190662 68 1 84
-0.608752 0.096223 0.377913 68 1 84
-0.660127 -0.205082 0.407786 68 1 84
-0.600554 0.070666 0.541115 68 1 84
0.187727 0.166359 -0.262587 67 58 131
0.604553 0.184718 0.353757 71 37 117
0.696499 -0.241916 0.465128 62 73 137
-0.513320 -0.105624 -0.026165 68 1 84
-0.009858 -0.207722 -0.368033 68 1 84
-0.567250 0.289997 0.347876 68 1 84
-0.476874 0.410133 0.163380 68 1 84
0.427325 0.132971 -0.099992 36 133 141
-0.090572 0.610494 -0.181691 45 110 142
0.697718 -0.240228 0.481775 60 78 138
0.637289 -0.185590 0.187372 60 77 138
0.302782 0.425447 -0.074789 47 179 123
0.591273 0.240452 0.374936 71 40 120
0.108665 0.633641 -0.080246 210 225 27
0.561457 -0.468234 0.052503 69 52 127
0.194682 -0.142219 -0.204932 71 44 123
-0.484115 -0.028479 -0.057041 68 1 84
0.337190 -0.560479 -0.247842 68 1 84
0.240200 0.147772 -0.233834 61 76 137
-0.589432 -0.474259 0.259882 68 1 84
-0.599765 0.159309 0.351950 68 1 84
-0.075448 -0.013813 -0.327077 68 1 84
0.437737 0.379062 0.052302 33 140 141
-0.322384 0.174543 -0.178337 68 1 84
0.187178 -0.067770 -0.224354 63 71 136
0.314592 0.254456 -0.164883 35 137 141
-0.325576 0.168137 -0.177540 68 1 84
-0.567856 -0.276124 0.106314 70 12 95
-0.392729 -0.307177 -0.078532 71 24 106
-0.095692 0.614225 -0.174634 48 104 141
-0.494429 -0.137610 -0.051288 68 1 84
0.419748 -0.428837 -0.164859 68 1 84
0.106365 0.280992 -0.280247 68 57 130
0.209794 -0.363823 -0.161690 68 1 84
0.303783 0.357128 -0.123413 31 161 135
-0.075029 0.437872 -0.239892 49 102 141
0.115010 0.178407 -0.301737 68 1 84
-0.571864 0.258172 0.474110 68 1 84
-0.636884 -0.522454 0.529788 68 1 84
-0.486930 0.320422 0.087623 68 1 84
0.335589 -0.030285 -0.185735 50 99 141
0.069527 -0.367372 -0.249882 68 1 84
-0.280316 0.576243 0.040953 40 122 142
-0.384439 -0.191290 -0.123107 70 9 92
-0.213868 0.137940 -0.254321 68 1 84
-0.086877 -0.193278 -0.285158 68 1 84
-0.282349 -0.361746 -0.137910 68 1 84
0.155229 0.022081 -0.231911 70 47 124
-0.584492 0.197378 0.281513 68 1 84
0.627351 0.022262 0.295769 67 60 132
-0.549653 -0.174426 0.035269 68 1 84
-0.155759 -0.202200 -0.199731 68 1 84
-0.336944 0.472618 -0.015845 71 39 119
0.507148 0.103615 0.000790 42 119 142
0.603543 -0.387314 0.140118 46 107 142
-0.480406 0.435492 0.263513 68 1 84
0.468795 0.222695 -0.002043 31 147 139
0.601926 -0.191997 0.096353 51 96 141
0.203711 -0.079896 -0.217955 66 64 133
0.558141 0.102462 0.123262 49 101 141
0.024854 0.610390 -0.187479 32 165 133
-0.524514 0.373175 0.376734 68 1 84
0.226087 -0.352299 -0.158513 68 1 84
0.058145 0.322054 -0.309265 71 18 101
0.507346 0.018540 -0.034728 47 105 141
0.342262 0.372837 -0.076970 33 167 132
0.686469 -0.323162 0.368916 54 91 140
-0.577921 -0.393838 0.182199 68 1 84
0.554384 -0.238235 0.032440 62 72 136
0.117174 -0.218700 -0.225477 68 1 84
0.232691 0.278495 -0.211997 46 108 142
0.647448 -0.110233 0.253574 60 77 138
0.095819 -0.072706 -0.343376 68 1 84
0.518707 -0.014429 -0.028924 54 90 140
-0.124149 0.572941 -0.206509 70 48 125
0.618335 0.136243 0.404440 68 1 84
-0.506139 -0.168858 -0.034055 68 1 84
0.273150 0.575496 0.039187 124 210 79
0.091470 -0.307645 -0.207113 68 1 84
0.526629 0.394951 0.400513 72 32 113
-0.294923 -0.334780 -0.144790 71 24 106
-0.349703 -0.563122 -0.196552 68 1 84
0.570101 -0.417463 0.072618 63 71 136
0.206895 -0.363802 -0.161051 68 1 84
0.541824 0.085504 0.066582 46 107 142
0.162658 -0.202211 -0.194549 71 38 118
-0.125925 0.021339 -0.264082 68 1 84
0.317130 -0.091180 -0.182827 51 96 141
0.612234 0.121480 0.308168 71 40 120
-0.381014 0.245519 -0.106209 68 1 84
0.495351 -0.022579 -0.060680 48 103 141
0.065774 -0.253689 -0.290765 68 1 84
-0.642300 -0.227228 0.342388 68 1 84
0.013151 -0.307394 -0.322797 68 1 84
0.537392 0.370313 0.443309 67 58 131
0.207671 0.095178 -0.238786 65 66 134
-0.612972 -0.173613 0.233057 68 1 84
0.637788 -0.410514 0.240584 61 74 137
0.034362 0.586656 -0.209043 39 173 128
0.668491 -0.219107 0.281986 49 102 141
0.584336 0.113523 0.196642 63 71 136
-0.066482 0.138668 -0.325662 68 1 84
0.305322 0.515700 0.003657 100 203 93
-0.037894 0.080423 -0.314110 68 1 84
-0.612028 0.087302 0.425349 68 1 84
-0.186674 0.551371 -0.172772 47 105 141
0.427560 0.411309 0.065690 34 138 141
-0.454400 0.258582 -0.008679 68 1 84
-0.267418 0.114954 -0.218793 68 1 84
0.205435 0.582528 -0.044384 165 218 53
-0.371863 -0.394029 -0.103671 68 1 84
-0.615419 0.002628 0.510761 68 1 84
0.197975 0.343215 -0.204497 64 68 135
-0.614792 -0.170323 0.243064 68 1 84
0.382321 -0.221215 -0.114433 44 114 142
-0.539763 0.091702 0.084816 68 1 84
-0.633189 -0.546677 0.494632 68 1 84
0.060342 -0.425020 -0.269460 68 1 84
-0.190563 -0.327238 -0.142286 68 1 84
0.224040 0.295266 -0.207124 44 112 142
-0.397407 -0.487704 -0.138337 68 1 84
-0.565054 0.285888 0.442957 68 1 84
0.159004 -0.024015 -0.229246 72 35 116
0.517689 0.381577 0.240153 58 83 139
0.176919 -0.311347 -0.147230 70 48 125
0.563357 -0.079565 0.026783 52 95 141
0.551798 -0.443561 0.033401 61 74 137
0.184643 -0.430963 -0.202887 68 1 84
0.280763 0.478854 -0.055827 66 190 113
0.221882 0.309561 -0.201988 47 106 141
-0.435306 -0.124216 -0.109222 72 26 108
-0.297684 -0.040182 -0.194920 68 1 84
-0.136258 -0.102989 -0.248675 68 1 84
0.258750 -0.392212 -0.200438 68 1 84
-0.519387 0.309749 0.152859 68 1 84
-0.625473 -0.036194 0.449133 68 1 84
0.399812 0.110145 -0.133923 44 113 142
0.359443 0.466676 0.021408 85 198 102
-0.568290 -0.279087 0.108856 71 17 99
0.721273 -0.385618 0.419135 54 91 140
-0.624636 -0.424926 0.398392 68 1 84
-0.412113 -0.615917 -0.144164 68 1 84
0.662975 -0.116877 0.300287 57 84 139
0.424526 0.257952 -0.049848 55 89 140
-0.146237 -0.001538 -0.280295 68 1 84
-0.130602 -0.493161 -0.254575 68 1 84
0.110537 0.119814 -0.286029 68 1 84
-0.590883 0.215855 0.404591 68 1 84
-0.126999 -0.534009 -0.277820 68 1 84
-0.403609 0.329841 -0.031413 68 1 84
-0.610406 -0.231405 0.218489 68 1 84
0.504393 -0.400823 -0.053357 70 47 124
0.582995 0.231930 0.279322 61 76 137
-0.317506 0.072835 -0.193027 68 1 84
0.273862 -0.326731 -0.155036 68 3 87
-0.076379 0.054419 -0.297934 68 1 84
-0.315277 -0.527894 -0.197547 68 1 84
0.619246 0.125143 0.363917 71 24 106
-0.582709 -0.553435 0.246052 68 1 84
-0.040146 0.617818 -0.177365 34 137 141
-0.168042 0.246349 -0.264823 68 1 84
0.588721 0.229342 0.309109 61 75 137
-0.630602 -0.184533 0.520572 68 1 84
-0.609847 0.080688 0.373022 68 1 84
0.690948 -0.191360 0.411651 65 65 134
-0.173985 0.024068 -0.224298 68 1 84
-0.501970 0.360255 0.161526 68 1 84
-0.097691 0.485926 -0.239667 62 72 136
-0.310621 0.160299 -0.190578 68 1 84
-0.344088 0.545910 0.107416 49 100 141
0.179197 0.386287 -0.193359 39 126 142
-0.421767 -0.317409 -0.043898 71 24 106
0.209246 -0.064998 -0.218982 66 61 132
-0.643288 -0.308248 0.444530 68 1 84
-0.154966 0.533985 -0.205315 69 54 129
0.605842 0.180274 0.356653 71 37 117
0.353990 -0.134238 -0.162224 54 90 140
-0.520180 0.224313 0.091596 68 1 84
0.662591 -0.266812 0.280123 49 100 141
-0.357546 -0.014928 -0.168688 68 1 84
0.533331 0.376524 0.447563 69 52 127
-0.418424 0.388278 0.029190 68 3 87
0.270492 0.037024 -0.217755 55 89 140
0.505615 0.426124 0.412910 63 71 136
-0.007006 -0.195329 -0.373006 68 1 84
-0.524886 0.372123 0.387359 68 1 84
0.020521 -0.059465 -0.436832 68 1 84
0.423929 -0.476995 -0.189413 68 1 84
-0.174605 -0.084308 -0.221142 68 1 84
-0.633426 -0.167851 0.495721 68 1 84
0.080703 -0.503472 -0.291584 68 1 84
-0.438014 0.181272 -0.067871 68 1 84
-0.507137 -0.394255 0.046544 68 1 84
-0.110488 0.378793 -0.241434 66 61 132
-0.083444 -0.199268 -0.286443 68 1 84
-0.607925 0.115485 0.452532 68 1 84
0.594571 -0.162899 0.079579 60 78 138
-0.218459 0.192438 -0.254056 68 1 84
-0.190687 -0.529377 -0.259632 68 1 84
-0.064480 0.636842 -0.131911 32 164 133
0.534395 0.103950 0.061536 48 104 141
0.609947 -0.379135 0.154048 61 74 137
-0.344507 0.369384 -0.067835 72 32 113
0.550912 0.110076 0.109232 49 102 141
-0.302710 0.565418 0.063362 40 122 142
0.702564 -0.305625 0.423410 61 74 137
-0.172892 0.542081 -0.188925 64 68 135
-0.647367 -0.278503 0.406789 68 1 84
0.158280 0.474666 -0.165979 31 147 139
0.100627 -0.253440 -0.224354 68 1 84
-0.631837 -0.128553 0.493299 68 1 84
-0.590995 -0.416272 0.236441 68 1 84
0.646111 -0.032377 0.347750 71 44 123
-0.081899 0.559898 -0.229202 49 102 141
-0.152027 0.115227 -0.281638 68 1 84
0.417965 0.417153 0.055636 32 145 140
0.088448 0.388413 -0.236907 39 124 142
0.465826 0.210098 -0.014248 33 141 140
0.237377 0.276645 -0.209914 44 114 142
0.491018 -0.549565 -0.111693 68 1 84
0.202505 0.442652 -0.145161 30 152 138
-0.207024 0.592654 -0.104110 66 190 113
0.637285 0.055399 0.402507 72 28 110
-0.387304 -0.269911 -0.087200 71 22 105
0.470230 -0.322358 -0.044807 47 106 141
0.711084 -0.339172 0.431530 57 84 139
-0.443173 -0.422131 -0.049687 68 1 84
-0.619620 0.008029 0.479625 68 1 84
0.610005 0.167519 0.374084 71 20 102
0.627116 0.042929 0.313854 69 50 127
0.018202 0.363885 -0.269986 59 80 138
-0.599926 0.153822 0.471904 68 1 84
0.518209 0.364342 0.214544 53 92 140
0.068718 0.403441 -0.231635 51 97 141
0.400336 -0.076480 -0.148362 52 94 141
0.488455 0.449424 0.408242 58 82 139
-0.527276 -0.426131 0.075894 68 1 84
-0.601022 -0.465225 0.324729 68 1 84
0.307235 0.586849 0.133606 39 173 128
0.480378 0.110339 -0.040224 47 106 141
0.055702 -0.091338 -0.398225 68 1 84
0.277428 -0.319293 -0.157068 71 22 105
-0.394108 0.346906 -0.030455 71 24 106
-0.052238 -0.015963 -0.428890 68 1 84
-0.274667 0.253491 -0.184338 68 1 84
-0.635496 -0.530704 0.510524 68 1 84
-0.421645 0.500327 0.237696 70 14 97
-0.563433 0.250004 0.239008 68 1 84
0.104871 -0.075733 -0.314703 68 1 84
0.694077 -0.244952 0.403608 56 87 140
0.475348 -0.489872 -0.144319 68 1 84
-0.622910 -0.030480 0.402081 68 1 84
0.084054 0.586097 -0.183106 33 166 133
-0.345654 -0.576831 -0.201104 68 1 84
-0.539130 -0.089931 0.017316 68 1 84
-0.585227 -0.181106 0.124133 68 1 84
-0.022187 0.394593 -0.243359 50 99 141
0.658354 -0.109754 0.292394 57 84 139
0.316273 -0.541124 -0.256905 68 1 84
-0.574663 0.147335 0.211640 68 1 84
-0.627826 -0.430623 0.415988 68 1 84
-0.118857 -0.160843 -0.259300 68 1 84
0.097810 -0.300480 -0.199649 68 1 84
0.690928 -0.181170 0.398775 60 77 138
0.161765 0.208901 -0.276219 67 59 131
-0.556569 0.141202 0.149790 68 1 84
-0.261082 -0.203554 -0.150117 71 40 120
0.694649 -0.230795 0.406805 59 81 138
-0.597472 0.152906 0.322561 68 1 84
0.107344 0.139728 -0.295069 68 1 84
-0.104566 -0.113690 -0.304738 68 1 84
0.023789 -0.375264 -0.283909 68 1 84
0.243170 -0.151662 -0.182697 66 61 132
-0.258204 -0.518099 -0.214580 68 1 84
-0.029079 0.501006 -0.253883 51 97 141
0.560178 0.321008 0.318741 67 59 131
0.251898 0.357171 -0.158572 36 132 141
0.638448 0.027569 0.449289 71 18 101
-0.507881 0.035910 -0.005948 68 1 84
-0.012982 -0.193579 -0.372278 68 1 84
-0.089127 -0.485326 -0.269671 68 1 84
0.522283 0.401840 0.341381 66 62 133
-0.561062 -0.454006 0.158014 68 1 84
0.637501 0.008930 0.465672 72 32 113
0.631214 0.068701 0.450984 71 15 98
0.460224 -0.552640 -0.156635 68 1 84
-0.179636 -0.258639 -0.154863 68 1 84
-0.530873 0.244974 0.128391 68 1 84
-0.040429 -0.151103 -0.379918 68 1 84
-0.576378 -0.313703 0.143256 72 32 113
0.330417 0.568291 0.121956 103 204 92
-0.061812 -0.247963 -0.296019 68 1 84
-0.085407 -0.298130 -0.214318 68 1 84
0.492032 -0.518570 -0.117014 68 1 84
0.303957 0.100983 -0.204970 52 95 141
0.378580 0.220406 -0.123009 33 166 133
-0.371220 0.507721 0.077324 64 67 135
0.328493 0.580700 0.176453 40 174 127
-0.595183 0.045750 0.258848 68 1 84
0.027405 0.280759 -0.317596 68 1 84
-0.624012 -0.091410 0.362752 68 1 84
0.398478 -0.110982 -0.147421 60 78 138
0.027925 0.192747 -0.330873 68 1 84
0.660276 -0.113816 0.494554 66 62 133
0.060149 -0.231295 -0.314562 68 1 84
-0.045465 -0.130645 -0.391046 68 1 84
0.168993 -0.292074 -0.155869 72 33 114
-0.605996 0.028940 0.540535 68 1 84
0.062988 -0.237258 -0.306044 68 1 84
0.355649 -0.085980 -0.170599 49 102 141
-0.246443 -0.017382 -0.213113 68 1 84
0.100113 0.157078 -0.304304 68 1 84
-0.641971 -0.335295 0.553096 68 1 84
-0.626442 -0.083485 0.399836 68 1 84
-0.475712 -0.382778 0.011782 68 1 84
0.230378 -0.109493 -0.201246 61 74 137
0.622902 -0.169633 0.144924 61 76 137
-0.631830 -0.233465 0.535446 68 1 84
0.218085 -0.427600 -0.206040 68 1 84
0.293054 0.443315 -0.070002 62 188 115
0.474090 0.271180 0.033343 36 133 141
-0.265754 -0.368631 -0.139285 68 1 84
-0.377011 0.361474 -0.039411 71 20 102
-0.073465 -0.104989 -0.383038 68 1 84
-0.381554 -0.475580 -0.145371 68 1 84
0.655013 -0.100280 0.288672 63 71 136
-0.583111 -0.200539 0.119881 68 1 84
0.259377 -0.534607 -0.273831 68 1 84
-0.471084 0.102984 -0.046923 68 1 84
0.490869 -0.427734 -0.099096 71 17 99
-0.376078 0.006555 -0.158720 68 1 84
0.338581 -0.335298 -0.143145 71 21 103
0.520921 0.062854 0.005783 41 120 142
0.403545 -0.292883 -0.097458 48 104 141
0.670033 -0.112961 0.358696 57 85 139
0.220592 0.549908 -0.064735 98 202 95
-0.537818 0.022177 0.051960 68 1 84
-0.016292 0.156335 -0.333768 68 1 84
-0.508719 0.267932 0.091992 68 1 84
0.105312 -0.252375 -0.218658 68 1 84
-0.581240 0.249462 0.399062 68 1 84
0.398630 -0.214193 -0.106308 44 114 142
-0.432447 -0.022642 -0.113253 69 8 91
-0.436315 0.310031 -0.002912 68 1 84
0.093941 0.005513 -0.303301 68 1 84
-0.576280 0.188169 0.239994 68 1 84
-0.027368 0.595295 -0.207235 45 110 142
0.336665 -0.391042 -0.199607 68 1 84
-0.084627 0.017479 -0.281866 68 1 84
-0.345694 -0.579589 -0.201437 68 1 84
0.234557 0.477012 -0.102882 44 177 125
0.432682 -0.109507 -0.125092 58 83 139
-0.495494 0.238077 0.048824 68 1 84
-0.592957 0.091569 0.261716 68 1 84
-0.326398 0.548676 0.069002 52 94 141
-0.495045 -0.145553 -0.050079 69 6 90
-0.426711 -0.017884 -0.118084 68 1 84
0.664804 -0.133252 0.430496 60 77 138
-0.613519 -0.389397 0.297649 68 1 84
0.046757 -0.463457 -0.284264 68 1 84
-0.176775 0.342948 -0.237355 72 29 111
0.535600 0.040799 0.021646 45 111 142
-0.619620 -0.143930 0.276933 68 1 84
-0.318416 -0.072088 -0.178992 68 1 84
-0.365149 -0.234268 -0.112334 71 21 103
-0.567133 -0.007973 0.127013 68 1 84
0.175875 0.386304 -0.195485 40 122 142
-0.567176 -0.188187 0.074824 68 1 84
0.573843 0.234382 0.244579 57 85 139
0.670386 -0.212996 0.284093 46 107 142
0.061407 -0.407266 -0.263830 68 1 84
0.000629 -0.090656 -0.428883 68 1 84
0.650359 -0.029666 0.385193 70 49 126
-0.479406 -0.151922 -0.067409 71 22 105
-0.347835 0.029847 -0.177372 68 1 84
-0.239018 0.033705 -0.217295 68 1 84
0.295493 -0.022091 -0.202020 56 86 139
0.351387 -0.462192 -0.210607 68 1 84
0.697916 -0.374216 0.358701 54 91 140
-0.255612 -0.269659 -0.143032 68 1 84
-0.271273 -0.589610 -0.240055 68 1 84
0.110824 -0.098976 -0.274229 68 1 84
-0.449544 -0.084060 -0.099456 71 17 99
0.604240 0.125968 0.276228 70 45 124
0.524449 -0.522364 -0.040294 70 14 97
0.181539 0.363078 -0.206783 43 115 142
0.098104 -0.189332 -0.268532 68 1 84
-0.605103 0.083522 0.513877 68 1 84
-0.400310 0.374168 -0.003839 68 1 84
0.545248 0.356723 0.320491 66 62 133
-0.636490 -0.377086 0.436456 68 1 84
-0.363473 -0.062454 -0.159739 68 1 84
-0.455213 -0.297740 -0.025707 72 26 108
-0.639072 -0.448584 0.480794 68 1 84
0.446276 -0.326314 -0.066489 45 111 142
-0.262516 0.092010 -0.217745 68 1 84
0.559483 0.261844 0.222458 56 86 139
-0.249240 0.593533 0.020241 36 132 141
-0.016886 0.510164 -0.253457 46 108 142
-0.579889 -0.318074 0.154015 71 18 101
0.722774 -0.394553 0.416383 54 91 140
0.659013 -0.083889 0.352997 67 59 131
-0.524724 0.323624 0.186734 68 1 84
-0.083151 -0.363604 -0.202147 68 1 84
0.731039 -0.439851 0.467580 49 100 141
-0.455895 -0.348893 -0.005467 72 25 107
-0.109520 -0.408651 -0.186761 68 1 84
0.171397 -0.298723 -0.152700 71 43 122
-0.431854 0.243741 -0.048804 68 1 84
-0.035626 0.523740 -0.250803 44 113 142
-0.449968 0.314264 0.019833 68 1 84
0.145777 0.145290 -0.279338 68 1 84
0.375619 -0.234089 -0.117099 51 97 141
-0.631455 -0.151118 0.333301 68 1 84
-0.274181 0.516583 -0.084839 51 96 141
-0.067036 0.591442 -0.206843 59 81 138
-0.498008 0.410252 0.383407 68 1 84
-0.117161 -0.116609 -0.275651 68 1 84
-0.261571 0.497380 -0.113880 57 84 139
-0.536299 0.352686 0.333532 68 1 84
0.420867 0.523389 0.258191 32 164 133
0.504767 0.350182 0.159130 55 88 140
0.381247 -0.353669 -0.134892 72 35 116
-0.116059 0.270366 -0.310176 68 1 84
0.530078 0.157077 0.085880 43 116 142
0.232173 -0.138455 -0.191101 64 67 135
-0.531678 0.053337 0.049250 68 1 84
0.163195 0.358449 -0.222205 46 109 142
0.609599 -0.344578 0.145650 65 66 134
-0.481413 -0.573683 -0.055829 68 1 84
-0.380754 0.502189 0.086754 72 29 111
0.653682 -0.407262 0.282776 42 117 142
0.047138 -0.153902 -0.373148 68 1 84
0.279796 -0.470603 -0.234888 68 1 84
-0.391338 0.172199 -0.124623 68 1 84
-0.052581 -0.342200 -0.263101 68 1 84
0.201726 0.093414 -0.239560 64 68 135
-0.480672 0.306198 0.064203 68 1 84
0.149533 0.608499 -0.086295 218 226 24
-0.004200 0.384694 -0.247461 58 83 139
-0.443034 0.480303 0.249093 68 1 84
0.443043 0.491058 0.227449 33 167 132
0.665518 -0.395358 0.309110 51 97 141
0.363501 0.233154 -0.133041 30 160 135
-0.277989 0.211236 -0.203970 68 1 84
-0.269036 -0.184747 -0.155121 68 1 84
-0.468036 0.453184 0.305034 68 1 84
0.006908 0.084946 -0.315793 68 1 84
0.262305 0.083596 -0.223629 54 90 140
-0.323028 0.429843 -0.061659 70 49 126
0.343860 0.263880 -0.138414 31 150 139
-0.541479 0.226286 0.147071 68 1 84
-0.101448 0.054419 -0.277238 68 1 84
-0.007858 0.191558 -0.336149 68 1 84
-0.563769 0.299208 0.351455 68 1 84
0.375971 -0.145240 -0.150168 54 91 140
0.373315 0.517205 0.101391 36 170 130
-0.532488 0.135875 0.081978 68 1 84
-0.145506 0.609620 -0.151997 30 158 136
-0.221755 0.387852 -0.172251 68 1 84
-0.602247 -0.498256 0.355127 68 1 84
-0.460403 0.461057 0.264923 68 1 84
-0.184811 0.350918 -0.224870 69 6 90
-0.464705 0.199035 -0.021326 68 1 84
-0.002104 0.357402 -0.276173 61 74 137
-0.122306 -0.087333 -0.294447 68 1 84
-0.347051 0.551674 0.146954 55 88 140
0.089843 -0.091738 -0.335655 68 1 84
0.364387 0.437494 0.001147 44 177 125
0.733136 -0.457353 0.503326 47 105 141
0.408618 0.238710 -0.080928 42 119 142
-0.588198 -0.268979 0.153851 70 9 92
0.370984 -0.556599 -0.229723 68 1 84
-0.258478 -0.287319 -0.145101 68 3 87
-0.160712 -0.389848 -0.145065 68 1 84
-0.440427 -0.586232 -0.122083 68 1 84
0.409569 0.501135 0.148553 42 176 126
0.163573 -0.294515 -0.155142 71 38 118
-0.255867 0.298013 -0.188387 68 1 84
-0.252948 0.145990 -0.231155 68 1 84
0.706605 -0.308396 0.479456 60 78 138
-0.642462 -0.289259 0.477043 68 1 84
0.108122 0.447397 -0.203354 34 138 141
-0.636943 -0.163400 0.351444 68 1 84
0.511528 -0.105976 -0.047812 55 89 140
0.653172 -0.307351 0.253210 49 100 141
-0.610538 -0.161468 0.223662 68 1 84
0.578858 -0.168596 0.051197 54 91 140
0.658630 -0.109978 0.522093 58 82 139
0.098039 0.628325 -0.110866 210 225 27
0.305337 0.322577 -0.141859 30 159 136
-0.558484 0.231299 0.203958 68 1 84
0.504562 0.249851 0.079931 47 105 141
-0.603760 -0.403475 0.270383 68 1 84
-0.618291 -0.078000 0.538477 68 1 84
0.679434 -0.431132 0.318658 60 77 138
0.647530 -0.227543 0.216803 46 109 142
-0.163785 0.205325 -0.285263 68 1 84
-0.617700 -0.075239 0.539216 68 1 84
-0.593470 0.105444 0.270006 68 1 84
-0.151364 -0.278737 -0.158156 68 1 84
0.399786 0.218809 -0.101419 30 152 138
0.593405 -0.010355 0.132128 53 92 140
-0.306136 -0.141038 -0.162345 68 2 85
0.156253 0.261438 -0.249355 70 49 126
-0.515308 -0.435577 0.051485 68 1 84
-0.142563 0.517561 -0.217169 67 58 131
-0.192240 -0.127748 -0.209074 68 1 84
0.607205 0.060712 0.239634 66 64 133
0.019137 0.550206 -0.237306 45 111 142
0.608892 -0.438869 0.163319 64 68 135
0.249277 0.413922 -0.126677 31 161 135
-0.638915 -0.433462 0.476108 68 1 84
0.578585 -0.473414 0.089139 62 73 137
0.351327 0.041875 -0.178171 54 91 140
0.133923 -0.251951 -0.188050 68 1 84
0.505472 -0.146157 -0.050454 55 89 140
-0.616355 -0.078447 0.547310 68 1 84
0.014663 0.498379 -0.249049 55 88 140
-0.480384 0.438593 0.309963 68 1 84
0.459666 0.244458 -0.005333 43 116 142
-0.469050 -0.075278 -0.080215 69 5 88
0.541594 -0.404508 0.019802 62 72 136
-0.018900 0.156923 -0.334031 68 1 84
-0.077127 -0.110669 -0.371549 68 1 84
-0.404654 -0.605619 -0.153390 68 1 84
-0.418977 0.460958 0.098782 71 17 99
0.321347 0.353174 -0.111050 39 173 128
0.675195 -0.170765 0.438950 61 74 137
-0.181540 0.048377 -0.234255 68 1 84
0.146622 0.355198 -0.234935 55 89 140
-0.526189 -0.386376 0.071811 68 1 84
-0.546438 -0.457255 0.121078 68 1 84
-0.562160 0.152842 0.171775 68 1 84
-0.193550 -0.403898 -0.157345 68 1 84
-0.564715 -0.394672 0.149145 68 1 84
0.108397 -0.179232 -0.258208 68 1 84
0.456380 0.247507 -0.009013 43 115 142
-0.511692 -0.022545 -0.014580 68 1 84
0.679404 -0.188210 0.500386 70 47 124
0.543730 -0.384807 0.027941 64 67 135
0.043382 -0.291414 -0.311597 68 1 84
-0.592757 0.039856 0.248342 68 1 84
-0.625811 -0.038744 0.462742 68 1 84
-0.562419 -0.199509 0.065428 70 9 92
0.607588 0.134126 0.298000 70 49 126
0.254584 0.592952 0.046053 167 219 51
-0.070693 -0.155605 -0.341210 68 1 84
0.032598 -0.282054 -0.328127 68 1 84
-0.565364 0.160531 0.185443 68 1 84
-0.344558 0.018101 -0.178706 68 1 84
0.355264 -0.225899 -0.129013 45 111 142
0.104000 -0.437807 -0.254625 68 1 84
0.049458 -0.059017 -0.417902 68 1 84
-0.462226 0.088572 -0.063996 68 1 84
-0.609360 -0.429532 0.322296 68 1 84
0.157981 0.057835 -0.240215 61 74 137
-0.289752 0.321078 -0.141607 68 1 84
0.436374 0.442846 0.115894 30 153 138
0.043515 0.636202 -0.136612 141 214 68
-0.519758 0.120597 0.046170 68 1 84
0.713654 -0.425518 0.345211 71 39 119
0.179832 0.233345 -0.261038 62 72 136
-0.495098 0.179213 0.020549 68 1 84
0.729555 -0.386985 0.497278 53 93 140
-0.261136 0.446082 -0.126138 62 73 137
0.133868 0.332007 -0.258453 45 111 142
0.599685 0.187111 0.316620 70 45 124
0.552207 -0.244663 0.031381 60 77 138
0.675221 -0.250047 0.320311 48 104 141
0.649655 -0.052384 0.340031 67 59 131
0.514374 0.373706 0.216216 51 97 141
-0.527202 0.369115 0.362481 68 1 84
0.586214 0.231483 0.296375 61 74 137
-0.016531 0.493539 -0.253900 57 85 139
0.594838 0.152309 0.257538 71 44 123
0.162177 -0.443857 -0.224663 68 1 84
0.151429 -0.147584 -0.226669 72 34 115
-0.592966 0.182214 0.479147 68 1 84
0.578278 -0.250787 0.067997 47 105 141
-0.226929 0.554862 -0.124833 38 128 142
-0.547412 -0.423697 0.117392 68 1 84
0.537431 0.109072 0.072676 50 98 141
0.628367 0.074091 0.497622 71 43 122
0.574346 0.281329 0.317510 65 66 134
-0.200708 0.116051 -0.255796 68 1 84
0.185677 0.596076 -0.051682 212 225 26
-0.487031 0.122843 -0.014871 68 1 84
-0.351545 -0.277144 -0.109961 68 2 85
-0.441548 0.267896 -0.022163 68 1 84
-0.531407 0.123093 0.074626 68 1 84
-0.218281 0.597249 -0.063557 32 165 133
0.422125 0.004900 -0.130768 53 93 140
0.412267 0.244397 -0.073581 46 107 142
0.111943 -0.271151 -0.198275 68 1 84
-0.131084 -0.084400 -0.263927 68 1 84
-0.455837 -0.289813 -0.029425 72 29 111
-0.241703 -0.395181 -0.143879 68 1 84
0.559468 0.319162 0.306135 65 66 134
-0.067212 0.626453 -0.157466 30 153 138
0.398762 0.537956 0.232490 30 156 137
0.183148 -0.535740 -0.287076 68 1 84
-0.333872 -0.449517 -0.193985 68 1 84
0.535554 0.292998 0.181164 64 67 135
0.504130 0.432334 0.350629 66 64 133
-0.153749 0.517966 -0.210105 63 71 136
0.579269 -0.034571 0.074230 49 101 141
0.399984 -0.463156 -0.194956 68 1 84
0.683543 -0.149274 0.326443 60 78 138
0.606659 -0.458394 0.158931 70 49 126
-0.312269 0.543588 0.028110 55 89 140
-0.517353 0.089284 0.030151 68 1 84
0.053003 -0.423953 -0.271991 68 1 84
0.282056 0.536550 -0.001310 107 205 89
-0.010969 0.064006 -0.316871 68 1 84
-0.482245 0.038686 -0.047379 68 1 84
-0.445377 -0.437255 -0.058118 68 1 84
-0.306044 -0.589376 -0.223977 68 1 84
0.217967 0.495833 -0.108038 61 187 116
0.354115 0.316379 -0.103578 32 165 133
0.517140 -0.446199 -0.054245 70 48 125
-0.588602 -0.209248 0.137788 70 12 95
0.019463 0.588374 -0.212376 31 148 139
-0.603811 -0.350393 0.243487 70 12 95
-0.624433 -0.095241 0.361910 68 1 84
0.481113 -0.519078 -0.134263 69 6 90
0.228090 -0.441804 -0.212949 68 1 84
0.289215 0.392002 -0.110419 35 168 131
0.007347 -0.444010 -0.283951 68 1 84
0.134690 0.264989 -0.257983 70 47 124
-0.257629 0.546151 -0.085217 38 129 142
0.206669 0.225098 -0.248554 69 50 127
0.016181 0.025583 -0.325881 68 1 84
-0.629357 -0.221957 0.573553 68 1 84
-0.581564 0.068716 0.214001 68 1 84
0.262172 -0.051801 -0.206950 58 83 139
-0.383191 -0.531814 -0.169729 68 1 84
-0.503107 0.134616 0.018144 68 1 84
-0.607851 -0.392841 0.278666 68 1 84
-0.347299 0.295621 -0.108842 70 12 95
0.394444 -0.186585 -0.121468 52 94 141
-0.510260 0.393975 0.390333 68 1 84
0.435963 0.406047 0.075050 34 138 141
-0.088097 -0.125965 -0.332780 68 1 84
-0.475428 -0.556548 -0.074624 68 1 84
0.695519 -0.244347 0.431191 60 77 138
0.503321 -0.492718 -0.097867 72 26 108
-0.589877 -0.403766 0.225160 68 1 84
-0.630225 -0.220505 0.558417 68 1 84
0.638081 -0.262771 0.199415 46 108 142
-0.439461 -0.389623 -0.031817 68 1 84
-0.627734 -0.175098 0.295992 68 1 84
0.383187 0.542801 0.186434 31 163 134
0.192786 -0.460942 -0.232803 68 1 84
0.467752 0.190962 -0.021607 36 134 141
-0.381710 -0.450111 -0.140720 68 1 84
0.611687 0.123271 0.307107 71 39 119
-0.226857 0.254747 -0.217650 68 1 84
0.231661 0.571848 -0.021776 146 215 65
-0.417307 -0.083968 -0.125420 72 29 111
0.118847 -0.102311 -0.262258 68 1 84
0.095214 0.222993 -0.300817 71 24 106
-0.052493 0.613828 -0.183869 36 133 141
0.376922 0.553094 0.207611 30 153 138
-0.634168 -0.530928 0.483781 68 1 84
-0.284216 0.136730 -0.210744 68 1 84
-0.500525 0.305727 0.103682 68 1 84
-0.543021 0.324449 0.465939 68 1 84
0.625285 -0.332939 0.186922 53 93 140
-0.576260 0.026543 0.178481 68 1 84
-0.371055 0.241196 -0.117194 68 1 84
0.233703 0.179511 -0.236889 58 83 139
0.487468 0.233939 0.035931 38 129 142
-0.354965 -0.483073 -0.167281 68 1 84
0.561440 0.049045 0.088571 50 98 141
-0.076333 -0.013248 -0.335195 68 1 84
-0.391884 0.523474 0.198465 70 45 124
-0.590454 0.184127 0.493026 68 1 84
0.604275 -0.329855 0.129666 53 93 140
0.024142 0.014029 -0.403805 68 1 84
0.620330 -0.078457 0.169951 52 94 141
0.638865 -0.079413 0.243338 53 92 140
-0.260658 -0.333811 -0.150195 70 9 92
-0.549051 0.163033 0.135964 68 1 84
0.655639 -0.063966 0.391189 65 65 134
0.528984 -0.492793 -0.027011 71 38 118
-0.066025 0.443206 -0.242618 55 89 140
0.447025 -0.262502 -0.058615 43 115 142
-0.416396 -0.367323 -0.047651 68 1 84
0.640302 0.024026 0.440029 72 25 107
-0.147549 -0.000041 -0.271081 68 1 84
0.078145 0.566457 -0.199173 33 166 133
-0.313391 0.268489 -0.147414 68 1 84
0.539503 -0.178823 -0.003020 56 86 139
-0.365826 0.085074 -0.163134 68 1 84
0.077665 -0.472158 -0.282472 68 1 84
0.270910 -0.161445 -0.171943 56 86 139
-0.532670 -0.290774 0.048762 70 11 94
0.538166 0.373861 0.348526 68 57 130
0.346238 0.470555 0.009942 61 187 116
0.565944 -0.160569 0.030452 59 81 138
0.027660 0.015950 -0.396266 68 1 84
0.509980 0.422200 0.399507 69 50 127
-0.076513 0.011064 -0.287882 68 1 84
0.068750 0.165033 -0.321542 68 1 84
-0.615247 -0.175562 0.244542 68 1 84
-0.457314 -0.211343 -0.074307 69 54 129
0.287731 -0.195949 -0.158376 54 90 140
-0.554130 0.078983 0.125700 68 1 84
-0.115527 0.361342 -0.255653 72 26 108
-0.591572 -0.193344 0.144647 68 1 84
0.618271 0.125763 0.355093 72 30 112
0.072471 -0.005672 -0.330723 68 1 84
0.606069 -0.383189 0.145509 50 98 141
-0.495429 0.418567 0.317194 68 1 84
-0.215838 0.601131 -0.053697 32 164 133
-0.458851 -0.405690 -0.017898 68 1 84
0.728180 -0.436103 0.383060 71 42 121
-0.448955 -0.213942 -0.079877 69 54 129
0.384562 0.182357 -0.130774 33 142 140
-0.453329 0.231956 -0.024022 68 1 84
0.361422 0.481927 0.039030 57 185 118
-0.140013 -0.088047 -0.244569 68 1 84
-0.166892 -0.418839 -0.167109 68 1 84
0.548016 -0.017086 0.017637 49 102 141
0.309704 -0.132650 -0.173826 49 101 141
-0.116205 -0.353303 -0.154817 68 1 84
0.546477 0.335345 0.485738 60 77 138
-0.430366 -0.180978 -0.103775 72 26 108
-0.137540 0.599254 -0.173984 41 121 142
-0.530455 0.096262 0.063139 68 1 84
0.128822 0.611168 -0.110061 212 225 26
0.581855 -0.378399 0.094971 52 94 141
0.521135 -0.465827 -0.049262 72 26 108
-0.286567 -0.254547 -0.135672 68 1 84
0.122245 0.414516 -0.207461 48 103 141
0.207564 0.518890 -0.105709 57 185 118
0.242950 -0.244362 -0.161646 69 50 127
-0.361782 0.020953 -0.168667 68 1 84
0.578286 0.214632 0.242712 63 71 136
-0.607646 -0.021419 0.291846 68 1 84
-0.376661 -0.100043 -0.147364 68 1 84
-0.225625 0.477977 -0.158228 71 21 103
-0.305402 0.570936 0.091123 39 126 142
-0.144782 -0.407409 -0.161484 68 1 84
-0.579450 -0.335855 0.161054 72 29 111
0.021071 0.394393 -0.242681 56 86 139
-0.600950 0.158047 0.367596 68 1 84
-0.019756 0.036650 -0.343049 68 1 84
-0.067381 -0.304847 -0.244954 68 1 84
-0.455720 -0.364634 -0.006147 69 8 91
-0.240464 -0.224858 -0.149537 68 57 130
-0.442506 0.083424 -0.090949 68 1 84
0.144270 0.627976 -0.031861 228 227 24
0.367437 0.340716 -0.072516 32 164 133
0.124363 0.591161 -0.143038 134 212 73
0.044644 -0.430209 -0.276418 68 1 84
0.669670 -0.177006 0.278840 50 99 141
0.382758 -0.177493 -0.132614 56 86 139
0.699445 -0.257144 0.468210 60 78 138
-0.322614 -0.338996 -0.138140 68 1 84
0.707346 -0.290898 0.522006 67 58 131
-0.447192 -0.226347 -0.075076 71 43 122
-0.028288 0.051860 -0.319257 68 1 84
0.423226 -0.123449 -0.130653 51 97 141
0.156573 0.066784 -0.244169 71 18 101
0.068536 -0.129492 -0.360612 68 1 84
-0.180674 -0.200069 -0.183142 68 1 84
0.588712 -0.312805 0.096756 51 96 141
-0.432090 -0.060413 -0.114608 71 17 99
-0.610099 -0.089664 0.259910 68 1 84
-0.480216 0.432507 0.379886 68 1 84
0.553831 -0.320542 0.047308 55 88 140
0.541616 0.366524 0.398418 72 30 112
0.642299 -0.320420 0.229325 46 108 142
0.256690 0.102802 -0.226145 61 75 137
0.503050 0.426109 0.431541 60 77 138
-0.254772 -0.050141 -0.206549 68 1 84
-0.593605 -0.026459 0.226155 68 1 84
-0.562249 -0.087564 0.071879 68 1 84
-0.100867 0.122587 -0.312035 68 1 84
0.696242 -0.194716 0.364532 55 88 140
-0.262451 -0.395307 -0.138294 68 1 84
-0.603863 0.150548 0.402227 68 1 84
-0.107498 -0.445873 -0.225990 68 1 84
-0.368775 -0.157984 -0.138882 72 25 107
0.082528 -0.366166 -0.230054 68 1 84
0.503605 0.432611 0.388914 69 52 127
0.524647 -0.292242 0.011166 49 101 141
0.381536 0.479984 0.064836 36 170 130
-0.600111 0.103728 0.302502 68 1 84
0.641040 0.018006 0.367424 71 40 120
-0.252778 0.405854 -0.141290 70 9 92
-0.555755 0.201287 0.176199 68 1 84
0.496691 -0.144182 -0.060829 54 90 140
0.480164 -0.512742 -0.137382 69 6 90
-0.540062 -0.178886 0.018652 68 1 84
-0.303797 0.331086 -0.124128 71 38 118
0.458743 -0.288110 -0.045144 46 108 142
0.190846 -0.059497 -0.224506 61 76 137
-0.597544 0.175589 0.452396 68 1 84
0.511248 -0.117782 -0.047414 52 95 141
-0.587452 -0.385286 0.207174 68 1 84
0.518316 0.378294 0.236550 56 86 139
0.649281 -0.368312 0.255727 47 105 141
0.318121 0.569783 0.100613 100 203 93
-0.443769 -0.184875 -0.093732 72 34 115
-0.252688 -0.166309 -0.167550 71 37 117
0.139111 0.125659 -0.275526 68 1 84
-0.342673 0.548975 0.115776 50 98 141
0.011523 0.191700 -0.332723 68 1 84
0.471668 0.474689 0.355110 48 103 141
0.641383 -0.316550 0.226048 40 123 142
0.577256 -0.384323 0.086777 53 93 140
-0.607073 0.026709 0.310832 68 1 84
0.288920 -0.064796 -0.197527 59 81 138
-0.076497 0.108315 -0.315856 68 1 84
0.604288 -0.428133 0.148953 50 99 141
-0.609738 -0.037947 0.560981 68 1 84
0.070653 -0.156144 -0.340940 68 1 84
-0.643191 -0.276981 0.470536 68 1 84
0.200983 0.606444 -0.001407 207 225 28
0.640527 -0.028421 0.307798 68 57 130
-0.276282 -0.454216 -0.208534 68 1 84
-0.184553 0.321528 -0.247336 68 1 84
-0.125545 0.595737 -0.186459 46 109 142
0.075696 -0.254494 -0.268151 68 1 84
-0.533871 -0.018370 0.028030 68 1 84
-0.557025 -0.028733 0.082038 68 1 84
-0.254264 0.077630 -0.218686 68 1 84
0.098853 -0.342642 -0.189195 68 1 84
-0.588941 0.132875 0.263209 68 1 84
-0.401565 0.455634 0.061115 71 18 101
-0.184102 -0.180850 -0.190937 68 1 84
0.335986 0.410865 -0.053455 42 176 126
0.608729 -0.340445 0.142278 63 71 136
-0.267543 -0.425140 -0.164238 68 1 84
-0.443161 -0.013073 -0.102537 68 1 84
-0.389762 -0.262239 -0.088081 71 21 103
0.221105 -0.478459 -0.248798 68 1 84
0.168803 0.396400 -0.193456 41 121 142
-0.082246 0.264853 -0.311641 68 1 84
0.126257 -0.047145 -0.288971 68 1 84
0.322275 0.497246 0.005707 89 199 100
-0.458629 -0.003008 -0.085165 68 1 84
-0.298479 -0.183290 -0.148885 71 37 117
-0.607677 0.089790 0.494244 68 1 84
0.556259 -0.450063 0.042439 65 66 134
0.478515 0.109520 -0.043074 48 104 141
-0.490545 0.244315 0.043186 68 1 84
0.548307 -0.095394 0.000159 63 71 136
0.674317 -0.170187 0.443560 67 58 131
0.026570 -0.300021 -0.321601 68 1 84
-0.605376 0.139272 0.412701 68 1 84
-0.631570 -0.111041 0.458701 68 1 84
-0.590518 -0.111995 0.157414 68 1 84
-0.257400 -0.041274 -0.207652 68 1 84
0.556712 -0.154082 0.016247 63 71 136
0.189009 -0.468534 -0.244419 68 1 84
-0.027099 0.630729 -0.153416 33 167 132
0.729746 -0.423372 0.373508 69 54 129
0.097348 -0.011741 -0.350785 68 1 84
0.034375 -0.267449 -0.334876 68 1 84
-0.013872 0.127779 -0.320913 68 1 84
-0.613693 -0.023895 0.533475 68 1 84
-0.405335 -0.117350 -0.129738 72 35 116
0.184473 0.569435 -0.094022 105 204 91
0.396863 0.543855 0.277061 33 166 133
-0.234922 -0.199969 -0.159097 71 24 106
-0.393084 -0.326678 -0.079638 71 20 102
-0.060832 -0.263589 -0.287796 68 1 84
0.115100 -0.074833 -0.274586 68 1 84
-0.641656 -0.308719 0.487549 68 1 84
0.097615 -0.097726 -0.306073 68 1 84
-0.013079 0.492476 -0.253665 57 85 139
0.375612 -0.148573 -0.149011 52 95 141
0.600422 0.014907 0.178691 58 83 139
0.087376 0.584049 -0.182311 30 153 138
0.072883 -0.079534 -0.382758 68 1 84
-0.569081 -0.375160 0.152861 69 8 91
0.222918 0.387992 -0.161939 45 110 142
0.448376 -0.367617 -0.096868 65 66 134
0.521965 0.133587 0.050253 59 81 138
0.325432 -0.391400 -0.206362 68 1 84
0.234170 0.201254 -0.234484 56 86 139
0.185811 0.451350 -0.152846 30 153 138
0.626418 0.003865 0.270155 61 76 137
-0.177620 -0.162764 -0.204148 68 1 84
-0.119956 -0.323364 -0.159219 68 1 84
0.661908 -0.252711 0.273048 50 99 141
-0.605301 0.024742 0.300015 68 1 84
-0.003213 -0.471965 -0.287647 68 1 84
-0.597323 0.133914 0.514881 68 1 84
-0.635471 -0.518678 0.484284 68 1 84
-0.168856 0.467222 -0.201776 72 29 111
-0.633089 -0.305793 0.336466 68 1 84
-0.271976 0.477806 -0.107340 53 93 140
0.355701 0.030603 -0.175582 54 91 140
0.463181 0.258450 0.007460 39 126 142
0.353934 0.384135 -0.055319 32 165 133
0.473451 0.470718 0.377594 44 112 142
0.559601 0.296968 0.499874 58 83 139
0.321213 0.225234 -0.170974 36 133 141
-0.298384 0.522502 -0.032567 61 75 137
-0.328146 0.517151 0.016295 70 47 124
-0.255566 -0.510324 -0.209335 68 1 84
0.639521 -0.375513 0.234187 49 100 141
0.600441 -0.409983 0.136451 51 97 141
-0.449884 -0.411983 -0.033654 68 1 84
-0.571839 -0.089111 0.100656 68 1 84
-0.352673 0.542726 0.119943 57 84 139
-0.426094 0.459473 0.111865 72 30 112
-0.557203 0.303245 0.445267 68 1 84
0.170783 0.160542 -0.270396 70 49 126
0.601653 0.136084 0.273552 71 42 121
0.720121 -0.351747 0.485195 62 73 137
-0.613826 -0.073553 0.292080 68 1 84
-0.375273 -0.044690 -0.154973 68 1 84
0.136577 -0.368076 -0.162560 68 1 84
-0.345737 0.506463 0.031551 68 55 129
0.380375 0.209190 -0.125511 31 150 139
0.033487 -0.195475 -0.365484 68 1 84
0.505204 -0.187687 -0.039727 56 87 140
0.611619 -0.075375 0.142715 52 95 141
-0.573822 -0.276099 0.120579 71 15 98
0.568739 0.258799 0.249676 58 83 139
-0.386084 0.453221 0.035354 71 17 99
-0.477338 -0.197997 -0.060871 71 37 117
0.130906 0.014901 -0.255962 69 8 91
0.483335 -0.115746 -0.078537 52 95 141
-0.282912 -0.441116 -0.200628 68 1 84
0.171359 -0.143846 -0.215423 72 26 108
-0.045637 0.019502 -0.324242 68 1 84
0.629307 -0.171748 0.163815 57 85 139
-0.158021 0.027507 -0.231130 68 1 84
-0.597613 -0.058793 0.224544 68 1 84
0.142672 -0.070917 -0.238230 72 25 107
0.064576 0.393499 -0.238767 54 91 140
-0.473353 0.296472 0.044524 68 1 84
0.233820 -0.140201 -0.189829 66 64 133
0.318714 0.318843 -0.134086 33 166 133
-0.031470 0.355767 -0.273472 66 61 132
0.577049 0.262675 0.293556 64 67 135
-0.159168 -0.175122 -0.211336 68 1 84
-0.623351 -0.016966 0.423011 68 1 84
0.641532 0.018996 0.371640 72 26 108
-0.158199 0.165731 -0.296457 68 1 84
0.377403 -0.094920 -0.159814 44 114 142
0.512786 0.408361 0.446457 60 78 138
-0.568640 0.247105 0.257956 68 1 84
-0.332291 0.554151 0.103764 46 108 142
0.560928 0.157913 0.160132 61 74 137
0.620784 0.001214 0.242214 55 89 140
-0.436168 0.322505 0.005704 68 1 84
-0.052621 -0.332991 -0.266565 68 1 84
0.473969 -0.247623 -0.042700 45 111 142
0.492652 0.440140 0.284176 44 113 142
-0.491954 -0.414185 0.019920 68 1 84
0.135557 -0.004309 -0.271345 71 18 101
0.496140 -0.166239 -0.056168 54 91 140
0.731067 -0.390125 0.512426 64 67 135
0.444596 0.437034 0.125058 30 153 138
0.208003 -0.114479 -0.207383 67 60 132
-0.604535 0.005937 0.288407 68 1 84
-0.158850 0.294128 -0.285577 68 1 84
-0.021045 -0.037471 -0.446947 68 1 84
-0.564579 0.193233 0.200500 68 1 84
0.723978 -0.446937 0.383741 70 45 124
0.098293 0.376506 -0.242949 41 120 142
-0.630315 -0.352264 0.357429 68 1 84
0.223272 -0.078749 -0.211673 65 66 134
-0.559310 -0.535470 0.177305 68 1 84
-0.305340 0.406101 -0.091357 66 62 133
0.635920 0.018436 0.338217 70 48 125
0.501238 -0.374158 -0.038153 71 43 122
-0.022063 0.634320 -0.145338 53 183 120
0.386115 -0.344370 -0.123253 69 54 129
0.426982 0.242118 -0.055418 51 96 141
0.644722 0.003538 0.433536 71 37 117
-0.414374 0.158559 -0.105652 68 1 84
-0.583903 -0.102895 0.136984 68 1 84
-0.573213 0.242067 0.494818 68 1 84
0.528206 0.340489 0.212274 64 68 135
0.364181 -0.326916 -0.130220 61 74 137
0.496124 -0.356855 -0.034956 62 72 136
0.666064 -0.349274 0.324135 49 100 141
