ply
format ascii 1.0
element vertex 1270
property float x
property float y
property float z
property uchar red
property uchar green
property uchar blue
end_header
-0.511194 0.446135 0.295142 49 100 141
-0.130587 0.337186 -0.260002 68 1 84
-0.628179 -0.285359 0.155015 68 1 84
0.633624 -0.257794 0.227490 68 1 84
0.484253 0.301650 0.040239 33 141 140
0.616774 0.138206 0.493938 35 137 141
-0.362516 0.127655 -0.161669 68 1 84
-0.284742 0.384626 -0.116201 68 1 84
-0.105345 -0.291905 -0.221771 69 191 111
0.516042 0.390301 0.378503 197 223 33
0.442571 -0.073766 -0.151604 68 1 84
-0.633520 -0.318067 0.184164 68 1 84
0.585999 0.179438 0.160047 35 168 131
-0.031084 -0.338282 -0.330556 39 173 128
-0.363131 0.136158 -0.155573 68 1 84
-0.197547 -0.140725 -0.240132 42 119 142
0.175950 0.552614 -0.118571 68 1 84
-0.460645 -0.210967 -0.119506 68 1 84
-0.207831 0.547846 -0.160479 68 1 84
-0.085596 0.385812 -0.259881 68 1 84
0.572475 -0.246322 0.051678 69 5 88
0.237145 -0.103884 -0.227802 56 87 140
0.391776 0.441270 0.041121 44 113 142
0.476738 -0.041333 -0.124369 71 24 106
-0.043520 -0.403249 -0.296203 89 199 100
-0.509898 0.366970 0.125236 70 14 97
-0.342208 0.307924 -0.093058 72 29 111
0.240434 -0.422816 -0.219623 32 144 140
0.634525 0.067844 0.275333 59 81 138
0.231168 -0.197447 -0.181572 32 144 140
0.102679 0.163289 -0.281764 68 1 84
0.212633 0.548411 -0.059131 68 1 84
0.162689 -0.184270 -0.213430 38 172 129
0.275644 0.477657 -0.045016 72 26 108
-0.053145 -0.108053 -0.485635 68 1 84
0.241432 -0.489426 -0.241791 39 126 142
-0.445293 0.260883 -0.039841 68 1 84
-0.580067 0.340934 0.451299 64 68 135
0.532556 0.352916 0.210438 31 149 139
-0.422006 0.076096 -0.164668 68 1 84
-0.361081 -0.435449 -0.194686 68 1 84
0.255842 0.331824 -0.108105 71 24 106
0.246483 -0.256629 -0.180012 35 135 141
-0.585337 -0.545435 0.241390 68 1 84
0.629899 -0.264843 0.208056 68 1 84
0.080240 0.589527 -0.187911 68 1 84
0.664063 -0.424385 0.356679 68 1 84
-0.439716 -0.427153 -0.139010 68 1 84
-0.059870 0.034349 -0.323389 68 1 84
-0.035304 0.278503 -0.324873 68 1 84
-0.363979 -0.375275 -0.148641 68 1 84
0.642793 -0.255134 0.272877 68 1 84
-0.036871 0.070707 -0.316729 68 1 84
0.487022 0.241738 -0.001022 51 96 141
0.684860 -0.545845 0.442214 68 1 84
-0.537120 -0.171806 -0.057116 68 1 84
0.109729 -0.474651 -0.268005 30 160 135
-0.669639 -0.220003 0.241450 68 1 84
-0.160551 -0.169499 -0.247921 39 125 142
-0.595548 -0.138723 0.029780 68 1 84
-0.049257 -0.001150 -0.403318 68 1 84
-0.261298 0.550773 -0.058189 68 1 84
0.545736 0.348642 0.358515 39 173 128
0.553690 0.061977 0.000471 64 67 135
0.597532 -0.120132 0.088813 71 18 101
0.005668 0.428610 -0.276400 68 1 84
0.108686 0.494924 -0.216498 68 1 84
-0.598974 -0.020845 0.046492 68 1 84
0.504786 0.391875 0.201377 36 133 141
0.410194 0.252147 -0.078654 66 62 133
0.299222 -0.305764 -0.168918 52 94 141
0.474188 -0.456288 -0.085949 39 126 142
-0.494347 -0.102481 -0.117994 68 1 84
-0.638171 -0.142611 0.160656 68 1 84
-0.082155 -0.210297 -0.347931 42 176 126
-0.140689 0.038522 -0.250094 71 24 106
0.499639 0.100089 -0.076298 70 48 125
-0.039545 -0.314031 -0.340061 30 156 137
0.644474 -0.501622 0.279973 68 1 84
0.650463 0.016094 0.356422 71 44 123
0.046289 -0.000014 -0.333453 70 11 94
-0.349679 -0.096560 -0.214339 68 1 84
0.029870 0.019358 -0.348524 71 22 105
0.654377 -0.041728 0.372065 69 5 88
-0.414634 0.494115 0.118363 51 97 141
0.580820 0.100935 0.097151 52 95 141
-0.668300 -0.242318 0.434320 68 1 84
0.327812 0.319312 -0.094332 72 35 116
0.600541 0.069622 0.139754 41 121 142
0.672638 -0.369229 0.412102 68 1 84
-0.659717 -0.106370 0.238211 68 1 84
0.166819 0.563406 -0.118009 71 40 120
0.646844 0.069140 0.383286 63 69 135
0.398151 0.162588 -0.139160 68 1 84
-0.492871 0.428434 0.173791 69 54 129
-0.234847 0.305312 -0.181805 68 1 84
-0.369425 0.491340 0.037254 53 92 140
0.572983 0.299587 0.403224 34 137 141
-0.636220 -0.007626 0.180311 68 1 84
-0.058690 0.220199 -0.304317 68 1 84
-0.201944 -0.072050 -0.248961 68 1 84
0.389841 0.422291 0.022751 66 61 132
0.216112 0.408376 -0.130137 68 1 84
0.594302 -0.528323 0.185104 70 45 124
-0.302311 0.150637 -0.167954 68 1 84
0.588110 0.198157 0.182727 31 146 140
0.671083 -0.300646 0.419958 68 1 84
0.203051 -0.316792 -0.171647 79 195 105
-0.279123 0.524901 -0.063702 68 1 84
0.014819 0.292856 -0.317548 68 1 84
-0.316548 0.462977 -0.057485 68 1 84
-0.130829 -0.155403 -0.283725 39 126 142
-0.486965 0.437519 0.176334 67 59 131
0.129953 -0.233095 -0.212775 57 185 118
-0.612274 -0.105445 0.071038 68 1 84
-0.607680 0.268800 0.269373 68 1 84
-0.083472 0.419747 -0.266041 68 1 84
0.617647 0.155794 0.463795 42 119 142
0.159723 0.163495 -0.241353 68 1 84
0.002212 0.255926 -0.321838 68 1 84
0.270260 0.575185 0.094698 44 177 125
0.130179 -0.332933 -0.160537 64 189 114
0.069760 0.098506 -0.290403 68 1 84
0.560238 0.069230 0.018597 61 74 137
-0.631636 -0.315378 0.177093 68 1 84
0.214326 0.201387 -0.185679 68 1 84
-0.568589 0.260575 0.148044 68 1 84
-0.673193 -0.122994 0.291866 68 1 84
0.303074 0.491844 -0.005923 71 38 118
-0.496122 -0.488642 -0.039137 68 1 84
0.631196 -0.062802 0.209014 70 48 125
-0.635547 0.203638 0.386029 68 1 84
0.318215 -0.380700 -0.205294 68 55 129
-0.669476 -0.181268 0.477692 68 1 84
0.596078 0.156440 0.176986 43 116 142
0.672554 -0.284447 0.499072 68 1 84
0.451715 0.468289 0.296396 151 216 62
-0.433704 0.294467 -0.034169 68 1 84
-0.664012 -0.256089 0.484307 68 1 84
0.220314 0.581679 0.027659 31 162 134
0.550052 -0.447060 0.050562 70 14 97
0.075045 -0.307148 -0.248852 141 214 68
-0.662290 -0.330811 0.362511 68 1 84
0.611778 0.061604 0.176196 38 128 142
0.575216 0.293480 0.271909 30 151 138
-0.155993 -0.355851 -0.149534 37 130 142
-0.401963 0.381954 -0.010230 68 1 84
0.635019 -0.350666 0.244047 68 1 84
-0.495601 -0.205238 -0.091154 68 1 84
0.542653 0.107550 -0.003348 61 75 137
-0.086967 0.031524 -0.296175 68 1 84
0.319948 -0.328703 -0.157960 70 45 124
-0.633674 -0.302984 0.175337 68 1 84
-0.334347 0.459576 -0.037326 72 33 114
-0.376680 -0.345107 -0.140679 68 1 84
0.098665 0.500903 -0.223927 68 1 84
-0.208886 0.249513 -0.213185 68 1 84
0.018279 -0.072527 -0.501366 68 1 84
0.601553 -0.103724 0.103717 69 8 91
-0.512488 -0.225326 -0.064349 68 1 84
0.507649 0.143845 -0.042829 50 99 141
-0.212138 -0.416824 -0.201808 46 109 142
-0.459200 0.172666 -0.077656 68 1 84
0.093598 -0.110104 -0.378144 72 34 115
-0.668097 -0.166605 0.515590 68 1 84
0.148307 0.477612 -0.183653 68 1 84
-0.294428 0.083084 -0.200954 68 1 84
0.356121 -0.280428 -0.146823 49 100 141
-0.571033 -0.190587 -0.001520 68 1 84
0.251662 0.260235 -0.116778 33 141 140
0.206992 0.279987 -0.147885 71 38 118
0.170007 0.126873 -0.232156 68 1 84
-0.482326 -0.178708 -0.111457 68 1 84
-0.625641 -0.017520 0.141251 68 1 84
-0.551689 0.143046 0.037521 68 1 84
-0.063792 0.152647 -0.316520 68 1 84
-0.559556 0.350832 0.221675 69 6 90
-0.673706 -0.014812 0.399024 68 1 84
0.270627 -0.402523 -0.224321 63 71 136
-0.287617 0.451550 -0.097973 66 61 132
-0.674997 -0.099406 0.397772 68 1 84
0.176191 0.249148 -0.178572 68 1 84
0.304463 0.094683 -0.212451 68 1 84
-0.073062 -0.118386 -0.466214 68 1 84
0.412032 -0.337881 -0.108547 59 81 138
-0.422532 0.362592 -0.001231 68 1 84
0.097491 -0.112190 -0.339592 61 76 137
0.518108 0.392512 0.313969 64 189 114
-0.287251 0.502772 -0.072099 68 1 84
0.649151 -0.487760 0.294275 68 1 84
0.025916 0.025611 -0.349258 68 1 84
-0.198067 -0.549743 -0.271867 65 65 134
-0.094364 -0.507999 -0.284425 47 179 123
0.560265 0.112693 0.043878 41 120 142
0.387728 -0.451268 -0.185033 65 65 134
-0.050272 -0.371944 -0.301336 149 215 63
-0.075725 -0.317225 -0.276237 56 185 118
-0.662263 -0.352730 0.484347 68 1 84
0.329015 0.069972 -0.215268 68 1 84
0.266015 -0.171396 -0.185248 37 130 142
0.101239 -0.080598 -0.361880 68 1 84
0.121590 0.459788 -0.208783 68 1 84
-0.620727 0.240438 0.466597 68 1 84
0.182895 0.200473 -0.213553 68 1 84
-0.275973 0.030018 -0.224508 68 1 84
-0.602554 -0.344990 0.130315 68 1 84
-0.407447 0.053553 -0.182521 68 1 84
0.595323 -0.379359 0.134463 68 1 84
-0.448944 -0.482585 -0.125064 68 1 84
-0.033302 0.560475 -0.253553 68 1 84
-0.667210 -0.037904 0.321719 68 1 84
0.283047 0.091719 -0.215648 68 1 84
0.514780 -0.016802 -0.080819 69 53 128
-0.653830 -0.368761 0.341922 68 1 84
0.400223 0.449158 0.059763 36 134 141
0.207991 -0.298913 -0.177786 165 218 53
0.639662 0.040143 0.519220 69 54 129
-0.158225 0.527815 -0.219162 68 1 84
-0.588356 0.257015 0.192596 68 1 84
0.470623 -0.444901 -0.092269 42 119 142
-0.675965 -0.104043 0.323575 68 1 84
0.532445 -0.132024 -0.057185 71 21 103
-0.643257 0.178854 0.447835 68 1 84
-0.594150 0.294939 0.252128 68 1 84
0.606334 0.194934 0.448203 37 130 142
0.638767 -0.401366 0.277709 68 1 84
0.627945 -0.038951 0.201680 70 47 124
-0.463060 0.362075 0.046567 71 44 123
-0.335735 -0.363154 -0.163086 71 20 102
-0.265761 0.333802 -0.147447 68 1 84
-0.400947 -0.456370 -0.178144 68 1 84
0.509098 0.379885 0.188545 42 118 142
-0.668209 -0.073484 0.507402 68 1 84
0.471230 0.071778 -0.121130 71 21 103
0.524500 0.020063 -0.063383 68 1 84
-0.267490 -0.459792 -0.220800 60 77 138
-0.112549 -0.229613 -0.261799 30 151 138
0.491895 -0.298792 -0.025737 63 71 136
-0.612288 -0.308663 0.137437 68 1 84
-0.621787 0.028617 0.145625 68 1 84
-0.051847 -0.025858 -0.470008 68 1 84
-0.641981 0.158292 0.482569 68 1 84
0.569436 0.263201 0.187897 36 133 141
0.161470 0.509587 -0.163670 68 1 84
0.537062 -0.382783 0.018033 68 1 84
-0.661893 0.091094 0.426368 68 1 84
-0.095828 0.331902 -0.280686 68 1 84
0.496664 0.265463 0.030665 32 143 140
0.555506 -0.397673 0.050247 68 1 84
0.548745 -0.331533 0.035323 71 21 103
-0.662378 -0.321471 0.470095 68 1 84
-0.185449 -0.356022 -0.154448 37 131 141
0.633875 -0.323184 0.232210 68 1 84
0.569390 -0.455379 0.097752 70 12 95
-0.326862 0.056862 -0.213178 68 1 84
0.627054 -0.296466 0.205012 68 1 84
-0.656264 0.044016 0.266840 68 1 84
0.389364 -0.448964 -0.183893 64 68 135
0.350496 0.066606 -0.206964 68 1 84
-0.671153 -0.069903 0.362912 68 1 84
0.596590 -0.184095 0.090416 70 12 95
0.160138 0.196556 -0.238435 68 1 84
0.559020 -0.131214 -0.017198 71 37 117
0.630125 -0.226714 0.207609 72 32 113
0.566674 -0.509660 0.113288 71 38 118
0.519323 -0.246608 -0.021054 69 50 127
0.496423 -0.134759 -0.096273 68 1 84
0.655105 -0.009667 0.434249 69 53 128
-0.640428 0.017758 0.201124 68 1 84
-0.499568 0.198032 -0.011413 68 1 84
0.541380 0.316219 0.174738 30 157 136
0.093484 -0.255244 -0.245716 146 215 65
-0.620624 0.249951 0.404029 68 1 84
-0.535930 0.150399 0.012253 68 1 84
-0.540124 -0.558406 0.068841 68 1 84
0.556704 -0.074341 -0.023292 70 12 95
0.614658 -0.364753 0.185034 68 1 84
0.557986 -0.363216 0.051584 68 1 84
0.430823 -0.298937 -0.071040 61 75 137
-0.490438 -0.167136 -0.106957 68 1 84
0.576377 -0.052686 0.024136 63 69 135
0.534723 0.266203 0.100097 32 164 133
0.032259 0.533567 -0.258011 68 1 84
-0.511088 0.333709 0.095189 68 1 84
0.003884 0.541902 -0.260983 68 1 84
-0.390805 -0.530805 -0.178991 69 8 91
0.390301 -0.200377 -0.139290 69 54 129
-0.676172 -0.103873 0.328040 68 1 84
0.610258 -0.406000 0.190000 68 1 84
-0.134253 -0.403281 -0.186591 31 150 139
-0.367438 0.276553 -0.096309 68 1 84
-0.622670 0.056452 0.160324 68 1 84
-0.655392 -0.531748 0.412466 68 1 84
-0.163249 -0.238578 -0.208035 37 130 142
-0.576384 0.314332 0.220090 68 1 84
-0.491540 -0.448980 -0.048757 68 1 84
0.591046 -0.123177 0.065913 61 76 137
-0.434058 0.205686 -0.081519 68 1 84
-0.559247 -0.202346 -0.014777 68 1 84
-0.381826 0.294501 -0.082491 71 17 99
0.633436 0.012300 0.237832 50 98 141
0.631380 -0.077889 0.209125 70 12 95
-0.087767 -0.181674 -0.366551 32 164 133
0.028902 -0.320586 -0.340750 32 164 133
0.629835 -0.265849 0.207862 68 1 84
0.668482 -0.218541 0.483158 68 1 84
-0.002911 0.566355 -0.245179 68 1 84
0.484428 -0.282060 -0.036295 69 50 127
0.606467 0.166984 0.511324 35 135 141
0.069443 -0.086635 -0.467304 68 1 84
0.115756 -0.405603 -0.209936 46 178 124
0.125067 -0.527856 -0.286270 66 62 133
-0.111453 0.009869 -0.274626 70 9 92
0.214212 0.574177 -0.006309 53 92 140
-0.628061 0.169680 0.251004 68 1 84
-0.188725 0.429161 -0.202236 68 1 84
0.578877 0.207588 0.161514 30 154 137
0.138395 0.387249 -0.204617 68 1 84
-0.476252 -0.265740 -0.078715 68 1 84
-0.018565 -0.224136 -0.409660 31 162 134
-0.569302 -0.035287 -0.019656 68 1 84
-0.404439 -0.455421 -0.175668 68 1 84
-0.617822 -0.111630 0.091171 68 1 84
-0.361413 0.235007 -0.111175 68 1 84
0.275453 -0.304456 -0.174958 40 122 142
-0.023579 0.293780 -0.321239 68 1 84
0.673953 -0.290307 0.512847 68 1 84
-0.667909 0.030203 0.329239 68 1 84
-0.118108 0.546757 -0.237364 68 1 84
0.022498 0.409103 -0.269381 68 1 84
-0.067744 0.217597 -0.301519 68 1 84
0.626490 0.139262 0.427866 38 127 142
-0.524732 0.425876 0.393997 39 125 142
0.666434 -0.176901 0.410995 72 29 111
-0.179102 0.086942 -0.246807 68 1 84
0.247010 0.072300 -0.221580 68 1 84
-0.445579 -0.550697 -0.115586 68 1 84
-0.218069 -0.315201 -0.177771 58 83 139
-0.673181 -0.057888 0.442427 68 1 84
-0.640049 -0.390246 0.281083 68 1 84
-0.262142 -0.337164 -0.176057 51 96 141
-0.362209 0.208657 -0.118984 68 1 84
0.671481 -0.288529 0.462777 68 1 84
-0.665615 0.068465 0.424985 68 1 84
0.472737 0.416283 0.158203 40 174 127
-0.640550 -0.396742 0.289206 68 1 84
0.103457 0.045547 -0.256763 68 1 84
-0.056995 0.452253 -0.279164 68 1 84
-0.591922 0.168064 0.139412 68 1 84
0.107813 -0.022733 -0.360379 68 1 84
-0.548838 -0.451934 0.054537 68 1 84
-0.180966 0.378697 -0.211698 68 1 84
-0.411248 -0.445443 -0.169823 68 1 84
0.160468 0.213874 -0.230048 68 1 84
-0.463843 0.303209 0.007847 68 1 84
-0.007010 -0.165579 -0.454624 63 71 136
0.164474 0.120813 -0.235716 68 1 84
0.547640 -0.055057 -0.038172 72 28 110
0.587954 -0.540564 0.162682 45 111 142
-0.115597 -0.389286 -0.191178 30 154 137
0.251379 0.497368 -0.058985 68 1 84
-0.311749 0.415089 -0.081645 68 1 84
-0.254886 0.178249 -0.188527 68 1 84
0.349546 -0.482370 -0.209390 45 111 142
-0.258493 0.101097 -0.205030 68 1 84
-0.386511 -0.353013 -0.126805 68 1 84
0.591580 0.210832 0.206399 57 185 118
0.022739 -0.483577 -0.293344 31 147 139
0.570761 0.045573 0.035617 59 81 138
0.643202 -0.050914 0.258340 70 47 124
0.072759 0.545562 -0.228390 68 1 84
-0.305171 0.096772 -0.192954 68 1 84
0.650892 0.032950 0.425842 67 58 131
0.665705 -0.106322 0.473667 68 1 84
-0.125208 -0.077776 -0.345329 68 1 84
-0.668068 0.059335 0.368283 68 1 84
-0.300177 0.091726 -0.196149 68 1 84
-0.424585 -0.399908 -0.138300 68 1 84
0.467816 -0.513774 -0.087011 32 143 140
0.031648 0.271969 -0.319905 68 1 84
-0.553674 0.381455 0.443126 65 65 134
-0.091322 -0.046681 -0.446760 68 1 84
-0.453331 0.127887 -0.111913 68 1 84
0.113792 -0.012852 -0.342459 68 1 84
-0.325388 0.464072 -0.045653 72 29 111
-0.661984 -0.338232 0.398681 68 1 84
0.531605 0.370991 0.349348 100 203 93
-0.482458 -0.287018 -0.058406 68 1 84
-0.068561 0.332782 -0.287656 68 1 84
0.577093 -0.033290 0.027867 66 64 133
0.570318 -0.142996 0.008746 71 15 98
-0.558176 -0.084341 -0.042153 68 1 84
0.233206 -0.299175 -0.181538 85 198 102
0.545799 -0.295718 0.027963 71 43 122
0.658757 -0.040270 0.455168 68 55 129
0.140216 -0.202494 -0.224471 41 175 127
-0.670850 -0.163981 0.235144 68 1 84
-0.313445 -0.289936 -0.175783 43 115 142
0.039373 0.624236 -0.134450 68 1 84
-0.646035 0.076678 0.244318 68 1 84
-0.059896 -0.258968 -0.351816 38 172 129
0.099138 -0.192500 -0.300892 43 115 142
-0.024866 -0.369726 -0.315328 126 210 78
0.613965 0.178802 0.434348 33 140 141
-0.279124 0.574851 0.037616 70 48 125
-0.207044 0.212295 -0.209498 68 1 84
-0.670888 -0.048936 0.365143 68 1 84
0.082953 -0.345915 -0.217679 131 211 75
-0.057021 0.484878 -0.279562 68 1 84
0.462330 -0.415022 -0.100160 54 90 140
0.104323 -0.095290 -0.319877 61 76 137
0.594512 0.155950 0.171828 40 123 142
-0.249200 -0.192791 -0.198082 67 58 131
0.613825 -0.115133 0.153032 68 1 84
-0.648692 -0.022133 0.220963 68 1 84
-0.465777 -0.002889 -0.150460 68 1 84
0.436722 0.229914 -0.070493 47 105 141
0.256042 0.114267 -0.206860 68 1 84
0.437983 0.319432 -0.006555 35 137 141
-0.662180 -0.250779 0.233132 68 1 84
-0.587491 0.336174 0.364256 68 1 84
0.614080 0.187296 0.411261 36 134 141
-0.559764 0.377387 0.427185 53 93 140
0.453821 -0.452170 -0.118659 31 150 139
-0.154814 -0.031824 -0.296726 68 1 84
-0.637771 0.195869 0.389102 68 1 84
-0.137888 0.239738 -0.283075 68 1 84
-0.180359 -0.034882 -0.231580 71 18 101
-0.116989 -0.365042 -0.175655 33 167 132
0.499942 0.198012 -0.015964 49 100 141
0.525942 0.247277 0.066154 39 124 142
-0.025321 0.458143 -0.282043 68 1 84
-0.623169 0.242938 0.407056 68 1 84
-0.271481 0.577094 0.025508 70 12 95
-0.660958 0.104605 0.382928 68 1 84
-0.539876 -0.556862 0.068179 68 1 84
0.328246 0.423234 -0.035085 46 107 142
-0.569087 0.345289 0.243169 68 1 84
0.586383 -0.259668 0.079606 68 1 84
0.627959 0.033635 0.225713 53 93 140
-0.335923 -0.050020 -0.229089 68 1 84
-0.483051 0.475395 0.336320 39 124 142
-0.118294 0.545350 -0.238112 68 1 84
0.659114 -0.180149 0.334909 70 11 94
-0.635912 -0.432514 0.311416 68 1 84
0.565156 0.203996 0.120756 31 148 139
-0.577033 0.346145 0.279145 71 17 99
-0.655769 0.065907 0.278667 68 1 84
0.602890 -0.231066 0.112988 68 1 84
0.555290 -0.204003 0.003953 69 8 91
0.340137 0.023458 -0.220239 68 1 84
-0.121683 0.482052 -0.254512 68 1 84
0.546810 -0.294219 0.028656 72 34 115
-0.096511 -0.200664 -0.325344 31 150 139
-0.058972 0.388575 -0.267014 68 1 84
-0.588981 0.164615 0.131148 68 1 84
0.251095 0.412480 -0.094954 68 1 84
-0.374906 0.212002 -0.114442 68 1 84
0.229059 0.144722 -0.200675 68 1 84
-0.561168 -0.247533 0.015155 68 1 84
-0.584857 -0.282285 0.080768 68 1 84
-0.658182 0.086039 0.464992 68 1 84
-0.536770 0.391911 0.226494 57 84 139
0.467485 0.001874 -0.134914 71 18 101
-0.624012 -0.231594 0.128775 68 1 84
0.244748 0.395759 -0.103197 68 1 84
0.380944 0.524333 0.203752 134 212 73
0.055024 -0.386667 -0.283284 170 219 50
0.293289 0.512085 0.004828 66 64 133
0.567247 0.253759 0.171994 30 155 137
0.401415 -0.437139 -0.174519 59 81 138
0.112928 -0.301886 -0.177944 215 226 25
-0.665441 -0.259147 0.259272 68 1 84
-0.661659 -0.045753 0.574722 68 1 84
0.586968 0.268274 0.326698 30 156 137
0.410307 0.372395 0.003107 60 77 138
0.259615 0.432197 -0.081567 53 93 140
-0.629473 -0.420455 0.254995 68 1 84
0.238792 0.287390 -0.119429 52 94 141
0.478795 -0.228612 -0.074147 67 59 131
0.197539 0.558510 -0.069671 68 1 84
0.407064 0.506350 0.234333 91 200 98
0.584113 -0.451049 0.132844 68 1 84
-0.448065 -0.469587 -0.128537 68 1 84
-0.626256 -0.082786 0.130931 68 1 84
-0.478820 -0.157683 -0.120134 68 1 84
-0.570965 -0.123657 -0.020975 68 1 84
-0.633692 -0.267685 0.159018 68 1 84
0.006962 0.022854 -0.381910 68 1 84
-0.370096 -0.404862 -0.174789 68 1 84
-0.374007 0.395616 -0.031024 71 20 102
0.547756 0.071641 -0.009348 62 73 137
-0.220906 0.060407 -0.218520 68 1 84
0.151503 -0.478881 -0.257372 40 174 127
-0.562107 -0.510754 0.117839 68 1 84
-0.538204 -0.367449 0.031142 68 1 84
-0.671361 -0.204763 0.239433 68 1 84
-0.625951 -0.405774 0.218526 68 1 84
-0.673745 -0.030100 0.403632 68 1 84
-0.176335 0.511125 -0.209424 68 1 84
-0.304932 -0.403109 -0.189731 68 55 129
0.572666 0.040083 0.038470 62 73 137
-0.652279 -0.353870 0.298783 68 1 84
0.343442 0.546074 0.160805 154 216 60
0.666514 -0.120194 0.468468 70 11 94
0.606608 0.202548 0.278618 43 116 142
-0.041949 -0.369953 -0.308806 62 188 115
0.607500 0.019464 0.144053 57 84 139
0.345972 -0.349843 -0.160826 67 60 132
0.096462 0.149567 -0.282836 68 1 84
0.664080 -0.311351 0.322306 68 1 84
-0.005813 -0.040228 -0.494296 68 1 84
-0.567320 -0.471473 0.104322 68 1 84
0.429353 -0.258888 -0.087744 64 67 135
-0.129719 -0.302121 -0.188099 62 188 115
-0.042870 -0.436052 -0.291776 98 202 95
0.255885 0.140690 -0.196202 69 8 91
0.559093 -0.133983 -0.016480 72 28 110
-0.575767 0.071125 0.041581 68 1 84
0.171279 0.108348 -0.229822 68 1 84
0.096765 0.373468 -0.240055 68 1 84
-0.522380 0.430457 0.289692 50 98 141
-0.406343 0.517192 0.154979 48 180 122
-0.134379 0.235706 -0.282775 68 1 84
0.297816 -0.382589 -0.208639 49 102 141
-0.673244 -0.114784 0.433918 68 1 84
-0.058197 0.556568 -0.252119 68 1 84
0.584391 -0.040553 0.048235 71 43 122
-0.141145 0.202112 -0.269493 68 1 84
0.503202 -0.123416 -0.091506 68 1 84
0.592888 0.074162 0.118024 44 112 142
-0.567137 -0.307773 0.060714 68 1 84
0.149806 0.060409 -0.233159 68 1 84
0.612062 -0.270191 0.144030 68 1 84
-0.084833 -0.342385 -0.248652 37 171 129
-0.663071 -0.316463 0.518283 68 1 84
-0.641246 -0.547225 0.361452 68 1 84
-0.284584 -0.491851 -0.224302 67 60 132
-0.293452 0.551388 0.000748 71 39 119
0.112651 0.186309 -0.277620 68 1 84
0.438048 -0.431690 -0.137742 50 98 141
0.273550 0.548671 0.034223 39 124 142
0.276385 -0.180837 -0.179042 41 120 142
-0.405712 -0.344142 -0.106011 69 8 91
0.127177 -0.089671 -0.273914 71 24 106
0.430077 0.065711 -0.161742 68 1 84
0.086153 0.082950 -0.277208 68 1 84
-0.016263 0.503939 -0.277215 68 1 84
-0.332338 0.147732 -0.156719 68 1 84
0.574896 0.147267 0.108284 44 114 142
0.437087 -0.239582 -0.095955 72 25 107
0.051238 -0.163387 -0.435603 68 1 84
0.269016 0.568050 0.070186 69 191 111
-0.557053 0.386464 0.380767 61 75 137
0.227443 0.585348 0.054308 77 194 107
0.674916 -0.440371 0.404472 68 1 84
0.510640 -0.340558 -0.009453 70 9 92
-0.301924 -0.528649 -0.229571 67 59 131
-0.226906 0.046185 -0.215694 68 1 84
-0.068969 -0.186219 -0.401305 30 156 137
-0.448261 0.430547 0.085220 71 42 121
-0.370433 -0.325352 -0.151743 69 6 90
0.074522 0.275444 -0.300108 68 1 84
0.173703 0.588845 -0.036944 51 96 141
-0.516647 0.173517 -0.004053 68 1 84
0.166828 0.602053 0.003574 31 162 134
-0.188772 -0.461885 -0.221821 30 153 138
0.687049 -0.546092 0.479317 68 1 84
-0.374723 -0.343515 -0.143809 68 1 84
-0.175162 -0.466686 -0.230680 30 159 136
-0.663857 0.072572 0.336736 68 1 84
-0.126320 0.232757 -0.286811 68 1 84
-0.564194 0.012234 -0.014726 68 1 84
-0.087870 -0.401685 -0.253054 38 172 129
0.553450 0.339932 0.325390 38 172 129
0.597074 -0.325897 0.119270 68 1 84
-0.376332 -0.124111 -0.194579 68 1 84
0.385203 -0.161770 -0.162107 71 37 117
0.320674 0.453024 -0.019264 49 100 141
-0.296440 0.249292 -0.122780 68 1 84
-0.469774 0.029177 -0.141359 68 1 84
0.339416 0.040380 -0.217942 68 1 84
0.321525 -0.484849 -0.221259 35 137 141
0.134024 -0.010058 -0.261045 68 1 84
0.484310 -0.240483 -0.061060 71 24 106
-0.081804 -0.258898 -0.296621 31 148 139
0.562829 0.320716 0.434846 77 194 107
0.110386 -0.242951 -0.231507 77 194 107
-0.661778 0.088357 0.342857 68 1 84
0.622694 -0.248064 0.174101 68 1 84
0.055288 -0.182311 -0.414677 71 15 98
-0.453986 -0.365800 -0.079712 68 1 84
-0.309609 0.288216 -0.112520 71 22 105
-0.224145 0.592673 -0.018194 70 47 124
-0.052697 0.125668 -0.311071 68 1 84
0.110097 0.616890 -0.066568 52 94 141
-0.511856 -0.422817 -0.010061 68 1 84
-0.217654 0.162846 -0.232643 68 1 84
-0.470325 -0.255771 -0.089413 68 1 84
-0.499794 0.295449 0.047832 68 1 84
-0.650755 0.079477 0.513186 68 1 84
-0.224406 0.202876 -0.198641 68 1 84
0.009764 -0.028998 -0.482206 68 1 84
-0.510155 -0.334346 -0.006147 68 1 84
0.542870 0.130178 0.011049 70 49 126
-0.671659 -0.049110 0.463728 68 1 84
-0.524319 -0.124338 -0.082410 68 1 84
-0.593820 0.324394 0.338447 68 1 84
-0.545009 0.399590 0.415078 53 92 140
0.261963 -0.264833 -0.180652 39 126 142
-0.456209 0.467991 0.160967 39 124 142
-0.370899 -0.258490 -0.143869 66 62 133
0.078189 0.303928 -0.288001 68 1 84
0.639171 0.087004 0.359038 59 80 138
0.524839 0.377280 0.381167 212 225 26
-0.167855 -0.190391 -0.232704 31 148 139
0.384480 -0.528577 -0.185983 45 110 142
-0.662623 -0.274943 0.510270 68 1 84
0.587051 0.105217 0.118733 42 119 142
-0.636460 -0.161824 0.150880 68 1 84
0.541855 0.098458 -0.009725 49 102 141
-0.462996 -0.369000 -0.072803 68 1 84
0.642452 -0.017495 0.268057 53 92 140
-0.563027 0.166697 0.076371 68 1 84
-0.048307 -0.280975 -0.353507 34 138 141
-0.199931 -0.268891 -0.178646 35 137 141
-0.663148 -0.383552 0.490510 68 1 84
0.436115 0.473055 0.193268 154 216 60
0.219658 0.208087 -0.176041 68 1 84
0.626735 -0.310158 0.207898 68 1 84
0.664778 -0.094903 0.477117 68 1 84
-0.488626 -0.140895 -0.115606 68 1 84
-0.583165 -0.485198 0.166838 68 1 84
-0.280038 -0.232662 -0.172591 40 123 142
-0.325474 0.171810 -0.145686 68 1 84
-0.287977 -0.117692 -0.227391 68 1 84
-0.228525 -0.314569 -0.180103 53 93 140
0.363220 0.500304 0.073192 32 143 140
0.580952 0.090938 0.090663 49 101 141
-0.580170 0.348526 0.378617 69 8 91
-0.467943 0.455977 0.165673 53 93 140
0.610660 0.166669 0.500490 41 121 142
-0.420487 0.319848 -0.034195 68 1 84
-0.544588 0.108091 0.001106 68 1 84
0.074055 -0.243070 -0.325485 34 137 141
0.115999 0.351465 -0.236391 68 1 84
-0.150484 0.499650 -0.231842 68 1 84
-0.143826 0.025640 -0.243957 63 71 136
0.336783 -0.152032 -0.181220 64 67 135
-0.580754 0.348453 0.368611 68 1 84
0.236499 -0.499464 -0.247877 33 141 140
-0.039839 -0.251914 -0.380156 35 136 141
0.658795 -0.370005 0.315714 68 1 84
-0.067657 -0.317273 -0.299714 30 156 137
0.643690 -0.039966 0.268696 68 57 130
0.323485 -0.306714 -0.161266 63 69 135
-0.667931 -0.203925 0.219254 68 1 84
0.615974 -0.432746 0.222159 68 1 84
0.641703 -0.003471 0.269105 51 96 141
0.052579 -0.366100 -0.291962 57 185 118
-0.097589 -0.038208 -0.428037 68 1 84
-0.121345 -0.250995 -0.234139 30 152 138
-0.642190 0.114543 0.524167 68 1 84
0.086819 -0.304620 -0.216045 207 225 28
0.265842 0.562215 0.050546 34 167 132
0.646032 0.014954 0.542638 51 96 141
-0.522900 0.325381 0.108515 68 1 84
-0.402943 0.512660 0.134019 36 132 141
-0.578770 -0.509313 0.180894 68 1 84
-0.299409 0.536388 -0.013299 69 54 129
0.607158 -0.044183 0.131827 71 24 106
-0.668099 0.043826 0.340086 68 1 84
0.003410 0.370761 -0.272069 68 1 84
0.416886 0.162601 -0.126313 68 1 84
0.653102 -0.350555 0.286400 68 1 84
0.641835 -0.295303 0.251360 68 1 84
0.126840 0.609250 -0.070537 50 99 141
0.592719 -0.272655 0.095193 68 1 84
0.215645 0.072133 -0.218823 68 1 84
-0.610824 -0.164368 0.074949 68 1 84
0.348474 -0.547046 -0.210641 51 97 141
0.553465 0.302010 0.189389 40 122 142
-0.479639 0.349713 0.059543 71 39 119
-0.195976 -0.134333 -0.242820 54 91 140
-0.591112 0.047797 0.064747 68 1 84
0.667509 -0.185884 0.446024 68 1 84
-0.067930 0.484303 -0.278258 68 1 84
0.307924 -0.098614 -0.212624 68 1 84
0.132825 -0.325439 -0.159008 47 179 123
-0.403415 0.392864 -0.002169 72 32 113
-0.401719 0.266146 -0.080793 69 50 127
-0.552034 -0.407021 0.051943 68 1 84
-0.077101 0.366303 -0.265765 68 1 84
-0.606176 -0.507419 0.263597 68 1 84
0.406362 -0.412428 -0.168881 62 72 136
0.173578 0.577657 -0.075715 72 25 107
0.113287 -0.266090 -0.203821 218 226 24
0.375496 0.415540 0.002285 69 52 127
-0.131114 0.590540 -0.186495 68 1 84
0.156821 -0.135562 -0.242811 59 81 138
-0.587387 0.122596 0.104277 68 1 84
-0.064683 -0.172082 -0.422840 34 138 141
-0.106212 -0.216505 -0.285202 34 139 141
0.655950 -0.511908 0.301615 68 1 84
0.271958 0.573126 0.090896 98 202 95
-0.121616 0.605028 -0.163429 68 1 84
-0.591869 -0.530255 0.244088 68 1 84
-0.154190 -0.043342 -0.298613 68 1 84
-0.668114 -0.243528 0.435545 68 1 84
-0.350245 -0.405113 -0.186419 68 1 84
0.383448 0.290810 -0.076242 71 24 106
-0.489138 -0.489190 -0.054040 68 1 84
0.459455 0.253249 -0.029466 35 136 141
-0.610721 -0.554882 0.301956 68 1 84
-0.205487 -0.169602 -0.225718 45 110 142
-0.564339 -0.508110 0.122295 68 1 84
0.563954 -0.209720 0.021851 69 6 90
0.312761 0.120003 -0.198537 68 1 84
-0.664657 -0.288058 0.283592 68 1 84
0.559359 0.326769 0.415717 30 153 138
0.637479 0.031024 0.263391 52 94 141
0.672670 -0.306189 0.466905 68 1 84
0.638133 -0.182667 0.241004 70 45 124
0.569337 -0.106923 0.001300 59 80 138
-0.575514 -0.352392 0.085399 68 1 84
0.646054 -0.011447 0.298774 64 68 135
0.664112 -0.205805 0.361439 68 1 84
0.395571 -0.013821 -0.193350 68 1 84
0.216069 0.242545 -0.138437 59 80 138
0.430738 0.285698 -0.037687 34 139 141
-0.174656 -0.031969 -0.230603 70 9 92
0.559949 -0.267937 0.038859 71 39 119
0.115277 -0.223881 -0.241639 85 198 102
0.164661 0.530646 -0.150949 68 1 84
0.243860 0.273809 -0.116253 41 121 142
0.255994 0.565401 0.042931 35 169 130
0.577482 -0.094725 0.022430 54 90 140
-0.572319 0.328977 0.227993 68 1 84
0.667640 -0.186485 0.491033 68 1 84
-0.590206 -0.494922 0.201579 68 1 84
0.678621 -0.352646 0.514382 68 1 84
-0.009939 0.280835 -0.325100 68 1 84
0.274147 -0.145089 -0.198224 57 84 139
-0.386270 -0.378911 -0.137653 68 1 84
-0.301547 -0.566309 -0.233839 68 1 84
0.558897 -0.443132 0.067712 72 34 115
0.111263 -0.267687 -0.204800 225 227 24
0.571144 -0.439110 0.095217 69 5 88
0.498212 0.411361 0.398641 170 219 50
-0.455180 -0.102937 -0.152418 68 1 84
0.254531 0.161057 -0.186704 71 21 103
0.632575 0.109353 0.322662 49 102 141
-0.641069 0.081683 0.229846 68 1 84
0.551109 -0.425293 0.046900 70 11 94
0.014422 0.185442 -0.314570 68 1 84
-0.670522 -0.091955 0.480567 68 1 84
0.000062 -0.035979 -0.490322 68 1 84
0.663931 -0.362025 0.334251 68 1 84
-0.006780 0.097175 -0.309236 68 1 84
-0.631386 0.056385 0.187276 68 1 84
0.509857 0.273859 0.058156 31 146 140
0.432398 -0.044922 -0.163936 70 14 97
0.332981 -0.193077 -0.160453 59 80 138
0.575446 0.056914 0.054212 57 85 139
-0.133012 0.119711 -0.279724 68 1 84
0.288033 0.396293 -0.075474 63 69 135
-0.266461 -0.524765 -0.239125 49 102 141
-0.673272 -0.120674 0.432064 68 1 84
-0.558660 0.379198 0.427037 70 45 124
0.653886 0.014981 0.389612 64 67 135
-0.042738 -0.247570 -0.380708 31 150 139
-0.335879 0.073755 -0.203275 68 1 84
0.465667 0.190800 -0.067897 72 33 114
-0.533052 -0.493913 0.039012 68 1 84
-0.176843 -0.486131 -0.249173 32 164 133
0.225376 0.293788 -0.130617 66 61 132
-0.632331 0.063299 0.193511 68 1 84
0.182145 -0.144995 -0.223699 31 149 139
-0.578438 0.020570 0.017201 68 1 84
-0.663786 -0.218290 0.529942 68 1 84
0.052044 -0.463054 -0.284912 50 181 122
-0.652811 -0.097399 0.218685 68 1 84
0.592170 0.197981 0.196666 34 137 141
-0.415791 -0.444274 -0.165945 68 1 84
-0.616480 0.256176 0.457348 68 1 84
0.197871 -0.035751 -0.248120 68 1 84
0.078327 -0.237511 -0.311623 34 167 132
0.151336 -0.247356 -0.184612 94 201 97
0.671646 -0.306687 0.431447 68 1 84
0.549881 -0.169702 -0.020865 71 17 99
0.083573 0.298604 -0.286774 68 1 84
0.043217 -0.016069 -0.425240 68 1 84
0.596195 -0.186044 0.089590 69 5 88
-0.033878 0.573276 -0.242555 68 1 84
-0.455796 -0.204795 -0.125789 68 1 84
-0.386698 -0.243621 -0.141712 69 50 127
0.093474 -0.115494 -0.368294 69 5 88
-0.527130 0.239834 0.053595 68 1 84
-0.090755 -0.117957 -0.443640 71 20 102
0.194022 0.090982 -0.219072 68 1 84
0.241785 0.401973 -0.103961 68 1 84
-0.538669 0.406295 0.282202 65 66 134
0.641362 0.088980 0.398885 51 96 141
-0.658370 -0.368867 0.396886 68 1 84
-0.367784 0.004915 -0.214621 68 1 84
0.596205 0.023791 0.103265 63 71 136
0.527364 -0.293292 0.006997 63 69 135
-0.211976 0.591003 -0.058603 68 1 84
-0.137103 0.496976 -0.242139 68 1 84
0.310175 0.169138 -0.168094 68 1 84
-0.130043 0.432633 -0.244777 68 1 84
-0.405129 -0.351543 -0.106486 68 1 84
-0.611265 0.280775 0.333512 68 1 84
-0.649017 -0.219137 0.175125 68 1 84
0.649412 -0.220751 0.301436 68 1 84
0.559145 0.202628 0.106057 45 111 142
-0.595682 -0.225769 0.065758 68 1 84
0.274749 -0.346916 -0.172218 64 189 114
-0.294356 0.356155 -0.112114 68 1 84
-0.090847 -0.336125 -0.230826 57 185 118
0.655987 -0.013733 0.438467 69 53 128
-0.655520 0.122769 0.429088 68 1 84
0.563793 -0.350707 0.060024 68 2 85
-0.064282 -0.047496 -0.479047 71 17 99
0.238596 0.557749 -0.001670 56 86 139
-0.666148 -0.203088 0.497023 68 1 84
-0.055293 -0.010705 -0.399254 68 1 84
0.115521 -0.077135 -0.307717 69 8 91
-0.623705 0.233900 0.462573 68 1 84
-0.522170 0.429319 0.389909 33 142 140
-0.573157 0.097522 0.054277 68 1 84
-0.137942 -0.146473 -0.276486 42 117 142
-0.325469 -0.414945 -0.204264 68 55 129
0.625528 0.138526 0.441560 46 107 142
-0.671047 -0.140396 0.472769 68 1 84
0.482547 -0.070830 -0.116894 68 1 84
-0.048380 -0.218173 -0.394953 33 167 132
-0.670932 -0.000493 0.345705 68 1 84
0.268240 0.558472 0.045501 31 146 140
0.055440 -0.226423 -0.380045 57 85 139
-0.668022 -0.274996 0.297386 68 1 84
0.166736 0.490043 -0.163710 68 1 84
-0.456027 -0.064899 -0.158325 68 1 84
0.197087 0.490360 -0.130785 68 1 84
-0.367484 0.156818 -0.141003 68 1 84
0.109121 0.037025 -0.252096 68 1 84
0.276263 0.442592 -0.063199 34 137 141
-0.099949 -0.423826 -0.243910 35 136 141
-0.126134 -0.038172 -0.369213 68 1 84
0.646208 -0.217362 0.290000 68 1 84
0.445141 -0.181235 -0.123773 58 82 139
-0.670349 -0.047551 0.477606 68 1 84
-0.112669 -0.526506 -0.287264 35 169 130
0.575453 -0.005677 0.030391 71 43 122
-0.554215 0.273119 0.126353 68 1 84
-0.675814 -0.134498 0.385253 68 1 84
-0.618019 0.041275 0.140353 68 1 84
-0.661500 0.080808 0.327433 68 1 84
-0.669151 -0.058996 0.329906 68 1 84
0.677542 -0.519134 0.397671 68 1 84
-0.059296 0.229154 -0.308521 68 1 84
-0.441850 0.435693 0.080455 72 34 115
-0.212799 0.569875 -0.121843 68 1 84
0.551661 -0.057767 -0.031580 68 1 84
0.025351 -0.007162 -0.439844 68 1 84
-0.475647 -0.347325 -0.045750 68 1 84
0.482246 0.420767 0.196585 35 168 131
-0.484696 0.473645 0.339467 30 160 135
0.372737 0.476335 0.053517 51 96 141
-0.578401 -0.368941 0.092940 68 1 84
-0.492023 0.346996 0.075221 68 2 85
0.044437 0.218711 -0.292481 68 1 84
0.070557 0.315304 -0.285747 68 1 84
-0.671212 -0.146942 0.470313 68 1 84
-0.513746 0.056112 -0.077881 68 1 84
0.492987 0.378435 0.141366 57 84 139
-0.347200 0.303082 -0.093115 68 1 84
-0.616742 -0.376503 0.173336 68 1 84
0.667286 -0.144644 0.465850 68 2 85
0.232455 0.565842 0.004797 47 106 141
0.638171 -0.206186 0.249697 71 39 119
0.168155 0.532479 -0.145598 68 1 84
0.280508 0.081794 -0.219677 68 1 84
0.173894 0.170504 -0.229075 68 1 84
-0.379402 -0.021690 -0.210628 68 1 84
0.193461 -0.420450 -0.208481 30 160 135
-0.245765 0.496044 -0.134744 68 1 84
0.488307 -0.322670 -0.030105 70 45 124
0.604851 0.131691 0.191023 47 105 141
-0.591083 -0.367497 0.114791 68 1 84
-0.659219 0.084704 0.314770 68 1 84
0.564934 0.258832 0.170617 30 153 138
0.085771 0.477688 -0.239401 68 1 84
0.356438 0.446208 0.009343 49 102 141
-0.612606 0.032723 0.118433 68 1 84
0.561342 0.003921 -0.000759 68 57 130
0.622582 0.056658 0.215193 49 101 141
0.166609 0.349454 -0.191836 68 1 84
-0.001334 0.161495 -0.317705 68 1 84
-0.177576 -0.174188 -0.234689 35 137 141
-0.603889 0.065430 0.112156 68 1 84
0.182996 -0.536059 -0.275880 46 109 142
0.557069 -0.173363 -0.006781 71 17 99
0.065559 -0.119768 -0.459109 68 1 84
0.277790 -0.331015 -0.170026 30 159 136
-0.180780 -0.165685 -0.236822 31 161 135
-0.606421 -0.106241 0.053512 68 1 84
-0.161849 0.265265 -0.269526 68 1 84
-0.536242 0.411005 0.412837 47 105 141
-0.501140 0.454354 0.277342 52 94 141
-0.022218 -0.425318 -0.299097 75 194 108
0.474854 -0.500243 -0.074320 33 140 141
0.091042 0.107799 -0.278460 68 1 84
0.427587 -0.464191 -0.150865 32 144 140
-0.423412 0.465695 0.087026 65 66 134
0.619116 -0.300289 0.175142 68 1 84
-0.097165 -0.365276 -0.215127 30 153 138
-0.612553 -0.141565 0.073840 68 1 84
-0.542666 -0.118721 -0.062054 68 1 84
0.533090 0.204065 0.046946 45 110 142
0.678179 -0.438016 0.424002 68 1 84
0.405469 -0.532462 -0.166191 38 172 129
-0.169456 -0.460835 -0.226802 36 170 130
-0.622865 -0.085585 0.117743 68 1 84
-0.320273 -0.131914 -0.213529 71 20 102
0.156261 0.253862 -0.209335 68 1 84
0.125040 -0.033492 -0.333655 68 1 84
0.433526 0.316604 -0.013342 30 154 137
-0.102613 -0.063463 -0.436197 68 1 84
-0.272444 0.388130 -0.128262 68 1 84
0.568690 -0.265359 0.051060 68 3 87
-0.553576 -0.513623 0.098272 68 1 84
0.341194 0.466918 0.010475 57 85 139
-0.404338 0.376696 -0.011438 68 1 84
0.501066 -0.214593 -0.060619 72 32 113
0.639477 0.090611 0.371330 63 71 136
-0.118178 0.289463 -0.297001 68 1 84
0.529438 0.027252 -0.054452 72 34 115
0.585850 0.259842 0.250206 39 126 142
0.600027 0.226654 0.279283 38 129 142
0.643365 0.001830 0.281424 49 101 141
-0.381403 -0.100146 -0.199482 68 1 84
-0.124627 -0.419784 -0.209817 34 139 141
-0.129936 0.568720 -0.214837 68 1 84
0.210364 -0.439824 -0.217793 43 115 142
-0.536220 -0.462058 0.034218 68 1 84
0.572215 -0.506273 0.125467 72 32 113
0.042556 0.302097 -0.305931 68 1 84
0.654072 -0.042807 0.368862 70 14 97
-0.580715 -0.394547 0.102106 68 1 84
-0.103978 -0.122426 -0.382264 71 37 117
-0.166123 -0.196870 -0.231076 33 140 141
-0.413498 -0.536348 -0.157549 68 1 84
0.468927 0.451076 0.293766 87 198 101
-0.609951 -0.208108 0.088175 68 1 84
-0.617892 -0.443145 0.228798 68 1 84
0.616043 -0.350618 0.183752 68 1 84
0.127165 0.465147 -0.203652 68 1 84
0.270093 0.095907 -0.214349 68 1 84
-0.482808 -0.058756 -0.134712 68 1 84
0.122967 0.601770 -0.113258 59 81 138
-0.622275 -0.301397 0.150941 68 1 84
0.181038 0.044486 -0.223223 68 1 84
-0.602081 0.301964 0.376071 68 1 84
0.385354 -0.116478 -0.178459 68 3 87
0.041785 0.172830 -0.311427 68 1 84
0.562761 -0.417285 0.068668 68 3 87
0.512794 0.381604 0.205693 31 161 135
-0.243984 0.491210 -0.138765 68 1 84
0.300047 0.366019 -0.083489 71 38 118
-0.426507 0.108092 -0.145910 68 1 84
0.589473 0.112268 0.129842 47 106 141
0.411863 -0.353787 -0.130208 72 25 107
-0.666344 -0.078189 0.533954 68 1 84
0.609611 -0.386828 0.177701 68 1 84
-0.601997 0.022587 0.078386 68 1 84
-0.299574 0.096791 -0.194091 68 1 84
-0.334688 0.381103 -0.070558 71 17 99
0.158283 0.587318 -0.081313 64 67 135
0.625765 -0.382198 0.232834 68 1 84
-0.565699 0.170651 0.084707 68 1 84
0.089593 -0.330564 -0.198102 202 224 30
0.636620 0.050661 0.521352 47 105 141
0.403648 0.162587 -0.135663 71 18 101
-0.315735 -0.379477 -0.170999 68 1 84
-0.606975 0.171949 0.180006 68 1 84
-0.319800 0.106910 -0.185575 68 1 84
-0.435284 -0.436132 -0.145976 68 1 84
0.217459 0.248698 -0.135687 68 57 130
-0.640663 0.098003 0.239885 68 1 84
0.497198 0.065661 -0.091406 70 47 124
-0.661077 -0.375137 0.443870 68 1 84
0.604765 0.182941 0.490120 35 137 141
-0.617574 0.172780 0.566115 70 49 126
0.337059 -0.353152 -0.163956 56 86 139
0.633183 -0.114428 0.214759 70 47 124
0.329114 0.507117 0.039520 50 99 141
0.592857 -0.115285 0.071601 67 58 131
0.423434 0.231643 -0.080615 57 85 139
-0.428324 -0.318290 -0.086884 68 1 84
0.650935 -0.342279 0.277402 68 1 84
-0.221106 0.397297 -0.173985 68 1 84
0.615519 0.179915 0.304156 50 99 141
-0.267105 0.212643 -0.144588 68 1 84
0.627392 0.148190 0.360382 44 112 142
-0.199349 0.553581 -0.167131 68 1 84
-0.184543 -0.528442 -0.272390 41 120 142
0.604688 0.219780 0.318385 33 140 141
-0.465896 -0.290094 -0.070116 68 1 84
0.140526 0.529368 -0.177425 68 1 84
0.386581 0.006352 -0.198481 68 1 84
-0.406851 -0.052315 -0.194697 68 1 84
-0.559736 0.383189 0.350672 70 48 125
0.569259 0.237061 0.160325 30 156 137
0.512874 -0.286646 -0.009061 72 29 111
-0.214056 -0.103798 -0.247418 68 1 84
-0.402075 -0.321647 -0.118600 68 1 84
-0.380341 0.014186 -0.207193 68 1 84
-0.369230 -0.122892 -0.198432 68 1 84
-0.615897 -0.420607 0.200257 68 1 84
0.115064 -0.261138 -0.206653 186 222 39
-0.604267 0.293419 0.301181 68 1 84
0.375912 0.168379 -0.148114 68 1 84
-0.369244 -0.227289 -0.154568 68 3 87
0.002631 -0.175876 -0.446138 61 74 137
-0.664664 -0.148824 0.218311 68 1 84
-0.578575 -0.469111 0.135424 68 1 84
-0.650235 0.101418 0.499083 68 1 84
-0.338737 0.145424 -0.156164 68 1 84
0.049095 0.258563 -0.311522 68 1 84
-0.102578 0.457870 -0.265058 68 1 84
0.093787 -0.125146 -0.356607 72 26 108
0.187801 0.316952 -0.174100 68 1 84
0.659154 -0.048015 0.508144 69 6 90
0.237443 0.110942 -0.209060 68 1 84
0.553742 -0.507619 0.079122 70 45 124
-0.594908 -0.533485 0.263023 68 1 84
-0.664374 -0.054153 0.277959 68 1 84
-0.159258 0.544741 -0.210955 68 1 84
0.031705 -0.001169 -0.359208 68 1 84
0.540266 0.106409 -0.009070 51 96 141
0.087544 -0.014422 -0.343911 68 1 84
-0.061415 -0.185103 -0.411699 31 146 140
-0.197028 -0.510320 -0.259228 37 131 141
0.133209 0.546350 -0.176583 68 1 84
-0.583036 -0.202623 0.026887 68 1 84
0.565642 -0.068841 -0.004939 70 48 125
0.306976 -0.224554 -0.161899 59 80 138
0.083271 0.317888 -0.277380 68 1 84
0.666646 -0.117323 0.516105 68 1 84
-0.598945 -0.238071 0.081606 68 1 84
-0.560351 0.229794 0.110075 68 1 84
0.571905 0.303345 0.330983 31 162 134
-0.498059 0.378309 0.115090 71 20 102
-0.163434 0.463544 -0.223839 68 1 84
-0.668725 -0.159638 0.509530 68 1 84
-0.657436 -0.462357 0.412557 68 1 84
0.310140 0.554060 0.102852 85 198 102
-0.415732 0.051118 -0.178108 68 1 84
0.270878 -0.404297 -0.224761 63 71 136
-0.553170 0.385978 0.427776 66 62 133
0.634538 0.080092 0.290216 47 106 141
-0.152745 0.000911 -0.234253 69 5 88
0.601638 0.151804 0.191619 50 98 141
0.100124 -0.177267 -0.311335 51 96 141
-0.132662 0.291287 -0.286565 68 1 84
-0.657734 -0.420198 0.413332 68 1 84
0.529550 0.365768 0.422233 116 208 84
-0.186381 0.090710 -0.244234 68 1 84
-0.286370 0.178304 -0.161899 68 1 84
0.001062 0.577542 -0.234729 68 1 84
-0.663229 -0.282377 0.479771 68 1 84
0.618757 -0.115547 0.173668 71 17 99
-0.060974 0.399915 -0.267738 68 1 84
0.280091 -0.463057 -0.226522 50 98 141
0.398029 -0.260967 -0.109580 66 64 133
-0.414629 0.404666 0.018368 71 20 102
-0.486895 -0.221120 -0.093000 68 1 84
-0.318479 -0.526662 -0.222789 51 96 141
-0.369783 0.542959 0.153045 40 174 127
-0.280682 0.341303 -0.130933 68 1 84
-0.248859 -0.176575 -0.208379 61 76 137
-0.382774 -0.353592 -0.130662 68 1 84
0.650336 -0.130418 0.302983 70 11 94
0.127954 -0.060986 -0.285069 71 24 106
0.167236 -0.084617 -0.249487 46 109 142
-0.063791 0.088263 -0.308737 68 1 84
0.620382 0.176610 0.360920 43 116 142
0.637747 -0.100303 0.225134 70 11 94
-0.588134 0.047618 0.056447 68 1 84
0.122961 0.237258 -0.244959 68 1 84
0.571548 -0.322071 0.067863 68 1 84
-0.283672 -0.425832 -0.220648 58 83 139
-0.168559 -0.485244 -0.252366 30 159 136
0.229837 0.113583 -0.208719 68 1 84
0.487711 0.226250 -0.011906 53 93 140
0.097840 -0.467435 -0.268824 31 150 139
-0.626819 0.210478 0.287396 68 1 84
-0.242458 -0.472512 -0.222037 54 91 140
0.046995 0.604927 -0.185693 68 1 84
-0.310776 0.427757 -0.078996 68 1 84
0.668277 -0.369046 0.371823 68 1 84
0.130918 0.549779 -0.177042 68 1 84
-0.667212 -0.142067 0.568877 68 1 84
0.655973 -0.033902 0.419341 57 84 139
0.206227 0.524202 -0.099440 68 3 87
0.017778 0.584368 -0.224748 68 1 84
-0.195418 0.080011 -0.235759 68 1 84
-0.147688 -0.253336 -0.209832 31 146 140
-0.417581 0.498013 0.133272 41 121 142
0.597058 -0.204635 0.094939 70 9 92
0.052796 0.098591 -0.299997 68 1 84
-0.199976 0.481624 -0.191698 68 1 84
0.651625 -0.031407 0.361634 57 85 139
-0.114883 -0.339832 -0.179235 71 192 110
-0.302085 0.270621 -0.119175 68 1 84
0.082547 -0.013256 -0.327587 68 1 84
-0.642676 0.173766 0.457320 68 1 84
0.622292 0.015409 0.195476 49 101 141
0.596137 -0.367681 0.132099 68 1 84
-0.638895 0.150149 0.278331 68 1 84
-0.148356 -0.019043 -0.278421 68 1 84
-0.063862 -0.004471 -0.336816 68 1 84
-0.046352 -0.398707 -0.296044 103 204 92
-0.610326 0.227805 0.534418 72 28 110
-0.664953 -0.220502 0.492902 68 1 84
-0.535794 -0.500493 0.047348 68 1 84
0.370261 -0.541425 -0.195841 44 114 142
-0.545434 0.341877 0.170879 68 1 84
-0.183663 -0.211568 -0.210903 46 108 142
0.187212 0.234098 -0.171226 70 49 126
0.474433 0.149367 -0.084075 72 25 107
0.670205 -0.279295 0.415212 68 1 84
0.022957 -0.001004 -0.377062 68 1 84
-0.085504 0.027797 -0.298382 68 1 84
0.078645 -0.405424 -0.256604 98 202 95
-0.361948 -0.399592 -0.174969 68 1 84
-0.402256 0.193931 -0.109995 68 1 84
-0.199794 -0.380781 -0.163665 39 125 142
0.624995 -0.125437 0.194623 71 44 123
0.296033 0.372684 -0.082114 68 1 84
-0.500764 -0.375943 -0.021593 68 1 84
-0.063552 0.169296 -0.317078 68 1 84
0.428232 0.489541 0.289136 170 219 50
-0.643193 0.151526 0.304826 68 1 84
0.332885 0.070767 -0.213587 68 1 84
-0.124060 0.411536 -0.244881 68 1 84
0.671693 -0.290750 0.468613 68 1 84
0.585559 -0.148021 0.051250 70 48 125
-0.562803 0.375167 0.307271 71 39 119
0.646855 0.021313 0.318969 50 98 141
0.014593 -0.062063 -0.500910 68 1 84
0.020771 -0.271436 -0.379903 34 137 141
0.429133 0.431214 0.085237 35 136 141
-0.355494 -0.364694 -0.151942 72 25 107
0.644479 -0.378887 0.281302 68 1 84
-0.544473 0.096093 -0.006246 68 1 84
-0.029367 -0.225175 -0.404531 33 167 132
0.478932 -0.085506 -0.119169 71 20 102
0.055072 0.461501 -0.262752 68 1 84
-0.668999 -0.281698 0.359722 68 1 84
-0.026654 -0.226978 -0.404459 34 167 132
-0.087921 -0.486983 -0.279955 50 181 122
-0.649407 0.135913 0.325810 68 1 84
0.640919 0.039146 0.286816 53 92 140
0.293768 0.185671 -0.160970 71 42 121
-0.456849 -0.311055 -0.063302 68 1 84
0.268337 -0.060687 -0.236541 70 9 92
-0.120720 -0.137941 -0.301001 36 132 141
-0.596271 0.311225 0.436774 70 14 97
-0.139030 -0.002476 -0.251876 72 35 116
0.587566 0.262167 0.354055 32 144 140
0.564423 0.140543 0.075114 44 112 142
0.599514 -0.394268 0.151045 68 1 84
0.149781 0.176852 -0.249054 68 1 84
-0.190848 0.419448 -0.200831 68 1 84
0.361975 0.110556 -0.185954 68 1 84
0.669264 -0.354900 0.381540 68 1 84
0.505898 0.091861 -0.070818 68 55 129
0.573990 0.295000 0.354132 31 147 139
-0.024480 -0.221055 -0.409266 36 170 130
0.354495 -0.100483 -0.195943 68 1 84
-0.658815 -0.026277 0.564394 68 1 84
0.282060 0.081640 -0.219694 68 1 84
-0.611589 -0.521235 0.286123 68 1 84
0.604121 -0.138772 0.113090 69 8 91
0.650270 -0.342893 0.275946 68 1 84
-0.339004 0.382291 -0.066867 69 6 90
-0.296409 -0.412483 -0.205008 57 84 139
-0.483425 0.435197 0.162377 49 102 141
0.472995 0.442854 0.241599 136 213 71
0.016306 0.004038 -0.387935 68 1 84
-0.656935 -0.218682 0.192551 68 1 84
0.288606 0.138662 -0.192585 68 1 84
-0.652183 -0.365242 0.318969 68 1 84
-0.099115 0.475635 -0.268211 68 1 84
-0.354071 0.133016 -0.160668 68 1 84
-0.179105 0.369662 -0.215795 68 1 84
-0.248347 -0.045238 -0.247029 68 1 84
0.251506 -0.187387 -0.180666 32 143 140
0.314399 0.422391 -0.045413 67 59 131
-0.587590 -0.514675 0.218584 68 1 84
0.683241 -0.430366 0.479116 68 1 84
0.537404 -0.401691 0.018852 69 5 88
0.524093 0.107147 -0.037596 58 83 139
-0.245681 -0.146160 -0.225193 72 32 113
-0.556183 0.074325 0.001843 68 1 84
-0.670079 -0.158030 0.234889 68 1 84
0.181945 -0.182518 -0.202411 36 170 130
0.104850 -0.180692 -0.296282 40 122 142
-0.656742 -0.110565 0.223361 68 1 84
0.485990 0.216879 -0.021599 56 87 140
-0.612703 0.166966 0.194037 68 1 84
-0.089214 0.573751 -0.230740 68 1 84
0.605415 -0.053139 0.124488 71 38 118
0.635996 0.067741 0.491636 49 100 141
0.586268 -0.357671 0.105444 68 1 84
-0.308857 0.203344 -0.134066 68 1 84
-0.645238 -0.317227 0.221923 68 1 84
0.025407 0.043772 -0.331903 68 1 84
-0.194312 0.534761 -0.184862 68 1 84
0.517868 0.045336 -0.068326 72 25 107
0.492410 0.372724 0.131368 31 147 139
-0.055953 -0.251856 -0.362165 34 167 132
0.190028 0.567015 -0.066770 71 40 120
0.486057 0.305818 0.046250 31 149 139
-0.570810 0.055529 0.020566 68 1 84
0.042091 0.563590 -0.236349 68 1 84
-0.035108 0.482892 -0.281027 68 1 84
0.031396 0.185228 -0.310963 68 1 84
0.576546 0.073355 0.066499 47 106 141
0.544412 -0.247911 0.009986 72 35 116
0.239619 0.051866 -0.228844 68 1 84
0.181622 0.278660 -0.181363 68 1 84
0.648474 0.005532 0.543469 58 83 139
-0.548904 0.393557 0.292052 67 60 132
0.277631 -0.409571 -0.225276 51 96 141
0.592870 0.055323 0.106753 46 108 142
0.414081 -0.099197 -0.167240 68 1 84
0.083785 0.413492 -0.239759 68 1 84
0.170383 -0.143517 -0.230844 56 86 139
-0.550773 -0.412750 0.050151 68 1 84
0.573719 -0.279477 0.063267 68 1 84
-0.348402 0.143269 -0.154975 68 1 84
-0.603189 0.103626 0.132327 68 1 84
0.614209 0.195831 0.374528 36 133 141
0.537720 0.181386 0.038888 49 101 141
0.630223 -0.212474 0.208974 72 33 114
-0.220703 0.075272 -0.221278 68 1 84
0.625868 -0.198802 0.190979 62 73 137
-0.673652 0.017832 0.401651 68 1 84
-0.280106 0.272311 -0.135590 68 1 84
-0.207012 0.371350 -0.192473 68 1 84
-0.672179 -0.040814 0.373512 68 1 84
-0.661981 -0.337969 0.482425 68 1 84
0.507400 -0.065177 -0.091399 68 1 84
0.124614 0.287351 -0.255468 68 1 84
0.120770 -0.288588 -0.179961 194 223 34
-0.474870 -0.380496 -0.064876 68 1 84
-0.588377 -0.508145 0.208984 68 1 84
-0.073136 0.404792 -0.265775 68 1 84
0.415631 0.007000 -0.180679 68 1 84
-0.427295 0.490819 0.139462 38 129 142
0.582437 0.233821 0.491250 31 147 139
0.063155 0.618961 -0.142737 68 1 84
-0.237381 -0.208444 -0.191740 60 77 138
0.264323 0.225936 -0.137391 72 34 115
0.651078 0.027528 0.436717 69 54 129
-0.664064 -0.060811 0.272213 68 1 84
0.627718 -0.232067 0.195106 68 1 84
