ply
format ascii 1.0
element vertex 1259
property float x
property float y
property float z
property uchar red
property uchar green
property uchar blue
end_header
-0.042280 0.026424 -0.418373 47 106 141
0.213581 0.479679 -0.150785 68 1 84
-0.467575 0.255163 0.042668 57 85 139
-0.087510 0.244122 -0.241828 30 159 136
-0.217768 -0.009531 -0.195764 40 174 127
0.363855 0.388219 -0.019236 35 136 141
-0.242304 0.114679 -0.203772 34 138 141
-0.563763 -0.097981 0.032459 68 1 84
-0.501060 -0.085061 -0.074134 71 21 103
0.508615 -0.100536 -0.029469 68 1 84
0.616011 -0.291455 0.285887 68 1 84
0.393293 -0.103324 -0.125098 68 1 84
0.296950 0.567657 0.090616 41 120 142
0.022373 0.428773 -0.206443 68 1 84
0.546057 -0.184459 0.043282 68 1 84
0.634755 -0.575432 0.302731 68 1 84
-0.572973 0.037174 0.191736 68 1 84
0.554804 -0.244467 0.071079 68 1 84
-0.195783 -0.230612 -0.181847 103 204 92
-0.590398 -0.004685 0.267800 68 1 84
0.013159 -0.186328 -0.397759 34 138 141
-0.530259 0.066403 0.057951 68 1 84
0.535865 0.226713 0.271319 72 32 113
-0.541845 -0.360203 -0.017688 68 1 84
0.641581 -0.464309 0.434434 68 1 84
-0.107686 -0.163385 -0.301567 159 217 56
0.560377 0.099846 0.472801 59 81 138
0.425267 0.447468 0.259114 35 169 130
0.596144 -0.185623 0.492507 68 1 84
-0.274665 -0.174600 -0.170845 66 190 113
-0.414182 0.004288 -0.124394 72 29 111
0.154969 -0.200117 -0.186004 39 125 142
0.178702 0.257106 -0.190082 71 37 117
0.385334 -0.509204 -0.249635 35 136 141
-0.654326 -0.519702 0.205332 68 1 84
0.105283 -0.342262 -0.175109 53 183 120
0.530252 0.230825 0.241110 55 88 140
-0.592804 0.108670 0.461906 70 11 94
-0.628850 -0.126513 0.399498 68 1 84
0.518999 0.152550 0.121698 68 1 84
-0.622299 -0.122048 0.314474 68 1 84
0.603041 -0.260624 0.233371 68 1 84
-0.126596 0.321727 -0.204972 55 88 140
0.103837 -0.204055 -0.246459 39 125 142
-0.202971 -0.095094 -0.195490 94 201 97
-0.130846 -0.062416 -0.309305 75 194 108
-0.011371 0.248160 -0.266331 36 133 141
0.012696 0.111998 -0.306161 50 98 141
-0.410324 0.469154 0.210445 33 167 132
0.406164 0.466831 0.168796 35 168 131
0.483104 0.154921 0.036520 68 1 84
-0.379783 0.297140 -0.049468 68 1 84
0.235468 0.128867 -0.201929 71 18 101
-0.226218 -0.348062 -0.217004 124 210 79
-0.085103 0.157024 -0.293175 57 185 118
0.621621 -0.339952 0.420839 68 1 84
-0.206425 -0.134442 -0.189348 77 194 107
0.219927 -0.248147 -0.177707 31 147 139
-0.308279 0.475549 -0.000104 50 98 141
0.489650 -0.443311 -0.072864 68 1 84
-0.327746 0.335202 -0.088132 70 12 95
0.466483 -0.098040 -0.078706 68 1 84
0.542171 -0.241859 0.040482 68 1 84
0.562268 -0.150054 0.099906 68 1 84
-0.282436 0.567860 0.084362 43 116 142
-0.307956 0.320517 -0.117827 71 42 121
-0.117452 0.053090 -0.247063 81 196 104
-0.672310 -0.293604 0.396273 68 1 84
-0.684115 -0.303657 0.329115 68 1 84
-0.539194 0.278570 0.411942 42 119 142
0.119426 -0.261008 -0.181873 46 178 124
-0.492636 -0.410778 -0.135586 70 12 95
-0.585351 -0.184845 0.072369 68 1 84
0.480866 0.156218 0.032490 68 1 84
0.570046 0.049590 0.389892 69 8 91
-0.062619 -0.045682 -0.453290 38 127 142
0.100180 -0.171362 -0.272157 69 53 128
-0.325339 -0.087828 -0.161313 31 146 140
0.397450 -0.294292 -0.127632 68 1 84
0.399848 0.066729 -0.106067 68 1 84
0.020866 0.430098 -0.206886 68 1 84
0.469581 0.366175 0.423537 30 154 137
0.478550 0.304050 0.115826 72 26 108
-0.572013 0.180026 0.465658 69 53 128
-0.115317 -0.435442 -0.340026 151 216 62
0.578353 -0.523188 0.161639 68 1 84
0.513184 0.249121 0.170524 66 61 132
-0.513743 -0.425852 -0.098045 71 37 117
-0.232561 -0.084209 -0.184256 79 195 105
-0.604202 -0.003618 0.388731 68 1 84
0.629444 -0.468885 0.258076 68 1 84
0.319593 0.095596 -0.159368 68 1 84
0.083614 0.363451 -0.203599 46 109 142
0.555767 -0.157800 0.073572 68 1 84
-0.605106 -0.303067 0.111433 68 1 84
0.216796 0.477298 -0.147706 68 1 84
-0.616738 -0.325489 0.138695 68 1 84
-0.100921 0.015924 -0.329729 31 147 139
-0.593505 -0.026622 0.257655 68 1 84
0.190108 -0.018287 -0.192993 71 44 123
0.017158 0.641742 -0.130466 41 120 142
-0.005937 0.309083 -0.269643 49 101 141
-0.091475 -0.077655 -0.409303 44 114 142
0.295107 0.326321 -0.105522 67 60 132
0.068595 0.132889 -0.301812 72 30 112
-0.574710 -0.012427 0.151869 68 1 84
0.151252 0.188654 -0.262017 67 59 131
0.241122 0.201113 -0.190264 71 37 117
0.416206 0.451568 0.313145 39 173 128
-0.632816 -0.419769 0.182012 68 1 84
-0.424531 -0.030771 -0.124014 63 71 136
0.234123 -0.269369 -0.186635 41 175 127
-0.027134 -0.363301 -0.304203 79 195 105
0.566368 -0.058737 0.232861 68 1 84
-0.543691 0.259428 0.317030 71 40 120
-0.059388 0.133416 -0.302510 81 196 104
0.397229 0.125701 -0.096476 68 1 84
0.037906 0.495759 -0.218910 68 1 84
0.545395 0.072695 0.192816 68 1 84
-0.434243 -0.410519 -0.206208 70 45 124
-0.568900 0.185711 0.388704 72 33 114
-0.525419 -0.135182 -0.047600 68 1 84
-0.284198 -0.339516 -0.211426 62 188 115
0.009826 -0.166532 -0.412403 42 117 142
-0.605658 -0.251029 0.116208 68 1 84
0.151299 -0.457217 -0.338975 38 172 129
0.615754 -0.327085 0.441982 68 1 84
-0.143112 -0.321034 -0.171660 44 177 125
-0.629163 -0.238928 0.183452 68 1 84
0.024626 -0.039070 -0.476436 31 147 139
-0.486841 0.381853 0.308420 48 104 141
-0.570091 0.060305 0.205380 68 1 84
-0.524568 0.139764 0.094439 68 1 84
-0.731079 -0.485316 0.311907 68 1 84
0.068072 -0.233787 -0.300800 55 88 140
0.306641 0.350809 -0.090147 64 68 135
0.464113 0.394485 0.316981 31 150 139
-0.138077 -0.187355 -0.224133 207 225 28
-0.054105 0.363384 -0.210255 46 109 142
0.573555 -0.062369 0.288534 68 1 84
0.314927 0.139391 -0.163143 72 25 107
0.237815 -0.052935 -0.173885 71 37 117
-0.559352 -0.410499 0.012873 68 1 84
-0.405347 0.262327 -0.038677 68 1 84
0.480499 0.365639 0.340601 36 132 141
0.493703 0.337890 0.392447 44 112 142
-0.577737 -0.295415 0.050769 68 1 84
0.268559 0.496364 -0.099666 64 67 135
-0.522709 -0.048686 -0.034343 68 1 84
0.503877 0.307618 0.241842 54 91 140
0.112573 0.472829 -0.210326 68 1 84
-0.255981 -0.429198 -0.280743 59 186 117
0.199581 0.155610 -0.225647 60 78 138
0.419583 -0.421692 -0.178072 68 1 84
0.080212 0.082470 -0.280860 54 90 140
0.066619 0.205973 -0.282245 48 103 141
0.199636 0.534495 -0.164501 68 1 84
0.542876 0.047007 0.169842 68 1 84
0.178662 0.038538 -0.199216 71 21 103
0.462931 -0.190127 -0.084694 68 1 84
-0.487533 0.125371 0.004389 68 1 84
-0.194261 0.043248 -0.205243 31 148 139
0.183623 0.622334 -0.091106 44 114 142
0.197187 0.381656 -0.149408 66 64 133
-0.288897 0.502314 -0.012345 57 85 139
-0.070318 -0.096830 -0.423799 43 116 142
-0.123658 -0.382446 -0.241495 54 184 119
0.491580 -0.087651 -0.050076 68 1 84
0.093965 0.019581 -0.287061 46 108 142
0.625318 -0.361793 0.421843 68 1 84
0.064109 -0.089073 -0.423073 61 74 137
-0.522595 0.127290 0.081393 68 1 84
0.164179 0.263272 -0.209077 72 34 115
0.472892 -0.441177 -0.114434 68 1 84
0.641596 -0.437456 0.377842 68 1 84
-0.660149 -0.246760 0.298836 68 1 84
0.479386 0.000922 -0.037122 68 1 84
-0.334351 -0.450950 -0.286573 31 146 140
0.549709 -0.503703 0.081225 68 1 84
-0.554644 -0.136988 0.002982 68 1 84
0.577745 -0.086136 0.307856 68 1 84
-0.229268 -0.412543 -0.260329 53 183 120
-0.269601 -0.195314 -0.174334 30 159 136
-0.004693 0.036002 -0.438296 56 86 139
-0.146165 -0.053809 -0.254242 154 216 60
-0.338123 -0.329138 -0.193382 44 112 142
-0.020822 0.458899 -0.212926 68 1 84
-0.406358 -0.375385 -0.185489 53 93 140
0.249615 0.072677 -0.181797 68 1 84
-0.725365 -0.518982 0.303177 68 1 84
-0.486955 0.310442 0.122374 52 95 141
-0.134821 0.237078 -0.237981 59 186 117
0.627765 -0.436446 0.265584 68 1 84
0.282489 0.236995 -0.150433 64 67 135
-0.233178 0.283151 -0.133780 45 111 142
0.299782 0.563921 0.056755 41 120 142
0.140981 0.300012 -0.230284 69 50 127
0.493168 0.332221 0.431064 42 117 142
0.618161 -0.284225 0.327139 68 1 84
0.006235 -0.051372 -0.477344 34 138 141
0.561577 0.108222 0.328161 71 40 120
0.252032 0.595969 0.003577 40 122 142
0.282279 -0.440847 -0.267833 45 110 142
0.599879 -0.249228 0.224417 68 1 84
-0.458934 0.062664 -0.070323 68 1 84
0.363790 0.444713 0.018310 37 130 142
-0.534802 0.086888 0.087343 68 1 84
-0.286744 0.234612 -0.180457 40 123 142
0.012990 0.187733 -0.317757 44 112 142
0.157458 -0.371400 -0.194979 57 185 118
-0.624557 -0.127143 0.327458 68 1 84
-0.567897 0.180963 0.357666 70 47 124
-0.156997 0.081580 -0.227955 42 118 142
-0.281728 -0.343067 -0.215370 66 190 113
-0.273483 0.557323 0.024119 45 111 142
-0.081274 0.611525 -0.167921 68 1 84
0.108996 -0.076794 -0.342585 72 35 116
-0.591357 -0.482328 0.071030 68 1 84
0.570357 -0.471358 0.132663 68 1 84
-0.651219 -0.216114 0.351599 68 1 84
-0.024077 0.543921 -0.219433 68 1 84
0.528604 -0.107009 0.005603 68 1 84
-0.060435 -0.278239 -0.328347 165 218 53
0.578813 -0.089384 0.346659 68 1 84
-0.230334 0.265775 -0.145796 44 114 142
0.481085 0.006962 -0.032142 68 1 84
-0.528390 0.172401 0.128640 68 1 84
0.615816 -0.435572 0.245039 68 1 84
-0.625939 -0.187791 0.199625 68 1 84
-0.126058 -0.208435 -0.230627 236 228 26
-0.661424 -0.271059 0.482710 68 1 84
-0.108502 -0.174625 -0.293681 191 223 36
-0.505210 0.171107 0.065655 70 9 92
-0.596285 -0.082575 0.188220 68 1 84
0.191406 -0.434565 -0.271262 112 206 86
-0.076181 -0.073249 -0.429882 46 108 142
0.576598 -0.071192 0.349722 68 1 84
-0.064939 0.166750 -0.306089 61 187 116
0.447569 -0.078033 -0.092008 68 1 84
-0.374700 0.141920 -0.123374 71 44 123
-0.020855 -0.417886 -0.344881 228 227 24
0.422368 -0.247965 -0.109393 68 1 84
-0.545467 0.034201 0.074626 68 1 84
-0.116680 -0.149876 -0.284902 149 215 63
-0.261483 -0.319771 -0.198492 54 184 119
0.426675 0.441580 0.304387 41 175 127
-0.513723 0.139746 0.067218 68 1 84
-0.078398 -0.248299 -0.327139 119 208 82
0.595189 -0.265202 0.198711 68 1 84
0.203957 0.103681 -0.210672 70 47 124
0.341687 0.288878 -0.103180 56 86 139
-0.234133 0.446990 -0.095823 68 1 84
0.503740 0.185675 0.094300 68 1 84
-0.416758 0.361341 0.048757 54 90 140
-0.212968 0.489876 -0.110359 68 1 84
0.521469 0.159916 0.131620 68 1 84
-0.005356 0.518776 -0.222049 68 1 84
-0.133955 0.434040 -0.161400 68 1 84
0.473018 -0.454245 -0.125711 68 1 84
0.271216 0.271075 -0.122981 68 55 129
0.200884 -0.354131 -0.197915 33 166 133
0.520507 -0.151255 -0.013262 68 1 84
0.079871 0.100652 -0.286756 60 78 138
-0.631127 -0.489497 0.172975 68 1 84
0.566949 -0.543700 0.130930 68 1 84
0.225968 0.210382 -0.192187 72 34 115
-0.503609 -0.299171 -0.055671 68 1 84
-0.287693 0.554328 0.053188 63 69 135
-0.634632 -0.493191 0.179671 68 1 84
-0.296572 -0.255421 -0.192648 36 134 141
0.467039 0.378627 0.382432 30 155 137
0.559213 0.091439 0.265063 71 39 119
-0.663938 -0.279361 0.464779 68 1 84
-0.331773 0.401085 -0.024097 62 72 136
-0.473897 -0.368976 -0.118985 68 1 84
0.075824 0.150286 -0.305025 60 77 138
-0.566331 0.051701 0.175420 68 1 84
-0.591254 -0.126269 0.114043 68 1 84
0.372558 0.192267 -0.110265 72 29 111
-0.409525 0.195847 -0.069473 71 22 105
-0.591522 0.078213 0.398817 68 1 84
0.480545 -0.100221 -0.064973 68 1 84
0.141707 -0.045321 -0.255414 56 86 139
-0.219899 -0.362666 -0.227850 134 212 73
0.629901 -0.379984 0.401232 68 1 84
0.491251 -0.477095 -0.090155 68 1 84
0.338683 0.527909 0.080949 42 118 142
0.614622 -0.302276 0.423444 68 1 84
-0.176421 0.559882 -0.132774 71 22 105
-0.473053 0.353070 0.151223 49 100 141
0.117400 -0.106912 -0.271504 69 50 127
-0.342446 0.534521 0.237492 159 217 56
-0.522182 0.307005 0.273437 60 78 138
0.466775 -0.468673 -0.149232 68 1 84
-0.513797 0.337505 0.381385 40 122 142
0.595033 -0.174881 0.446877 68 1 84
-0.225600 0.606163 0.052932 47 106 141
-0.651646 -0.246306 0.245988 68 1 84
-0.462162 -0.010655 -0.093335 68 1 84
0.646816 -0.503344 0.364532 68 1 84
-0.038120 0.506207 -0.221277 68 1 84
0.563452 0.099062 0.399060 68 1 84
0.418039 -0.326679 -0.103155 68 1 84
0.583433 -0.301270 0.152910 68 1 84
-0.209041 0.451594 -0.116112 68 1 84
0.157871 0.489392 -0.194375 68 1 84
-0.607059 -0.089505 0.256732 68 1 84
-0.449217 -0.518487 -0.218796 31 147 139
0.104234 -0.263045 -0.197726 64 189 114
0.276630 0.116109 -0.178943 68 1 84
0.577537 -0.075796 0.362294 68 1 84
-0.570570 0.042983 0.186268 68 1 84
-0.319849 0.242170 -0.154752 53 92 140
0.589404 -0.150505 0.372197 68 1 84
-0.417503 0.462034 0.219787 40 174 127
0.402680 0.257566 -0.047574 71 18 101
-0.072136 -0.240082 -0.339594 40 174 127
-0.249973 0.524867 -0.057202 72 33 114
-0.504688 -0.409543 -0.110205 71 39 119
-0.575719 0.158777 0.390971 71 22 105
-0.373066 -0.482546 -0.279483 39 126 142
0.592020 -0.164247 0.306519 68 1 84
0.553143 -0.400677 0.081174 68 1 84
-0.004839 -0.103088 -0.453739 39 125 142
-0.285013 0.504275 -0.017199 58 82 139
-0.041642 0.271574 -0.263762 43 115 142
-0.503647 0.335524 0.243682 55 88 140
-0.122211 -0.381703 -0.241142 48 180 122
0.255971 -0.522084 -0.322068 126 210 78
-0.581128 0.120311 0.361602 68 1 84
0.255928 0.000155 -0.172946 71 15 98
0.267164 -0.231032 -0.170511 48 103 141
-0.383331 -0.110019 -0.150976 47 106 141
-0.589631 -0.101726 0.128737 68 1 84
-0.627750 -0.221511 0.185024 68 1 84
0.549826 -0.019821 0.161123 68 1 84
-0.027414 0.162022 -0.310317 31 149 139
0.285329 0.072154 -0.171085 68 1 84
-0.557183 0.226865 0.385036 69 54 129
-0.354953 0.522948 0.173698 33 167 132
0.319425 0.429913 -0.050305 60 77 138
0.584386 -0.081873 0.416701 68 1 84
0.577458 -0.417753 0.143343 68 1 84
-0.384785 0.499678 0.288720 103 204 92
0.491040 -0.478512 -0.091550 68 1 84
-0.582371 0.102284 0.349137 68 1 84
-0.698627 -0.459993 0.271355 68 1 84
-0.021678 -0.423091 -0.348734 233 228 25
0.368505 0.481303 0.066410 31 162 134
-0.596135 -0.092498 0.173685 68 1 84
0.283750 0.570550 -0.000752 38 129 142
-0.440734 0.110687 -0.069576 68 2 85
-0.372841 -0.036875 -0.147425 47 105 141
-0.672955 -0.469247 0.241232 68 1 84
-0.068611 -0.336029 -0.276862 131 211 75
0.145469 0.204880 -0.250805 65 65 134
-0.552709 -0.025094 0.042552 68 1 84
0.366766 0.201775 -0.115178 71 37 117
0.351736 0.523763 0.187412 39 173 128
0.582770 -0.213312 0.167108 68 1 84
0.146151 0.598316 -0.162717 54 90 140
0.339313 -0.347824 -0.172747 71 18 101
0.615835 -0.279103 0.367232 68 1 84
0.638045 -0.426288 0.394389 68 1 84
-0.603992 0.066097 0.461559 68 1 84
-0.078685 0.352939 -0.213789 44 112 142
0.375022 0.209229 -0.103238 71 17 99
0.495554 0.333804 0.399732 48 104 141
0.463504 0.355628 0.142366 53 93 140
-0.639041 -0.153299 0.517944 68 1 84
0.568353 0.061369 0.399254 68 1 84
0.321270 0.534356 0.029261 34 139 141
0.485738 0.266886 0.097987 72 28 110
0.350159 0.525170 0.179403 30 153 138
0.165289 -0.071363 -0.208469 67 59 131
-0.596945 -0.004199 0.335192 68 1 84
-0.632628 -0.113831 0.477704 68 1 84
-0.572614 -0.283798 0.040008 68 1 84
-0.481702 0.144785 0.004969 68 1 84
-0.235294 0.083773 -0.200053 34 139 141
0.077710 -0.270653 -0.242984 35 168 131
-0.234837 -0.240623 -0.191007 48 180 122
-0.590145 -0.460197 0.071645 68 1 84
0.533419 -0.242403 0.022903 68 1 84
-0.502838 0.050390 -0.013940 68 1 84
0.524022 0.258607 0.468825 43 115 142
-0.145994 -0.429430 -0.325931 126 210 78
-0.485854 0.386681 0.366059 49 100 141
-0.671424 -0.286428 0.383842 68 1 84
-0.145986 0.159234 -0.257446 30 151 138
-0.069757 -0.141545 -0.397556 39 126 142
-0.346765 0.494282 0.077766 38 127 142
-0.207403 -0.261872 -0.189392 47 179 123
0.206442 -0.356607 -0.202147 37 171 129
-0.106067 -0.315959 -0.195781 73 193 109
0.346221 0.524605 0.104468 46 109 142
0.056258 -0.294520 -0.277149 64 67 135
0.655769 -0.529936 0.438092 68 1 84
-0.159194 0.422920 -0.148819 68 1 84
0.487765 0.240192 0.084696 72 32 113
0.234055 0.566637 -0.115051 68 55 129
0.382953 0.493770 0.163383 32 165 133
0.486041 0.114588 0.024452 68 1 84
0.301543 -0.421958 -0.252219 55 88 140
-0.358085 0.307198 -0.071923 68 2 85
0.386556 -0.386931 -0.173199 68 1 84
-0.512150 0.339042 0.323130 57 85 139
-0.642128 -0.187313 0.306152 68 1 84
0.034634 0.636475 -0.138129 39 125 142
0.081511 0.080941 -0.279218 58 82 139
-0.516945 0.000529 -0.019368 68 1 84
0.586476 -0.238713 0.173096 68 1 84
0.281058 0.550878 -0.053151 52 94 141
-0.712349 -0.463775 0.286640 68 1 84
-0.727105 -0.422786 0.399156 68 1 84
-0.487199 -0.404791 -0.139568 68 1 84
0.189642 0.602345 -0.127219 62 72 136
-0.192905 0.034619 -0.205059 31 149 139
-0.556055 0.226941 0.360490 71 15 98
0.311144 0.274320 -0.123115 66 62 133
-0.022152 0.123963 -0.307793 36 134 141
0.183016 0.084719 -0.213562 72 26 108
0.509817 -0.289498 -0.007102 68 1 84
-0.546190 0.177763 0.200327 67 58 131
0.298912 0.289712 -0.116686 71 43 122
0.542225 0.221034 0.340107 61 76 137
-0.054114 -0.333109 -0.294250 165 218 53
-0.623456 -0.063372 0.532714 72 30 112
-0.609234 -0.076163 0.305559 68 1 84
-0.201102 -0.374663 -0.225834 57 185 118
0.003344 0.636667 -0.142824 57 84 139
0.102443 0.101777 -0.269007 61 74 137
0.413289 0.153310 -0.070089 68 1 84
0.168385 0.489818 -0.187910 68 1 84
0.576517 -0.073313 0.331701 68 1 84
-0.142328 0.329700 -0.187307 50 98 141
0.307798 0.126952 -0.165803 68 1 84
0.488816 0.334905 0.441302 44 113 142
0.273085 0.535367 -0.080976 42 118 142
0.140181 0.030069 -0.216436 72 28 110
-0.414625 0.373397 0.057422 48 103 141
0.019371 0.051597 -0.364883 47 106 141
0.126096 -0.062491 -0.304062 72 28 110
0.356893 -0.411793 -0.221139 63 71 136
0.586620 -0.105126 0.540369 68 1 84
-0.738750 -0.478870 0.327568 68 1 84
0.339957 -0.184705 -0.149183 71 21 103
0.606867 -0.323397 0.233111 68 1 84
0.051685 -0.077905 -0.446536 55 89 140
-0.228579 -0.409327 -0.256720 47 179 123
-0.462211 0.028609 -0.080370 69 6 90
-0.680540 -0.479293 0.246704 68 1 84
-0.676881 -0.515573 0.236791 68 1 84
-0.606292 0.050655 0.468764 68 1 84
0.591612 -0.126743 0.486488 68 1 84
0.181035 0.603947 -0.132964 56 87 140
-0.262451 0.574955 0.038414 45 110 142
0.574319 -0.003831 0.359697 68 1 84
-0.117020 0.446360 -0.169886 68 1 84
0.590353 -0.120964 0.542503 68 1 84
-0.007551 0.245402 -0.267053 38 129 142
-0.185608 0.204815 -0.230272 51 182 121
-0.750776 -0.484455 0.357679 68 1 84
-0.291317 0.382974 -0.079887 66 64 133
-0.427572 -0.106548 -0.133834 67 59 131
-0.600591 0.080848 0.494638 66 61 132
0.470811 0.227396 0.043650 69 5 88
-0.734444 -0.489830 0.317601 68 1 84
-0.638372 -0.168659 0.366017 68 1 84
0.456727 0.373428 0.147724 38 127 142
0.094458 -0.087496 -0.370755 71 44 123
-0.557774 -0.053109 0.038219 68 1 84
-0.540109 -0.070695 -0.011406 68 1 84
0.555992 -0.284520 0.076720 68 1 84
0.536766 0.239055 0.338785 58 83 139
0.112344 0.569635 -0.195753 69 54 129
0.523189 -0.500431 0.008044 68 1 84
-0.579253 -0.009819 0.177073 68 1 84
0.294643 -0.073922 -0.155047 68 3 87
0.460043 -0.520597 -0.170915 68 1 84
-0.515197 0.333904 0.397894 36 134 141
0.583745 -0.279800 0.154798 68 1 84
0.336473 -0.350775 -0.176243 69 53 128
-0.202870 0.272735 -0.140409 44 112 142
-0.103307 0.144990 -0.279688 39 173 128
-0.114050 0.643153 -0.076634 30 159 136
-0.529335 0.130700 0.102707 68 1 84
0.379436 0.495042 0.144622 30 160 135
-0.374156 -0.278523 -0.162040 58 83 139
-0.202574 0.599336 -0.052447 46 109 142
-0.575011 0.059615 0.240325 68 1 84
-0.106396 -0.142731 -0.315299 103 204 92
-0.641239 -0.158765 0.494364 68 1 84
-0.183984 0.249755 -0.176415 41 121 142
0.480707 0.285493 0.101371 69 6 90
0.013351 0.324948 -0.259577 54 91 140
0.528154 0.245691 0.253057 69 54 129
-0.626270 -0.499990 0.161221 68 1 84
-0.655030 -0.237988 0.410972 68 1 84
-0.111320 -0.217882 -0.257353 199 224 31
-0.640538 -0.291381 0.200820 68 1 84
0.200944 0.146654 -0.223226 65 65 134
-0.504439 0.349395 0.299337 65 65 134
-0.265370 -0.105590 -0.174011 37 171 129
0.120458 -0.397510 -0.226619 30 153 138
0.246219 -0.508024 -0.324216 71 192 110
0.026541 0.279512 -0.273111 46 109 142
-0.586093 -0.085545 0.127721 68 1 84
0.316472 0.547115 0.053857 35 135 141
-0.655836 -0.252839 0.465053 68 1 84
0.070759 -0.153886 -0.342671 56 86 139
-0.013751 0.647471 -0.110117 41 121 142
0.081625 0.618623 -0.158478 49 100 141
-0.260958 -0.297220 -0.194643 41 175 127
0.567475 0.060208 0.433029 72 26 108
-0.325823 -0.114990 -0.162478 31 149 139
-0.039778 0.645192 -0.129491 72 29 111
-0.593888 -0.361530 0.084369 68 1 84
-0.599076 0.064869 0.504879 72 26 108
0.564346 -0.135009 0.118648 68 1 84
0.442887 0.425213 0.284313 30 159 136
0.521436 0.279115 0.406152 71 37 117
0.493816 -0.107678 -0.050653 68 1 84
-0.088226 0.044428 -0.283804 31 148 139
-0.180837 -0.024761 -0.209780 91 200 98
-0.322253 -0.199811 -0.167079 37 130 142
-0.336505 0.405410 -0.015048 67 60 132
-0.534523 -0.025205 -0.000247 68 1 84
-0.125834 -0.215290 -0.225888 236 228 26
0.552396 0.166407 0.318208 63 71 136
0.435506 -0.311823 -0.087309 68 1 84
-0.240582 0.126951 -0.206426 35 137 141
-0.204885 0.560744 -0.098895 70 14 97
0.548808 0.104309 0.529745 32 144 140
-0.567667 -0.122488 0.034828 68 1 84
0.009303 0.518244 -0.220255 68 1 84
0.522812 -0.191911 -0.005946 68 1 84
0.398237 0.400334 0.039250 38 128 142
-0.252560 0.585034 0.041360 47 106 141
-0.128744 -0.240843 -0.200206 159 217 56
0.109533 -0.094103 -0.308413 68 1 84
-0.657929 -0.242174 0.292368 68 1 84
0.095804 0.432281 -0.198693 68 1 84
-0.035129 -0.374231 -0.306675 136 213 71
0.209460 -0.296649 -0.185547 54 184 119
-0.065473 -0.202989 -0.366561 34 167 132
0.427203 0.261563 -0.010232 68 1 84
0.078344 -0.166972 -0.314806 57 85 139
-0.541661 0.015702 0.045239 68 1 84
0.129044 0.027242 -0.249992 71 17 99
0.566475 0.067330 0.434420 68 1 84
0.195523 -0.413046 -0.239105 64 189 114
-0.034967 0.026710 -0.370644 30 156 137
-0.545553 0.221051 0.239189 71 18 101
-0.596644 0.067797 0.513490 72 35 116
0.013058 0.167918 -0.312003 47 106 141
0.551329 -0.052012 0.125778 68 1 84
0.584621 -0.272695 0.158806 68 1 84
-0.566197 0.196765 0.405393 61 74 137
-0.326876 0.542983 0.151183 30 158 136
-0.058786 0.015219 -0.403080 32 165 133
-0.551109 0.126545 0.178215 68 1 84
0.614302 -0.279327 0.389252 68 1 84
-0.632350 -0.113717 0.474269 68 1 84
-0.505962 -0.103599 -0.071809 68 1 84
0.295750 0.069592 -0.167604 68 1 84
0.225834 0.129291 -0.207201 69 53 128
0.530032 0.250993 0.435070 56 87 140
0.066939 -0.125049 -0.383703 71 38 118
0.453644 0.048429 -0.055114 68 1 84
0.311805 0.376306 -0.074912 44 112 142
-0.602411 0.061896 0.444913 68 1 84
0.170298 0.438036 -0.168107 68 1 84
0.559655 -0.187464 0.081835 68 1 84
-0.350896 0.255343 -0.113587 70 49 126
-0.590941 -0.347387 0.078425 68 1 84
-0.325736 -0.119653 -0.162602 37 130 142
0.439928 -0.445899 -0.175555 68 1 84
-0.033171 0.493883 -0.220288 68 1 84
0.388372 -0.243050 -0.131373 68 1 84
0.111294 -0.274537 -0.181129 32 164 133
-0.543506 0.158650 0.172574 70 9 92
-0.512950 0.062874 0.013779 68 1 84
-0.388122 -0.234584 -0.147453 40 122 142
-0.002597 0.345423 -0.232736 40 123 142
-0.108065 -0.345198 -0.206259 139 213 70
0.645167 -0.467944 0.355997 68 1 84
0.210748 0.336259 -0.150335 70 49 126
0.118701 -0.307937 -0.166538 40 174 127
0.573334 -0.279082 0.122755 68 1 84
-0.590588 0.038545 0.341712 68 1 84
0.503334 -0.521737 -0.053188 68 1 84
-0.420847 0.256013 -0.022554 68 1 84
-0.226496 -0.208763 -0.179284 36 170 130
-0.623745 -0.203652 0.181712 68 1 84
0.504215 0.098536 0.059421 68 1 84
0.290799 0.572180 0.099300 38 128 142
-0.635814 -0.130580 0.476664 68 1 84
-0.164012 0.063862 -0.218609 42 117 142
-0.367201 -0.417441 -0.252310 31 147 139
-0.309736 0.535940 0.067657 48 103 141
-0.524206 0.231907 0.159713 72 26 108
0.036786 0.142149 -0.304100 58 83 139
-0.454872 -0.493672 -0.215108 66 62 133
0.560697 -0.468105 0.107521 68 1 84
-0.072919 0.102640 -0.290416 42 176 126
-0.183750 0.492042 -0.135386 68 1 84
-0.152625 -0.429648 -0.323985 34 167 132
0.579064 -0.382047 0.142821 68 1 84
0.238269 0.374827 -0.125501 64 68 135
-0.404325 0.391757 0.060144 54 90 140
0.598966 -0.362463 0.206379 68 1 84
0.426859 0.205003 -0.034367 68 1 84
0.467350 -0.393546 -0.075889 68 1 84
0.506689 0.316824 0.307128 52 95 141
0.461985 -0.177050 -0.086759 68 1 84
-0.481224 0.010267 -0.066998 68 1 84
0.478501 -0.529727 -0.135210 68 1 84
0.510636 0.126912 0.089086 68 1 84
0.651233 -0.574435 0.377368 68 1 84
0.374127 0.402167 0.004471 44 113 142
0.511645 0.133007 0.094165 68 1 84
-0.535197 0.289115 0.349349 59 80 138
0.084836 -0.005593 -0.398637 62 73 137
0.173364 -0.255629 -0.175251 32 143 140
0.485213 0.300871 0.132013 68 55 129
0.150403 0.261802 -0.222643 70 49 126
0.376888 0.501404 0.189671 50 181 122
0.530097 0.184122 0.538807 30 153 138
-0.566302 0.198383 0.459727 71 38 118
0.602854 -0.250048 0.483163 68 1 84
-0.429352 0.293341 0.013292 71 39 119
0.601883 -0.349380 0.215380 68 1 84
0.190220 -0.390153 -0.221429 31 163 134
0.566009 0.056214 0.323797 71 24 106
-0.596411 0.097654 0.489646 69 54 129
-0.079819 -0.326470 -0.250922 157 217 58
0.298505 -0.209197 -0.161164 59 80 138
0.115685 -0.308346 -0.167919 44 177 125
0.242881 -0.107008 -0.166096 61 76 137
0.343816 0.523748 0.087477 42 118 142
-0.620424 -0.081538 0.402951 68 1 84
0.557116 -0.530627 0.103388 68 1 84
0.177594 0.134749 -0.234847 68 55 129
-0.688882 -0.445082 0.265629 68 1 84
0.560074 0.129224 0.362006 71 38 118
0.565268 -0.023458 0.251751 68 1 84
-0.383893 0.457021 0.101236 40 123 142
0.516018 -0.124242 -0.020786 68 1 84
0.603284 -0.277458 0.227534 68 1 84
0.568257 -0.152456 0.128109 68 1 84
-0.645356 -0.196734 0.320434 68 1 84
0.589637 -0.501998 0.193858 68 1 84
0.026919 0.036220 -0.388295 63 69 135
0.593330 -0.170042 0.313419 68 1 84
0.573383 -0.022438 0.508115 68 1 84
-0.563293 0.080455 0.191113 68 1 84
0.457134 0.357689 0.123145 55 89 140
-0.489717 0.367867 0.267878 59 81 138
-0.539551 0.184953 0.178267 71 37 117
-0.053094 0.460751 -0.205128 68 1 84
0.627735 -0.361593 0.398021 68 1 84
-0.031446 -0.370839 -0.305983 107 205 89
-0.700504 -0.428135 0.288338 68 1 84
0.063316 -0.108171 -0.406635 71 38 118
-0.247798 0.474291 -0.076749 68 1 84
-0.194553 0.330615 -0.145841 71 22 105
0.600082 -0.204135 0.364526 68 1 84
-0.354555 0.263807 -0.103835 71 21 103
0.654393 -0.521567 0.441524 68 1 84
-0.435428 0.413374 0.152859 32 143 140
-0.751596 -0.466596 0.426238 68 1 84
0.312948 0.549209 0.045218 38 127 142
-0.054118 -0.295371 -0.320502 173 220 48
0.328581 -0.436707 -0.253071 66 62 133
-0.267388 -0.315945 -0.197446 69 191 111
-0.433556 0.101631 -0.080816 68 1 84
0.511568 -0.327021 0.000126 68 1 84
0.246356 0.389491 -0.118829 69 50 127
0.444495 -0.544008 -0.187297 68 1 84
0.534708 0.021011 0.115543 68 1 84
0.534478 -0.461518 0.040677 68 1 84
0.114491 -0.394719 -0.224161 32 164 133
0.602337 -0.220622 0.394056 68 1 84
0.320412 0.289086 -0.112884 64 67 135
-0.604938 -0.049176 0.326328 68 1 84
0.004961 0.583608 -0.198280 68 1 84
-0.065353 0.020586 -0.315396 79 195 105
0.622624 -0.347569 0.422999 68 1 84
-0.648479 -0.206675 0.395400 68 1 84
-0.572857 -0.108930 0.053982 68 1 84
0.622533 -0.433446 0.256851 68 1 84
0.603248 -0.408992 0.225473 68 1 84
-0.313905 0.021944 -0.166187 36 133 141
0.578670 -0.058320 0.471315 68 1 84
-0.336993 0.128752 -0.157843 46 109 142
-0.603937 0.018024 0.546395 49 101 141
0.193304 -0.237722 -0.174686 36 133 141
0.430527 0.172311 -0.041626 68 1 84
-0.389701 0.495094 0.233731 154 216 60
-0.658456 -0.380315 0.224390 68 1 84
0.490746 -0.052474 -0.041765 68 1 84
-0.005948 0.512579 -0.222454 68 1 84
-0.624719 -0.107234 0.395902 68 1 84
-0.248137 -0.174798 -0.173050 31 161 135
-0.260208 0.137150 -0.199960 35 135 141
0.643255 -0.442708 0.342847 68 1 84
0.040299 0.017777 -0.359499 30 157 136
-0.640144 -0.399082 0.194389 68 1 84
0.117814 -0.222293 -0.210555 43 177 125
-0.569837 -0.184973 0.034235 68 1 84
-0.073024 -0.319791 -0.274402 87 198 101
0.087653 -0.474437 -0.348834 253 231 36
-0.560362 -0.355537 0.016682 68 1 84
0.253907 -0.068557 -0.167069 69 53 128
-0.112592 0.290614 -0.225284 47 105 141
0.277346 0.496300 -0.088778 54 91 140
-0.556619 0.221856 0.342305 68 1 84
-0.593279 -0.114084 0.133477 68 1 84
0.578283 -0.053357 0.460131 68 1 84
-0.603734 -0.296015 0.108325 68 1 84
-0.329343 -0.080042 -0.160220 33 141 140
-0.388644 0.393978 0.040706 51 96 141
-0.060891 -0.086338 -0.438154 52 95 141
-0.148435 0.630970 -0.079001 40 122 142
0.069050 -0.302661 -0.230709 34 139 141
-0.611493 -0.170609 0.161946 68 1 84
0.471723 -0.300750 -0.051323 68 1 84
-0.527021 0.131123 0.095919 68 1 84
-0.138232 -0.158051 -0.236940 162 218 55
0.551482 -0.055500 0.118905 68 1 84
0.621275 -0.355805 0.444840 68 1 84
-0.469096 0.064726 -0.056823 68 1 84
0.089972 0.490821 -0.216651 68 1 84
-0.384772 -0.097602 -0.149195 31 149 139
0.503467 0.093962 0.055372 68 1 84
-0.634135 -0.118435 0.495156 68 1 84
0.539505 -0.244497 0.035388 68 1 84
0.183142 0.078743 -0.211005 71 38 118
-0.187102 0.547669 -0.126739 68 1 84
-0.009581 0.534346 -0.220676 68 1 84
0.326455 -0.056521 -0.146861 68 1 84
0.158447 -0.442820 -0.318746 159 217 56
-0.042122 -0.034326 -0.469709 50 99 141
-0.537153 0.284929 0.364013 63 71 136
0.288953 0.203118 -0.176107 70 49 126
-0.431919 -0.198311 -0.126190 49 100 141
-0.475853 -0.323756 -0.083297 68 1 84
-0.327564 0.452903 0.009840 69 54 129
-0.083666 -0.168338 -0.356228 34 167 132
-0.394174 0.463333 0.132847 38 129 142
0.494755 0.180250 0.070800 68 1 84
-0.010428 -0.145784 -0.431291 35 136 141
-0.056525 0.549174 -0.213790 68 1 84
-0.447569 -0.428980 -0.208793 67 58 131
0.529637 -0.151494 0.003818 68 1 84
0.182936 0.181401 -0.239133 70 49 126
-0.562307 0.194367 0.324393 72 34 115
0.514343 0.224159 0.147618 71 39 119
-0.367019 -0.521039 -0.284108 51 182 121
0.230822 0.289977 -0.138342 61 76 137
-0.265942 -0.017335 -0.179063 35 136 141
-0.112122 0.487348 -0.184443 68 1 84
0.640182 -0.480239 0.297017 68 1 84
0.148162 -0.317893 -0.159991 68 190 112
-0.642566 -0.162988 0.480604 68 1 84
-0.100804 0.527885 -0.196635 68 1 84
0.492509 0.236288 0.093196 71 39 119
-0.191645 0.377972 -0.139500 71 21 103
-0.174512 0.608891 -0.086852 62 73 137
0.130301 -0.038506 -0.322255 66 62 133
0.351611 0.256744 -0.113985 63 69 135
0.299385 -0.155680 -0.153846 70 48 125
0.505353 0.315797 0.398703 51 96 141
0.572942 -0.209239 0.126502 68 1 84
0.482515 0.356127 0.242289 38 127 142
-0.555890 -0.212918 0.007431 68 1 84
0.172253 0.448279 -0.170855 68 1 84
-0.140498 -0.106796 -0.251165 202 224 30
0.122230 -0.109981 -0.260222 71 38 118
0.555682 0.031832 0.226093 68 1 84
-0.296374 0.563822 0.131970 30 155 137
-0.274075 0.267094 -0.165542 56 87 140
0.347548 -0.354933 -0.173679 71 37 117
0.323436 0.542204 0.067589 34 137 141
0.424826 0.446734 0.197461 30 155 137
-0.100880 -0.202261 -0.298072 94 201 97
0.058780 -0.160445 -0.362098 52 95 141
0.376982 -0.340967 -0.140433 71 22 105
0.509238 0.308782 0.290779 52 94 141
0.164523 -0.261032 -0.174290 32 145 140
-0.206767 -0.429045 -0.293097 98 202 95
-0.465657 0.404105 0.422252 141 214 68
0.382871 0.491373 0.259616 48 180 122
0.618340 -0.324971 0.424278 68 1 84
0.385579 -0.345419 -0.131841 68 1 84
0.098383 -0.220856 -0.244498 42 117 142
-0.523730 0.293676 0.244591 69 53 128
-0.171276 0.201722 -0.240721 43 177 125
-0.555945 0.208498 0.284999 72 33 114
-0.641358 -0.297626 0.201278 68 1 84
-0.536066 0.217491 0.193203 66 61 132
-0.356527 -0.124003 -0.158432 32 145 140
0.486607 -0.384770 -0.041157 68 1 84
0.550430 -0.150588 0.057576 68 1 84
0.192924 -0.311040 -0.177503 107 205 89
-0.480437 0.262040 0.068152 71 44 123
0.020060 0.224655 -0.286678 59 80 138
-0.085708 0.287678 -0.245154 38 127 142
-0.581092 -0.051142 0.141298 68 1 84
-0.538800 0.035038 0.055352 68 1 84
0.029735 -0.192756 -0.381652 57 84 139
0.167708 0.600785 -0.146627 53 93 140
0.133106 0.210569 -0.242310 71 44 123
-0.183100 0.504736 -0.136207 68 1 84
-0.019573 -0.207687 -0.388579 53 183 120
-0.539178 -0.333673 -0.019856 68 1 84
0.227161 0.586437 -0.103411 53 92 140
0.052164 0.472491 -0.217448 68 1 84
0.614877 -0.316816 0.265466 68 1 84
-0.494534 -0.381791 -0.104807 68 1 84
-0.099634 0.005382 -0.377069 36 133 141
0.023118 0.238674 -0.269459 43 116 142
-0.578138 -0.086412 0.085400 68 1 84
0.311637 0.141520 -0.165468 70 11 94
-0.471332 0.346263 0.132244 47 106 141
0.024319 0.331811 -0.248123 54 91 140
0.071781 0.022416 -0.290249 31 149 139
-0.177915 0.320558 -0.158938 61 75 137
0.572787 -0.004634 0.436408 68 1 84
0.373705 0.465485 0.057604 32 145 140
0.083007 0.000227 -0.337757 49 100 141
0.589416 -0.113547 0.482231 68 1 84
-0.472522 -0.195253 -0.100118 71 40 120
-0.232004 -0.435291 -0.295962 77 194 107
-0.114637 -0.428209 -0.333191 146 215 65
0.535948 0.230779 0.280337 71 43 122
-0.568298 -0.005892 0.127614 68 1 84
0.081735 0.594937 -0.181225 45 111 142
0.562705 -0.042161 0.223988 68 1 84
0.287518 0.270592 -0.124463 71 44 123
-0.088648 0.640647 -0.114269 61 76 137
-0.252305 0.369051 -0.113412 54 90 140
-0.585239 -0.079752 0.129711 68 1 84
-0.353854 0.516403 0.140366 32 143 140
0.637623 -0.439633 0.447868 68 1 84
-0.294741 0.373655 -0.084808 68 57 130
-0.523889 0.019984 0.005620 68 1 84
0.078774 0.001374 -0.387880 41 120 142
0.556548 -0.165429 0.074752 68 1 84
0.606789 -0.232727 0.354432 68 1 84
-0.535399 0.246080 0.220786 69 54 129
0.609937 -0.308353 0.480107 68 1 84
-0.491076 -0.505783 -0.165992 69 53 128
0.620084 -0.549772 0.265690 68 1 84
-0.080243 0.304841 -0.246880 47 106 141
0.569960 0.044989 0.369578 68 1 84
0.391086 -0.333092 -0.127749 68 1 84
0.434197 0.424059 0.162457 33 142 140
0.553799 0.056950 0.540251 49 100 141
-0.173135 0.187611 -0.241805 34 167 132
0.444395 0.160925 -0.026952 68 1 84
-0.655766 -0.251268 0.440497 68 1 84
0.653462 -0.523074 0.399097 68 1 84
0.349399 0.510500 0.067832 37 171 129
-0.555122 0.234177 0.422445 46 108 142
0.330560 0.496081 -0.004308 43 115 142
-0.308322 0.553355 0.120836 31 162 134
-0.676093 -0.307191 0.401135 68 1 84
-0.534630 -0.346151 -0.026958 68 1 84
0.502494 0.043304 0.023520 68 1 84
0.110753 0.020593 -0.293956 71 43 122
-0.264017 0.583285 0.099195 30 151 138
0.312175 -0.491573 -0.289050 44 113 142
0.612920 -0.258100 0.341040 68 1 84
0.132622 -0.387243 -0.205672 87 198 101
-0.251800 0.184185 -0.205543 31 147 139
-0.560913 0.102208 0.201313 68 1 84
-0.093693 -0.085577 -0.401851 38 128 142
-0.274676 -0.296523 -0.194175 43 177 125
0.387233 0.396676 0.018175 34 137 141
-0.310662 0.510541 0.031309 61 76 137
0.102867 -0.038030 -0.387936 53 92 140
-0.543055 0.168192 0.178791 68 1 84
0.553511 0.124491 0.510006 40 122 142
-0.163661 0.246720 -0.205036 32 165 133
0.222886 -0.166280 -0.167713 72 34 115
0.506024 -0.453711 -0.032716 68 1 84
0.490656 0.078732 0.017293 68 1 84
0.109074 0.128556 -0.277446 69 54 129
0.404124 0.441539 0.096546 31 163 134
-0.402251 0.134923 -0.100470 72 32 113
0.615145 -0.341660 0.259616 68 1 84
-0.141242 -0.258841 -0.181283 83 197 103
0.133728 -0.314642 -0.160802 30 154 137
-0.218629 -0.028606 -0.193968 35 168 131
0.061711 -0.236422 -0.313143 58 83 139
-0.131225 0.095177 -0.245941 37 131 141
-0.519858 0.060280 0.026936 68 1 84
0.342479 0.531531 0.162598 30 158 136
-0.616620 -0.064525 0.397637 68 1 84
0.172471 -0.411457 -0.235702 47 179 123
0.037894 0.328927 -0.249825 54 91 140
-0.670114 -0.525530 0.228701 68 1 84
-0.117236 0.436558 -0.168681 70 11 94
0.459097 0.165086 -0.002768 68 1 84
0.317387 0.002268 -0.153841 68 1 84
-0.269767 0.279094 -0.154227 60 77 138
-0.567132 0.107776 0.240777 71 42 121
-0.607164 0.004006 0.546357 56 87 140
-0.638670 -0.169592 0.373470 68 1 84
-0.134573 0.090587 -0.241870 34 137 141
0.410126 -0.460436 -0.217014 71 17 99
-0.365833 0.292588 -0.071015 68 1 84
0.199343 0.208032 -0.214519 68 57 130
-0.072881 0.012105 -0.320290 51 182 121
0.536905 0.025612 0.129828 68 1 84
-0.359899 -0.206220 -0.156543 37 130 142
-0.150442 -0.023052 -0.256208 79 195 105
-0.591837 0.098059 0.428971 68 1 84
-0.410383 0.372240 0.050010 48 104 141
0.303761 0.529569 -0.027163 43 115 142
-0.681524 -0.299766 0.341704 68 1 84
0.199731 -0.427336 -0.257322 103 204 92
0.373684 0.425757 0.020767 33 140 141
0.520895 0.264174 0.472962 40 122 142
0.658911 -0.550188 0.402183 68 1 84
0.584301 -0.080925 0.418726 68 1 84
-0.115178 0.075664 -0.246679 43 177 125
-0.153175 0.589846 -0.136143 71 22 105
-0.655606 -0.429646 0.223571 68 1 84
0.556011 0.124488 0.490951 47 106 141
0.177476 0.392699 -0.157993 68 3 87
0.535509 0.244007 0.352503 60 77 138
-0.626472 -0.079729 0.489652 68 1 84
-0.669577 -0.268472 0.309921 68 1 84
0.385511 -0.295780 -0.138512 68 1 84
-0.068943 0.071714 -0.295160 33 141 140
0.048790 0.121670 -0.302679 70 45 124
0.069632 -0.172633 -0.328584 51 97 141
0.451186 -0.007402 -0.074693 68 1 84
0.520631 -0.539787 0.002550 68 1 84
-0.114486 0.067863 -0.245562 66 190 113
-0.643244 -0.185896 0.359291 68 1 84
0.235277 0.257178 -0.133110 61 76 137
-0.081573 -0.148349 -0.375190 39 173 128
-0.010311 0.589518 -0.196249 68 1 84
-0.208384 -0.123564 -0.189919 121 209 81
-0.703672 -0.369965 0.358837 68 1 84
0.171858 -0.124346 -0.195298 52 94 141
-0.556835 0.041231 0.122796 68 1 84
0.068906 0.363543 -0.205675 36 134 141
-0.292634 -0.356735 -0.233659 124 210 79
0.464089 0.307559 0.080311 69 53 128
-0.242182 0.523164 -0.069081 72 30 112
0.495436 -0.462349 -0.069254 68 1 84
0.165522 0.359045 -0.173203 66 62 133
-0.715540 -0.399560 0.352674 68 1 84
-0.037255 0.012872 -0.454055 48 104 141
0.602351 -0.211625 0.331494 68 1 84
-0.527864 0.180450 0.132681 68 1 84
-0.321932 0.171698 -0.167412 33 142 140
0.369911 0.228543 -0.104107 70 48 125
-0.331348 -0.120010 -0.161878 32 144 140
0.573187 -0.035090 0.523313 68 1 84
-0.073404 -0.275971 -0.314986 186 222 39
0.527351 0.267041 0.338234 69 54 129
0.564433 0.065883 0.301610 68 1 84
-0.591249 0.100168 0.502568 67 58 131
-0.256179 0.083390 -0.193050 35 136 141
-0.283586 -0.451966 -0.303651 43 177 125
-0.375680 0.507262 0.211091 71 192 110
-0.058665 -0.077391 -0.444888 60 77 138
-0.660748 -0.267383 0.254610 68 1 84
-0.138850 0.439369 -0.159179 68 1 84
0.330479 0.540260 0.109630 38 129 142
0.534543 0.243892 0.400741 67 59 131
0.480943 -0.373959 -0.044021 68 1 84
-0.127418 0.358641 -0.182289 58 82 139
0.406732 -0.558060 -0.227157 36 133 141
0.208642 0.528509 -0.158255 71 40 120
-0.639088 -0.491992 0.188121 68 1 84
0.510569 0.268198 0.505502 43 116 142
0.152746 -0.053774 -0.219617 64 67 135
-0.436610 0.175207 -0.044587 68 1 84
-0.083609 0.580432 -0.190479 68 1 84
0.127844 0.055410 -0.227808 62 73 137
0.560773 -0.138062 0.097541 68 1 84
0.638067 -0.446940 0.465818 68 1 84
-0.501515 -0.465050 -0.147068 68 1 84
-0.133321 -0.342300 -0.190640 121 209 81
0.372146 0.155047 -0.117759 68 1 84
-0.410042 0.371410 0.048757 54 90 140
0.532835 -0.532406 0.037500 68 1 84
0.547348 -0.017437 0.147894 68 1 84
-0.280477 0.573987 0.121645 34 139 141
0.149727 0.371361 -0.176571 70 49 126
0.027762 0.092183 -0.312998 49 100 141
0.533676 0.152043 0.172330 71 43 122
-0.552925 -0.077271 0.013436 68 1 84
-0.306426 0.129819 -0.178377 46 108 142
-0.502398 -0.512234 -0.142480 53 92 140
0.521730 0.253833 0.228291 42 117 142
0.139286 0.215183 -0.234825 61 76 137
-0.187713 0.249398 -0.175550 40 123 142
0.464921 -0.440909 -0.130805 68 1 84
-0.579189 0.148627 0.429028 71 21 103
-0.560020 -0.173883 0.013197 68 1 84
0.005715 -0.307816 -0.322858 30 160 135
-0.133520 -0.320300 -0.175701 56 185 118
0.453440 0.220121 0.011140 68 1 84
0.508634 0.084437 0.064174 68 1 84
-0.029050 -0.421264 -0.346419 218 226 24
-0.686844 -0.330097 0.382802 68 1 84
-0.593013 0.071687 0.401877 68 1 84
-0.131645 0.096530 -0.246469 36 132 141
-0.339199 0.063315 -0.156215 55 89 140
-0.137216 0.368431 -0.172093 67 60 132
-0.379929 0.077731 -0.130861 53 93 140
0.599318 -0.416242 0.214076 68 1 84
-0.609331 -0.117828 0.209835 68 1 84
-0.471950 -0.358530 -0.109687 68 1 84
0.202419 0.387011 -0.145633 72 29 111
0.301039 0.037726 -0.163051 72 26 108
0.402843 0.132120 -0.088403 68 1 84
0.554107 -0.121650 0.076696 68 1 84
-0.127633 0.322859 -0.203431 56 87 140
0.129164 -0.409397 -0.251997 56 185 118
-0.253432 -0.240022 -0.191759 42 176 126
-0.384318 0.324576 -0.024004 71 18 101
-0.082293 0.602537 -0.176093 68 1 84
0.168846 0.277559 -0.207704 72 25 107
0.392918 0.437924 0.066048 31 148 139
-0.217595 0.325834 -0.132974 66 64 133
-0.310608 0.255020 -0.157085 69 54 129
0.315946 0.552764 0.131848 40 122 142
-0.188351 0.485136 -0.131495 68 1 84
0.627747 -0.465165 0.255919 68 1 84
-0.683951 -0.307175 0.347547 68 1 84
0.550825 -0.325731 0.069754 68 1 84
0.093772 0.081248 -0.266347 70 45 124
-0.509258 0.190469 0.086436 71 24 106
0.643261 -0.457256 0.382606 68 1 84
0.570350 -0.108467 0.195349 68 1 84
0.009225 -0.247201 -0.361584 50 181 122
0.151909 -0.244681 -0.174492 35 136 141
-0.746345 -0.520143 0.346757 68 1 84
0.526062 0.266678 0.405367 71 42 121
-0.284045 0.079516 -0.183881 34 139 141
-0.069910 0.571826 -0.200593 68 1 84
0.091555 0.069896 -0.264455 56 87 140
0.600089 -0.228149 0.496349 68 1 84
-0.107730 0.459916 -0.178570 68 1 84
-0.073050 0.572359 -0.199115 68 1 84
-0.580418 0.040023 0.255189 69 8 91
-0.144525 0.418798 -0.156255 68 1 84
0.561577 0.092355 0.468610 70 47 124
0.589196 -0.165375 0.257099 68 1 84
-0.296701 -0.115500 -0.167440 31 147 139
0.511549 -0.441931 -0.014103 68 1 84
-0.326706 -0.180751 -0.163325 33 140 141
-0.508786 -0.108803 -0.069157 68 1 84
-0.194706 -0.099015 -0.199205 79 195 105
0.235757 -0.111569 -0.167897 52 94 141
0.347463 0.515444 0.074546 39 124 142
0.122037 -0.042656 -0.343895 72 28 110
0.557599 -0.386028 0.089678 68 1 84
-0.556684 0.212752 0.308824 68 1 84
0.553113 0.061270 0.540504 46 108 142
0.259526 0.062827 -0.177117 71 17 99
0.587023 -0.158671 0.248238 68 1 84
0.087872 0.047456 -0.269972 34 138 141
-0.073202 0.564198 -0.202691 68 1 84
0.405081 0.243525 -0.049622 70 9 92
-0.756101 -0.514107 0.386744 68 1 84
0.651834 -0.588242 0.387179 68 1 84
-0.600643 -0.065145 0.254551 68 1 84
0.532224 0.224394 0.243582 71 43 122
0.615595 -0.340880 0.261046 68 1 84
-0.713986 -0.396394 0.353364 68 1 84
-0.082537 0.644285 -0.105750 51 96 141
-0.133944 -0.428622 -0.329060 134 212 73
0.492595 0.248270 0.101611 72 26 108
0.594978 -0.201192 0.241252 68 1 84
-0.667225 -0.464721 0.236049 68 1 84
0.048948 -0.197567 -0.353786 56 87 140
-0.132210 -0.147959 -0.252743 159 217 56
-0.528975 -0.413771 -0.056215 68 1 84
-0.574264 0.096011 0.281478 69 6 90
-0.329001 -0.437446 -0.279254 32 165 133
-0.428870 -0.141683 -0.134846 65 66 134
0.573288 -0.249929 0.123609 68 1 84
0.114035 0.295680 -0.250598 64 67 135
-0.021679 0.639742 -0.140491 71 24 106
0.454267 0.404544 0.344156 31 146 140
0.339675 -0.279954 -0.168355 48 104 141
0.255491 -0.198130 -0.165979 30 151 138
-0.630485 -0.120499 0.438428 68 1 84
-0.128225 -0.266748 -0.185011 98 202 95
-0.552130 0.067988 0.129341 68 1 84
0.551985 0.167410 0.435675 71 38 118
0.482250 -0.444265 -0.093584 68 1 84
-0.479532 0.089334 -0.029336 68 1 84
0.181762 -0.323026 -0.173537 98 202 95
-0.587605 -0.168067 0.081955 68 1 84
-0.161180 0.503088 -0.153803 68 1 84
0.484290 -0.496721 -0.122213 68 1 84
0.569733 0.000940 0.510242 68 1 84
0.339772 -0.076344 -0.142381 68 1 84
-0.406852 0.154229 -0.089195 68 3 87
-0.181536 0.090997 -0.221400 30 156 137
0.609712 -0.262519 0.270197 68 1 84
-0.465817 0.281820 0.057659 56 86 139
0.464582 -0.368643 -0.061331 68 1 84
0.236813 0.604742 -0.007140 47 105 141
-0.509958 0.315161 0.223321 61 76 137
0.578899 -0.525485 0.163781 68 1 84
0.545236 -0.373879 0.061123 68 1 84
-0.304199 0.317594 -0.122023 71 38 118
0.198472 0.300556 -0.169621 71 42 121
-0.602288 0.041570 0.426827 68 1 84
0.561643 0.030114 0.255398 68 1 84
0.577491 -0.083379 0.312726 68 1 84
0.079537 -0.000895 -0.397626 60 77 138
0.579686 -0.102203 0.293233 68 1 84
0.160422 0.330886 -0.192047 69 50 127
0.216321 0.067150 -0.192289 72 33 114
-0.160192 -0.418227 -0.295375 100 203 93
0.065939 0.594985 -0.181840 42 119 142
0.069519 0.307185 -0.262840 60 78 138
0.644995 -0.552112 0.341685 68 1 84
0.087670 -0.390235 -0.254000 54 184 119
0.545027 -0.568642 0.066153 68 1 84
-0.021281 0.255205 -0.264264 33 140 141
0.349498 -0.058365 -0.140053 68 1 84
-0.111145 -0.092287 -0.351793 30 157 136
-0.547108 0.251987 0.333769 70 45 124
0.525865 -0.147043 -0.003674 68 1 84
0.509342 0.054204 0.048667 68 1 84
0.555533 -0.040984 0.178708 68 1 84
-0.447334 0.074929 -0.077603 68 1 84
0.614091 -0.267878 0.359977 68 1 84
-0.613087 -0.012722 0.493840 68 1 84
-0.368350 -0.236865 -0.159676 49 101 141
-0.301472 -0.390752 -0.253236 42 176 126
-0.423451 0.149926 -0.072573 68 3 87
0.001598 0.645199 -0.123911 47 105 141
0.240901 0.285753 -0.131051 64 67 135
0.495299 0.336777 0.270870 38 128 142
0.188746 -0.358317 -0.196517 35 169 130
-0.528091 -0.248650 -0.032078 68 1 84
-0.521775 -0.446378 -0.087434 68 1 84
-0.220880 0.366266 -0.128271 70 49 126
0.601500 -0.514566 0.227964 68 1 84
-0.302101 0.562576 0.175912 30 160 135
-0.571507 -0.437693 0.034532 68 1 84
0.634543 -0.441772 0.284162 68 1 84
-0.376543 0.331245 -0.028856 70 45 124
0.537011 0.158023 0.191053 70 9 92
0.273039 0.223522 -0.163523 71 42 121
0.027879 0.632999 -0.146168 40 122 142
0.428548 0.044291 -0.084899 71 40 120
0.500317 -0.552989 -0.062287 68 1 84
0.204119 -0.011826 -0.188364 72 35 116
0.450401 -0.171417 -0.096861 68 1 84
-0.044344 -0.420206 -0.342774 250 230 34
-0.498859 0.062130 -0.013489 68 1 84
0.128404 -0.416888 -0.281485 91 200 98
0.559579 -0.034620 0.211875 68 1 84
0.425094 0.031437 -0.090697 68 1 84
-0.289796 0.102396 -0.183991 41 120 142
-0.565577 -0.065342 0.053454 68 1 84
-0.098126 -0.033373 -0.410379 33 142 140
0.612221 -0.378460 0.248010 68 1 84
0.280838 0.531523 -0.070371 49 102 141
0.142091 -0.195516 -0.198160 49 100 141
-0.538848 0.280130 0.382623 57 85 139
0.171760 -0.430940 -0.276381 79 195 105
-0.429953 0.204340 -0.038689 70 14 97
-0.076397 0.305085 -0.249195 58 83 139
0.098318 -0.277334 -0.194821 73 193 109
0.213792 0.269793 -0.150249 57 85 139
0.458077 0.252769 0.033041 68 1 84
0.624272 -0.382791 0.272267 68 1 84
0.608479 -0.276344 0.253272 68 1 84
-0.240977 0.271759 -0.145467 52 95 141
0.342023 0.393960 -0.040232 40 123 142
0.146879 0.491529 -0.200818 68 1 84
-0.733633 -0.517759 0.319285 68 1 84
-0.250020 -0.039387 -0.182716 42 176 126
0.512890 -0.442845 -0.010929 68 1 84
-0.435242 -0.479895 -0.235877 60 78 138
-0.579731 -0.006657 0.181971 68 1 84
-0.699897 -0.374476 0.320828 68 1 84
-0.360933 0.480488 0.087106 32 144 140
0.581564 -0.121312 0.269576 68 1 84
-0.486231 -0.159101 -0.093157 71 15 98
0.169940 0.483062 -0.185413 68 1 84
-0.255120 0.077164 -0.192779 31 146 140
-0.547367 0.157458 0.187902 72 26 108
0.065113 0.217093 -0.266604 33 140 141
0.590965 -0.156834 0.339671 68 1 84
-0.242738 0.045042 -0.192454 30 153 138
-0.735400 -0.533059 0.321801 68 1 84
0.573328 -0.243863 0.123858 68 1 84
-0.618887 -0.049615 0.457374 68 1 84
-0.594991 0.042829 0.381050 68 1 84
-0.030656 -0.247667 -0.361886 107 205 89
0.440988 -0.097034 -0.098604 68 1 84
0.288021 0.126609 -0.175310 68 1 84
-0.322652 -0.332660 -0.203282 34 138 141
0.177754 0.137153 -0.235345 69 52 127
-0.303456 -0.140824 -0.166462 31 146 140
0.110810 -0.440158 -0.334273 69 191 111
-0.566340 -0.174844 0.026382 68 1 84
0.612846 -0.271494 0.284119 68 1 84
0.101128 0.074848 -0.256768 68 55 129
-0.200823 0.468210 -0.121745 68 1 84
-0.107496 0.639889 -0.098275 49 101 141
-0.525087 0.249609 0.180224 72 32 113
-0.125255 -0.417890 -0.315990 44 177 125
-0.741760 -0.511312 0.334239 68 1 84
-0.053001 0.347853 -0.227310 46 107 142
0.131796 0.024089 -0.244281 71 43 122
-0.555830 0.000082 0.076235 68 1 84
-0.005517 0.063643 -0.350525 54 91 140
0.192055 0.234576 -0.182482 62 72 136
0.045886 0.010060 -0.355367 30 156 137
-0.192315 -0.256102 -0.184555 89 199 100
0.608796 -0.301438 0.488275 68 1 84
-0.712208 -0.433383 0.306524 68 1 84
-0.175366 0.629210 0.009437 45 111 142
-0.019329 0.206465 -0.308913 42 119 142
0.564916 -0.376756 0.105982 68 1 84
0.179821 0.169762 -0.241334 68 57 130
0.131916 0.139872 -0.267798 71 40 120
0.191486 0.424376 -0.153436 68 1 84
-0.162551 0.278416 -0.173821 46 109 142
-0.407921 -0.495784 -0.257012 43 116 142
0.223188 -0.213889 -0.170841 45 110 142
0.536828 -0.019530 0.084648 68 1 84
-0.074620 0.635032 -0.138637 68 1 84
0.261619 -0.025144 -0.168677 72 29 111
-0.554169 -0.252027 0.005200 68 1 84
0.609593 -0.480458 0.230743 68 1 84
-0.610362 -0.353475 0.124046 68 1 84
0.484113 0.359613 0.276711 34 138 141
-0.016421 0.079643 -0.328397 43 115 142
0.088683 0.318696 -0.248851 61 75 137
-0.534276 0.201956 0.173184 71 24 106
0.530256 -0.453942 0.030977 68 1 84
0.329706 0.165880 -0.154690 71 38 118
-0.504638 0.166046 0.061456 68 2 85
0.228905 0.270320 -0.137271 57 85 139
0.015491 -0.174554 -0.404417 43 116 142
0.469896 0.384428 0.269650 30 157 136
0.063434 -0.345671 -0.228227 31 163 134
0.542931 0.110066 0.194373 64 68 135
-0.746921 -0.531207 0.347683 68 1 84
