ply
format ascii 1.0
element vertex 1277
property float x
property float y
property float z
property uchar red
property uchar green
property uchar blue
end_header
-0.378662 0.157758 -0.118715 68 1 84
-0.256712 0.003581 -0.215450 68 1 84
0.356225 0.474517 0.205842 68 55 129
-0.183113 0.095492 -0.213440 68 1 84
0.652724 -0.239680 0.383713 68 1 84
-0.260891 -0.348715 -0.205751 129 211 76
-0.516222 -0.079968 -0.024029 72 34 115
0.603539 -0.072755 0.204435 68 1 84
-0.646092 -0.221984 0.266795 68 1 84
-0.350067 -0.339787 -0.201032 64 189 114
-0.252889 0.301169 -0.120276 68 1 84
-0.398031 0.095753 -0.124887 68 1 84
-0.426488 -0.164158 -0.090393 61 76 137
-0.266775 0.516617 0.078920 63 69 135
-0.032700 0.090206 -0.305604 68 1 84
-0.577973 -0.369317 0.082865 70 48 125
0.492693 0.107972 0.008715 71 24 106
0.114875 0.079336 -0.279811 68 1 84
-0.259178 0.525575 0.079007 56 86 139
-0.089921 -0.219404 -0.246229 45 110 142
0.595182 -0.115280 0.102263 68 1 84
0.167350 0.493176 -0.133040 71 15 98
0.030586 -0.159860 -0.390927 68 1 84
-0.260312 -0.127704 -0.176560 68 1 84
-0.374795 -0.089101 -0.146558 68 1 84
-0.090054 -0.060515 -0.406431 68 1 84
-0.553431 0.072809 0.287965 68 1 84
0.518103 -0.043447 -0.031037 68 1 84
-0.605731 -0.118770 0.171219 68 1 84
-0.113629 0.617035 -0.072270 71 43 122
-0.080819 -0.081031 -0.402034 68 1 84
0.610584 -0.224054 0.135028 68 1 84
-0.433611 0.090744 -0.088092 68 1 84
0.104283 -0.268307 -0.222605 58 83 139
-0.333025 0.450874 0.095879 39 125 142
0.227508 0.363823 -0.136054 68 1 84
-0.048494 -0.272094 -0.298429 51 96 141
0.256918 0.518405 -0.008600 70 48 125
0.351724 -0.139178 -0.148114 68 1 84
0.346266 0.479278 0.158171 67 58 131
0.394625 0.400670 0.094489 59 80 138
0.601453 -0.064244 0.288315 68 1 84
0.634002 -0.389689 0.224373 68 1 84
0.292365 -0.234205 -0.169311 69 54 129
-0.004384 0.180148 -0.287547 68 1 84
0.476021 -0.354820 -0.084049 59 81 138
0.641604 -0.181755 0.275298 68 1 84
0.291638 -0.498790 -0.280056 167 219 51
-0.115257 0.266040 -0.225858 68 1 84
-0.122090 0.414483 -0.174562 68 1 84
0.244477 0.430200 -0.092171 64 68 135
-0.670833 -0.299664 0.318336 68 1 84
-0.394113 0.054664 -0.140677 68 1 84
-0.593939 -0.102996 0.132772 68 1 84
-0.027422 0.607084 -0.157719 68 1 84
-0.582845 -0.456685 0.094794 68 1 84
-0.090176 -0.403072 -0.283024 186 222 39
-0.211735 -0.509027 -0.295398 199 224 31
-0.448572 0.111074 -0.060010 68 1 84
-0.070976 0.362890 -0.247604 68 1 84
0.510849 0.222733 0.196096 68 1 84
-0.421112 -0.411231 -0.151128 51 182 121
0.550115 0.082039 0.162018 68 1 84
0.125314 0.631067 -0.030311 53 93 140
-0.237701 0.550670 0.130743 32 143 140
-0.361529 0.289066 -0.063960 68 1 84
0.472705 0.049947 -0.060639 68 1 84
0.430023 0.158590 -0.069053 71 21 103
0.168803 0.135072 -0.234078 68 1 84
0.400562 -0.401358 -0.196389 31 149 139
0.160470 0.137721 -0.237717 68 1 84
0.672487 -0.333566 0.377879 68 1 84
-0.086871 -0.172980 -0.293402 68 1 84
0.241160 0.268649 -0.157806 68 1 84
-0.431270 -0.111475 -0.108569 72 26 108
0.594595 -0.318303 0.094962 68 1 84
0.087242 -0.057607 -0.432326 68 1 84
-0.368693 0.322962 -0.031798 59 80 138
0.055010 -0.241824 -0.332260 72 33 114
-0.486931 -0.239224 -0.015620 72 35 116
0.139672 -0.051687 -0.306970 68 1 84
-0.639053 -0.346379 0.238033 68 1 84
0.609369 -0.090075 0.235103 68 1 84
-0.354015 0.172452 -0.132427 68 1 84
0.674838 -0.476300 0.317885 68 1 84
0.618736 -0.148083 0.536901 68 1 84
0.663378 -0.287700 0.508688 68 1 84
0.548210 -0.467868 -0.013418 60 78 138
0.133365 -0.177630 -0.256814 68 1 84
0.494312 -0.151067 -0.063672 68 1 84
-0.254014 -0.088341 -0.199951 68 1 84
0.090432 -0.057303 -0.428570 68 1 84
-0.238629 0.529919 0.031887 57 85 139
0.103254 0.190635 -0.268692 68 1 84
-0.052805 0.623127 -0.132955 68 1 84
0.513245 0.237392 0.424199 68 1 84
0.011111 -0.409496 -0.312117 68 190 112
-0.274671 0.354423 -0.088705 68 1 84
0.492097 0.086445 -0.007812 68 1 84
0.577156 -0.469337 0.046019 70 14 97
0.296188 -0.331823 -0.178757 41 120 142
-0.648575 -0.535276 0.237837 68 1 84
0.516834 0.119908 0.073086 68 1 84
0.558832 0.059620 0.201449 68 1 84
-0.552378 0.070919 0.454373 68 1 84
-0.061926 0.188922 -0.283329 68 1 84
-0.047530 0.064222 -0.303182 68 1 84
0.613405 -0.114421 0.447589 68 1 84
-0.590159 -0.046887 0.411928 68 1 84
0.149124 -0.160586 -0.247266 68 1 84
0.566544 0.034760 0.494870 68 1 84
-0.654042 -0.221806 0.327132 68 1 84
0.673732 -0.462494 0.317902 68 1 84
0.224493 0.407768 -0.123271 70 48 125
-0.376706 -0.298515 -0.126716 30 155 137
-0.173581 -0.465170 -0.293541 144 214 67
-0.483480 -0.479782 -0.107764 56 185 118
-0.246899 0.472824 -0.020902 71 22 105
-0.244348 0.413570 -0.078290 68 1 84
0.596865 -0.338803 0.099012 68 1 84
-0.384580 0.211525 -0.087627 68 1 84
-0.522720 0.167420 0.169530 63 71 136
0.364980 0.459593 0.160357 61 76 137
0.549313 0.078004 0.143220 68 1 84
0.599868 -0.335042 0.106081 68 1 84
0.189727 -0.097263 -0.240366 68 1 84
-0.085510 0.640731 -0.028927 70 45 124
-0.049810 -0.090173 -0.423406 68 1 84
0.063442 0.651968 -0.059682 71 17 99
0.336101 -0.039411 -0.184324 68 1 84
0.380871 0.396761 0.052343 64 68 135
-0.614062 -0.182472 0.167730 68 1 84
0.229310 -0.433658 -0.249507 91 200 98
0.533698 -0.064175 -0.014471 68 1 84
-0.412201 0.098672 -0.110015 68 1 84
0.419227 0.186640 -0.071555 69 54 129
0.370386 0.004623 -0.169767 70 9 92
-0.473549 -0.058657 -0.074467 72 35 116
-0.520202 0.231731 0.336172 68 1 84
0.146221 -0.252765 -0.171807 71 24 106
-0.578059 -0.004218 0.361400 68 1 84
-0.536465 0.091556 0.120604 71 42 121
-0.148388 0.410728 -0.161531 68 1 84
-0.508973 -0.480608 -0.069461 31 146 140
0.238274 0.317049 -0.129750 68 1 84
0.066434 -0.136334 -0.381129 68 1 84
-0.707207 -0.488411 0.379922 68 1 84
0.338610 0.489167 0.235565 68 1 84
0.183580 0.232893 -0.221056 68 1 84
-0.404373 -0.371291 -0.146043 35 168 131
0.215108 -0.365822 -0.219905 50 181 122
-0.706710 -0.466811 0.389327 68 1 84
0.222074 0.583367 0.074416 71 42 121
0.382544 0.064294 -0.155465 68 1 84
0.472300 -0.037078 -0.087630 68 1 84
-0.565060 -0.433109 0.056113 66 64 133
0.063586 0.280231 -0.255041 68 1 84
-0.069691 -0.220354 -0.288990 70 49 126
-0.222955 0.394330 -0.111817 68 1 84
-0.665984 -0.446824 0.263840 68 1 84
0.486421 -0.409610 -0.109968 44 114 142
-0.624311 -0.169869 0.477033 68 1 84
0.136534 0.552878 -0.141134 68 1 84
0.031582 -0.239080 -0.347674 71 37 117
-0.375640 0.257870 -0.068999 68 1 84
-0.269752 0.163789 -0.184045 68 1 84
-0.583380 -0.469469 0.096712 68 1 84
0.573684 0.012677 0.191082 68 1 84
0.082963 -0.204369 -0.319166 68 1 84
-0.628526 -0.152865 0.340054 68 1 84
0.193293 0.354308 -0.167662 68 1 84
-0.409885 0.134223 -0.099076 68 1 84
0.406253 0.157247 -0.101285 69 50 127
0.341836 0.187326 -0.149899 68 3 87
0.318939 -0.235790 -0.163570 66 62 133
0.236253 0.496262 -0.061372 57 84 139
0.412458 0.369393 0.082382 55 88 140
-0.469801 0.331432 0.387290 69 52 127
-0.565523 -0.250954 0.064609 68 1 84
-0.714156 -0.518883 0.412144 68 1 84
0.593034 -0.116641 0.095130 68 1 84
0.512129 -0.341805 -0.024011 71 39 119
0.283821 0.514929 0.046304 55 89 140
0.029007 -0.159723 -0.391680 68 1 84
-0.116321 0.603651 -0.091956 69 8 91
0.545790 0.139170 0.425948 68 1 84
-0.078289 0.028661 -0.348752 68 1 84
-0.326584 -0.238688 -0.158878 34 137 141
0.163183 0.354304 -0.196311 68 1 84
0.182301 0.607065 0.023044 57 85 139
0.631713 -0.231009 0.205956 68 1 84
-0.136845 0.153419 -0.240138 68 1 84
0.113993 0.194552 -0.263668 68 1 84
-0.246197 0.536369 0.067667 50 98 141
0.532662 0.193556 0.353708 68 1 84
0.443729 -0.145990 -0.102421 68 2 85
-0.258093 0.072230 -0.203535 68 1 84
-0.530214 0.033363 0.048864 72 30 112
-0.416898 -0.032755 -0.126785 68 1 84
0.019440 0.055154 -0.418250 68 1 84
-0.536149 0.093228 0.121625 71 38 118
0.441340 -0.380258 -0.141702 47 106 141
0.680549 -0.507918 0.328564 68 1 84
0.018192 -0.406560 -0.310967 126 210 78
-0.673530 -0.434501 0.280705 68 1 84
0.501341 -0.156085 -0.055002 68 1 84
-0.588323 -0.036616 0.388031 68 1 84
0.602061 -0.070706 0.328516 68 1 84
0.134225 0.053673 -0.317770 68 1 84
0.666243 -0.508100 0.291945 68 1 84
0.359254 0.150447 -0.150266 65 65 134
-0.681934 -0.542875 0.295576 68 1 84
0.383264 0.231250 -0.093600 69 54 129
-0.551092 0.094352 0.329102 68 1 84
-0.282895 0.517567 0.165114 33 142 140
-0.130140 0.341624 -0.208349 68 1 84
-0.091534 0.169484 -0.265109 68 1 84
-0.297538 -0.219456 -0.163764 55 88 140
-0.225907 -0.286539 -0.175638 42 176 126
-0.292199 0.055928 -0.199630 68 1 84
0.574467 0.019033 0.463430 68 1 84
0.430115 0.313547 0.045468 69 52 127
0.000165 0.079230 -0.369298 68 1 84
-0.377091 0.256475 -0.068388 68 1 84
-0.233105 -0.005395 -0.220826 68 1 84
0.671417 -0.346322 0.354537 68 1 84
-0.104421 -0.064388 -0.351892 68 1 84
-0.427773 -0.247751 -0.063130 55 89 140
-0.220049 0.192586 -0.200366 68 1 84
-0.426758 0.385941 0.384124 36 134 141
-0.028558 -0.021594 -0.459363 68 1 84
0.019662 -0.423139 -0.314069 100 203 93
0.619041 -0.475971 0.171921 68 1 84
0.219592 0.300090 -0.139308 68 1 84
0.609053 -0.181707 0.134681 68 1 84
0.189715 0.108746 -0.223338 68 1 84
-0.214394 -0.326805 -0.186516 119 208 82
0.579618 0.007865 0.359893 68 1 84
0.540355 0.148973 0.263860 68 1 84
-0.604311 -0.396127 0.138979 68 1 84
0.508832 0.036818 -0.007965 68 1 84
-0.079747 -0.359547 -0.263891 105 204 91
0.429670 -0.008836 -0.125515 68 1 84
0.115870 -0.041117 -0.394531 68 1 84
0.531881 0.193158 0.393237 68 1 84
0.064111 0.266079 -0.263537 68 1 84
0.489469 0.148302 0.029818 71 22 105
0.495321 0.233124 0.140150 68 1 84
0.245435 -0.280007 -0.175230 60 77 138
-0.486695 -0.483079 -0.103891 53 183 120
0.170629 -0.348483 -0.189525 54 184 119
-0.325856 0.486459 0.233686 39 124 142
-0.309235 0.135083 -0.172887 68 1 84
-0.623186 -0.485771 0.201723 68 1 84
0.038820 0.627222 -0.138375 68 1 84
-0.355069 0.260211 -0.087050 68 1 84
-0.091816 -0.154733 -0.297737 68 1 84
-0.411889 -0.504397 -0.190045 73 193 109
-0.304309 0.063559 -0.193245 68 1 84
-0.453078 0.346192 0.191945 42 117 142
0.197839 -0.069199 -0.241293 68 1 84
-0.554736 -0.487721 0.031440 57 85 139
0.290928 -0.401487 -0.242657 42 176 126
0.097874 0.439503 -0.181847 68 1 84
-0.239265 0.538015 0.050708 43 116 142
-0.251213 0.299741 -0.121202 68 1 84
0.522185 -0.007872 -0.009740 68 1 84
-0.041479 -0.332196 -0.293201 46 108 142
-0.040298 0.040762 -0.359943 68 1 84
0.415535 -0.267155 -0.100488 72 33 114
0.309368 0.514910 0.196940 68 1 84
0.321700 -0.244506 -0.165424 52 94 141
-0.232562 -0.335511 -0.191751 194 223 34
0.026182 0.068589 -0.379842 68 1 84
0.263676 0.014538 -0.220278 68 1 84
-0.017066 0.645806 -0.110237 68 1 84
0.458329 0.143278 -0.033127 72 26 108
-0.170400 0.123942 -0.222421 68 1 84
-0.410201 -0.107640 -0.122908 70 14 97
0.540997 -0.491826 -0.030131 37 130 142
-0.474556 -0.083789 -0.075127 69 53 128
-0.298100 0.060585 -0.196480 68 1 84
0.297207 -0.436286 -0.243490 105 204 91
0.626184 -0.170433 0.522909 68 1 84
0.567366 -0.469676 0.024474 68 1 84
0.061325 -0.301065 -0.292309 36 134 141
0.426227 0.390545 0.337360 66 62 133
-0.649365 -0.211965 0.295572 68 1 84
-0.605280 -0.082808 0.391216 68 1 84
-0.564432 0.007698 0.127226 68 1 84
-0.457490 0.327224 0.158143 48 103 141
0.088331 -0.089354 -0.401932 68 1 84
-0.643508 -0.353774 0.249492 68 1 84
-0.482590 0.057253 -0.028904 52 95 141
-0.526637 0.182578 0.445775 68 1 84
0.005302 0.084655 -0.362022 68 1 84
0.142785 0.547128 -0.137886 68 1 84
-0.563392 -0.205933 0.056310 71 38 118
-0.589998 -0.519350 0.110126 68 1 84
-0.308868 -0.300421 -0.168886 31 147 139
-0.442229 0.374080 0.360519 31 163 134
0.568621 0.054440 0.412309 68 1 84
-0.574913 -0.014388 0.147146 68 1 84
-0.603018 -0.201677 0.130630 68 1 84
-0.574731 -0.420654 0.076605 72 30 112
0.140916 0.487678 -0.152811 68 1 84
0.444122 0.020253 -0.105934 68 1 84
0.653327 -0.489136 0.264578 68 1 84
0.508646 -0.136394 -0.052338 68 1 84
0.226873 0.518691 -0.058187 51 97 141
-0.576275 -0.034610 0.118651 68 1 84
-0.156258 -0.441940 -0.281427 199 224 31
0.574340 0.006989 0.253279 68 1 84
-0.115648 -0.030284 -0.356492 68 1 84
0.041996 -0.321534 -0.301780 46 108 142
-0.095714 -0.383041 -0.263635 126 210 78
0.237795 0.487930 -0.064886 59 80 138
0.593085 -0.404224 0.090661 68 1 84
0.682870 -0.475823 0.340678 68 1 84
0.652509 -0.218787 0.299647 68 1 84
0.430793 -0.098650 -0.124136 68 1 84
0.298612 -0.476376 -0.268122 139 213 70
-0.242639 -0.439574 -0.242562 131 211 75
0.122342 -0.053268 -0.358933 68 1 84
0.458302 0.350945 0.308193 67 60 132
-0.533856 0.160514 0.429852 68 1 84
-0.023114 0.552795 -0.185548 68 1 84
0.183880 0.322398 -0.176088 68 1 84
0.547090 -0.073982 0.004429 68 1 84
-0.498668 -0.142260 -0.042108 68 2 85
-0.598352 -0.066364 0.397223 68 1 84
-0.101646 0.415817 -0.183187 68 1 84
-0.585859 -0.032327 0.229327 68 1 84
0.578846 -0.070326 0.074598 68 1 84
-0.593714 -0.131860 0.118854 68 1 84
-0.646558 -0.207520 0.345358 68 1 84
0.492768 0.288223 0.392161 70 12 95
-0.271336 0.092785 -0.196826 68 1 84
-0.293034 -0.216223 -0.163338 55 88 140
0.449794 -0.159913 -0.093187 68 1 84
0.222182 0.376971 -0.137360 68 1 84
0.443548 0.355502 0.420549 70 11 94
0.300595 0.328564 -0.104369 60 77 138
-0.609230 -0.123231 0.487227 68 1 84
0.208629 -0.110185 -0.226696 68 1 84
0.292554 0.193002 -0.177832 70 11 94
0.012257 0.626183 -0.145487 68 1 84
0.110820 -0.274636 -0.203809 55 89 140
0.437377 0.328921 0.087485 61 74 137
0.035198 -0.413812 -0.310506 30 158 136
-0.472331 0.032945 -0.053901 61 76 137
0.145112 -0.029763 -0.323607 68 1 84
-0.655479 -0.228169 0.298526 68 1 84
0.407270 0.027615 -0.141409 68 1 84
0.330775 0.263030 -0.125317 68 57 130
0.547572 0.075530 0.125593 68 1 84
0.707531 -0.518189 0.423826 68 1 84
-0.074956 -0.155486 -0.326144 68 1 84
0.488796 -0.291441 -0.027966 68 1 84
0.494240 0.291160 0.338661 71 39 119
-0.477252 0.327788 0.320191 47 106 141
-0.572595 -0.059333 0.088013 68 1 84
-0.689619 -0.377997 0.359837 68 1 84
0.405196 -0.329857 -0.132496 54 91 140
-0.409853 0.412914 0.292527 39 126 142
0.184222 0.605469 0.011008 62 72 136
-0.422139 0.350420 0.096702 42 118 142
0.375179 0.456016 0.214722 69 50 127
-0.627975 -0.154313 0.279754 68 1 84
0.237397 -0.246079 -0.173390 72 32 113
-0.357985 0.291079 -0.066151 68 1 84
0.668762 -0.519115 0.297366 68 1 84
0.400666 0.393173 0.094897 58 82 139
0.049849 0.630238 -0.131196 68 1 84
0.173500 -0.308144 -0.159181 52 95 141
-0.498632 0.165733 0.078359 68 57 130
-0.139141 0.005142 -0.317392 68 1 84
-0.536586 0.160683 0.292256 72 25 107
-0.684836 -0.340813 0.426341 68 1 84
0.526224 0.158073 0.165832 68 1 84
0.080042 0.009323 -0.433736 68 1 84
0.243400 -0.131060 -0.194652 72 28 110
0.472933 0.321003 0.221737 71 38 118
0.483016 0.179607 0.041424 68 1 84
0.480433 0.314212 0.356495 71 37 117
-0.483519 -0.382276 -0.068789 40 122 142
-0.586783 -0.035246 0.294367 68 1 84
0.252121 0.136886 -0.202863 68 1 84
0.191229 -0.433164 -0.264456 83 197 103
-0.532981 0.102921 0.506301 68 1 84
0.403434 -0.287205 -0.113217 66 61 132
0.639660 -0.525929 0.239748 68 1 84
-0.437602 0.189811 -0.033460 70 11 94
-0.487902 0.223026 0.105457 46 108 142
0.080355 0.030826 -0.328994 68 1 84
0.063848 0.627658 -0.130647 68 1 84
-0.074678 0.270665 -0.242241 68 1 84
0.076665 -0.324976 -0.272891 30 153 138
-0.089675 0.374676 -0.224767 68 1 84
0.402960 0.355890 0.037297 54 90 140
-0.212271 -0.238309 -0.174870 56 87 140
0.061374 -0.170320 -0.364634 68 1 84
-0.686730 -0.453030 0.309570 68 1 84
-0.041083 -0.118172 -0.403319 68 1 84
0.658005 -0.265719 0.374920 68 1 84
-0.423991 0.397402 0.270246 42 117 142
-0.359348 0.294742 -0.062514 68 1 84
-0.476151 0.202211 0.051870 66 61 132
0.350784 -0.044845 -0.174956 68 1 84
0.238347 0.376858 -0.124087 69 52 127
0.567125 0.019751 0.514733 68 1 84
-0.483654 -0.459621 -0.105465 33 166 133
-0.665767 -0.269006 0.359253 68 1 84
-0.429569 0.052219 -0.104901 68 1 84
0.543326 0.153008 0.406435 68 1 84
0.320611 0.504375 0.156500 64 68 135
0.677273 -0.357301 0.379713 68 1 84
0.547182 0.094870 0.182944 68 1 84
-0.170058 0.261831 -0.193551 68 1 84
0.522111 0.211076 0.430246 68 1 84
-0.319826 0.490694 0.196993 31 150 139
-0.081479 0.163038 -0.268736 68 1 84
-0.080385 -0.400237 -0.286990 129 211 76
-0.009832 0.146067 -0.293141 68 1 84
-0.544355 -0.238398 0.037993 68 1 84
-0.624360 -0.210071 0.197157 68 1 84
-0.124447 0.141654 -0.245252 68 1 84
0.095274 0.384614 -0.226494 68 1 84
-0.063171 -0.313920 -0.268583 30 152 138
-0.431876 0.369577 0.170352 30 157 136
0.094989 -0.372592 -0.267971 116 208 84
0.414011 -0.290935 -0.103685 71 42 121
0.583152 -0.015842 0.296075 68 1 84
-0.364171 -0.343189 -0.189667 37 171 129
0.431688 0.277205 0.010376 64 68 135
-0.263606 -0.053433 -0.207515 68 1 84
-0.349459 -0.431648 -0.204941 66 190 113
0.105275 0.027194 -0.368844 68 1 84
0.605394 -0.097858 0.513977 68 1 84
0.682953 -0.320469 0.449594 68 1 84
0.030659 0.392575 -0.234307 68 1 84
0.118428 -0.328623 -0.199277 31 149 139
-0.122352 0.286050 -0.205585 68 1 84
-0.254752 -0.069866 -0.206498 68 1 84
-0.133930 -0.236295 -0.177057 39 125 142
-0.099511 0.252826 -0.255065 68 1 84
0.569414 -0.080023 0.045381 68 1 84
-0.369200 0.382491 0.037828 36 132 141
0.662442 -0.360164 0.305867 68 1 84
0.399587 -0.384270 -0.197373 30 159 136
0.249957 -0.176708 -0.170270 68 1 84
-0.338910 0.145687 -0.152707 68 1 84
-0.274040 0.524125 0.180319 31 146 140
0.696094 -0.415687 0.467365 68 1 84
0.092182 0.087396 -0.280082 68 1 84
0.083430 -0.222719 -0.306798 71 24 106
0.628471 -0.136330 0.303878 68 1 84
0.474240 0.318352 0.406384 68 2 85
-0.592411 -0.062317 0.168662 68 1 84
0.678738 -0.514357 0.323120 68 1 84
-0.530596 -0.009002 0.023555 69 54 129
0.058272 0.134098 -0.288974 68 1 84
0.564304 -0.175016 0.032667 68 1 84
0.427830 -0.003854 -0.126656 68 1 84
-0.454221 -0.282061 -0.036596 49 102 141
-0.253497 0.517845 0.045598 66 61 132
0.545946 0.141997 0.311530 68 1 84
-0.631892 -0.230013 0.219985 68 1 84
-0.439676 0.368429 0.200292 49 102 141
-0.325526 -0.139407 -0.147928 71 22 105
-0.640521 -0.205589 0.422366 68 1 84
-0.526697 0.175249 0.204751 71 39 119
0.513951 0.189753 0.155292 70 14 97
-0.051045 -0.237378 -0.312720 70 48 125
-0.523696 -0.110894 -0.015388 70 14 97
-0.530927 0.193606 0.324526 68 1 84
-0.559822 0.050920 0.305584 68 1 84
-0.610791 -0.118590 0.203602 68 1 84
0.213223 0.223400 -0.204437 68 1 84
-0.490515 0.070621 -0.008934 69 53 128
-0.523134 -0.493005 -0.037163 50 99 141
-0.077640 0.040511 -0.317920 68 1 84
-0.066359 0.546659 -0.173196 68 1 84
-0.322111 0.488063 0.186325 35 135 141
-0.085967 0.342456 -0.249088 68 1 84
0.141591 -0.391995 -0.241171 30 156 137
-0.641295 -0.220661 0.466546 68 1 84
0.360108 0.132502 -0.155623 54 91 140
-0.526763 0.206055 0.297119 71 40 120
-0.378923 0.126996 -0.129912 68 1 84
-0.096898 -0.016088 -0.404278 68 1 84
0.168866 -0.162491 -0.225214 68 1 84
0.355842 -0.474125 -0.241627 141 214 68
-0.292380 0.320750 -0.097959 71 24 106
-0.136804 -0.234779 -0.175907 39 125 142
-0.673675 -0.323428 0.321562 68 1 84
-0.280764 0.517730 0.145428 33 141 140
0.622235 -0.427225 0.181648 68 1 84
-0.437728 -0.224744 -0.058055 65 66 134
-0.135975 -0.308783 -0.164063 31 150 139
0.357039 0.414631 0.037521 52 95 141
-0.600660 -0.069481 0.281385 68 1 84
-0.065696 0.032344 -0.336180 68 1 84
0.339555 -0.027696 -0.184307 68 1 84
-0.491121 0.301901 0.294448 57 84 139
-0.430407 0.070821 -0.099040 68 1 84
-0.416120 0.185706 -0.067435 68 1 84
0.040964 0.508997 -0.191089 68 1 84
-0.402130 0.119675 -0.112324 68 1 84
-0.582807 -0.243701 0.089369 68 1 84
-0.249478 0.037084 -0.212198 68 1 84
-0.658175 -0.269632 0.455585 68 1 84
0.133369 0.568874 -0.135667 68 1 84
-0.300171 -0.112465 -0.167678 68 1 84
0.690489 -0.376036 0.474756 68 1 84
0.530379 0.152409 0.180734 68 1 84
0.194732 0.354997 -0.165993 68 1 84
-0.679714 -0.324428 0.396648 68 1 84
0.405420 0.351666 0.036959 53 93 140
0.560864 0.073857 0.468172 68 1 84
-0.663361 -0.511127 0.261978 68 1 84
0.131374 0.278242 -0.224913 68 1 84
0.110624 -0.332267 -0.213690 30 153 138
-0.127144 -0.111663 -0.263270 68 1 84
0.034818 0.616329 -0.150738 68 1 84
-0.012920 0.102503 -0.315892 68 1 84
0.426586 0.375532 0.143727 62 73 137
0.023268 0.259934 -0.280303 68 1 84
-0.614769 -0.107178 0.324030 68 1 84
0.494827 0.255318 0.171628 71 20 102
-0.219668 0.542623 0.011538 49 101 141
0.301971 -0.326579 -0.176867 36 134 141
0.443671 0.091562 -0.082247 71 22 105
-0.608545 -0.100580 0.219334 68 1 84
-0.142029 0.487509 -0.134370 68 1 84
-0.134434 -0.227321 -0.179927 43 116 142
-0.042086 0.040863 -0.373430 68 1 84
-0.462804 0.348927 0.349761 50 99 141
-0.476678 0.328506 0.313704 48 104 141
-0.459951 0.354200 0.322423 46 109 142
-0.356321 0.065698 -0.165700 68 1 84
0.180708 -0.030994 -0.244983 68 1 84
0.074170 -0.038624 -0.450422 68 1 84
0.578741 -0.388660 0.057725 68 1 84
-0.403385 0.243552 -0.047681 68 1 84
0.454834 0.334056 0.158584 67 58 131
0.586550 -0.116239 0.077290 68 1 84
-0.561702 0.017846 0.131895 68 1 84
-0.541108 -0.085254 0.014132 68 1 84
0.160751 0.051235 -0.271652 68 1 84
-0.310459 0.057836 -0.191364 68 1 84
0.619437 -0.330205 0.159721 68 1 84
0.024355 0.067772 -0.389206 68 1 84
-0.558717 0.015643 0.112272 68 1 84
-0.423263 0.169538 -0.066506 68 1 84
0.434730 0.375380 0.372041 72 30 112
0.638378 -0.394955 0.238692 68 1 84
-0.302433 -0.406393 -0.223086 87 198 101
0.173902 0.478223 -0.133153 69 8 91
0.553155 0.094579 0.257834 68 1 84
0.268762 0.503776 -0.003495 66 61 132
0.270120 0.144760 -0.196189 68 1 84
-0.225574 -0.138328 -0.187282 71 17 99
-0.631841 -0.224952 0.221056 68 1 84
0.627844 -0.411774 0.204023 68 1 84
-0.033783 -0.205220 -0.351720 68 1 84
0.523757 -0.128073 -0.035354 68 1 84
0.283763 -0.436017 -0.245101 62 188 115
-0.585556 -0.026902 0.339336 68 1 84
0.569688 -0.350139 0.047660 68 1 84
-0.045771 -0.028116 -0.452114 68 1 84
0.156681 -0.008759 -0.312405 68 1 84
-0.235516 -0.093896 -0.206417 68 1 84
0.537164 0.179423 0.342746 68 1 84
0.440919 0.191100 -0.035734 62 73 137
-0.617273 -0.130375 0.415917 68 1 84
0.571825 -0.213319 0.051011 68 1 84
0.142758 -0.045769 -0.308261 68 1 84
0.674144 -0.503173 0.311928 68 1 84
0.316875 -0.145990 -0.158576 68 1 84
0.376288 0.454386 0.248058 72 33 114
-0.551576 0.083705 0.435287 68 1 84
0.593402 -0.273922 0.093356 68 1 84
-0.458012 0.353690 0.279017 34 138 141
0.218046 0.164175 -0.214116 68 1 84
0.544661 0.111542 0.206581 68 1 84
-0.664306 -0.263173 0.359137 68 1 84
-0.656631 -0.361635 0.277961 68 1 84
0.248916 0.234111 -0.183370 68 1 84
-0.093499 0.093844 -0.256520 68 1 84
0.612671 -0.118590 0.402144 68 1 84
-0.544919 -0.109188 0.016922 70 12 95
0.671212 -0.498928 0.304762 68 1 84
-0.572191 0.005938 0.410606 68 1 84
-0.469165 -0.218315 -0.036949 72 32 113
0.601419 -0.064012 0.266282 68 1 84
0.589579 -0.029407 0.474597 68 1 84
-0.117243 -0.007157 -0.363113 68 1 84
-0.066746 -0.132974 -0.358578 68 1 84
0.533560 -0.320803 0.008436 68 1 84
0.266567 0.382499 -0.097172 66 61 132
-0.127267 -0.467077 -0.306283 165 218 53
0.163499 0.049812 -0.243950 68 1 84
0.313161 0.398856 -0.042408 46 108 142
0.364975 -0.078821 -0.160582 68 1 84
0.563633 -0.495789 0.015764 71 22 105
0.680882 -0.499252 0.330458 68 1 84
-0.704515 -0.499924 0.365483 68 1 84
0.704309 -0.571142 0.409875 68 1 84
0.352336 0.429292 0.052352 46 107 142
0.377822 -0.356751 -0.214934 32 143 140
-0.597327 -0.498718 0.132836 68 1 84
-0.334557 -0.014311 -0.180749 68 1 84
0.436802 0.380331 0.221922 64 68 135
-0.604108 -0.494360 0.150784 68 1 84
0.125853 -0.076801 -0.311964 68 1 84
-0.121630 -0.449625 -0.298445 186 222 39
0.074812 -0.000660 -0.444287 68 1 84
0.106241 -0.099557 -0.345228 68 1 84
-0.486823 0.281915 0.187477 48 103 141
-0.543722 0.127345 0.303743 68 1 84
0.644115 -0.206177 0.462839 68 1 84
0.310363 -0.112766 -0.171555 68 1 84
-0.669478 -0.350414 0.305915 68 1 84
0.212064 0.391477 -0.140748 68 1 84
0.611330 -0.202838 0.138561 68 1 84
-0.567654 0.010654 0.164197 68 1 84
-0.516625 0.203342 0.475426 68 1 84
-0.624081 -0.141343 0.357797 68 1 84
-0.071060 0.038892 -0.320021 68 1 84
-0.536391 -0.072326 0.009252 68 1 84
-0.416189 0.012069 -0.125663 68 1 84
0.236621 0.510629 -0.050328 51 96 141
0.005658 0.078065 -0.379753 68 1 84
0.311992 0.443494 0.003571 47 105 141
-0.566630 -0.399545 0.060460 71 42 121
-0.471425 0.335361 0.295713 46 108 142
0.153194 0.363400 -0.200714 68 1 84
0.126318 -0.460655 -0.308222 62 188 115
-0.284434 -0.208020 -0.161653 56 87 140
-0.519719 -0.220037 0.007243 70 11 94
-0.389723 -0.026681 -0.146899 68 1 84
0.596303 -0.050039 0.236585 68 1 84
-0.274504 0.450159 -0.004337 71 43 122
-0.085121 0.244257 -0.269380 68 1 84
-0.285372 0.503933 0.102477 52 94 141
-0.712138 -0.551955 0.408138 68 1 84
0.362172 0.462186 0.157870 60 78 138
0.443191 0.356680 0.417172 71 18 101
-0.568370 0.000331 0.475291 68 1 84
-0.663293 -0.281321 0.450091 68 1 84
-0.449420 0.223592 0.012769 56 86 139
-0.035252 -0.198076 -0.354898 68 1 84
0.483738 -0.382650 -0.095414 42 118 142
0.252680 0.222603 -0.186946 68 1 84
0.519021 0.218728 0.246165 68 1 84
0.458926 0.335916 0.424540 68 1 84
0.364478 0.463341 0.267886 71 44 123
0.235125 -0.463080 -0.281029 139 213 70
-0.543621 0.093068 0.181661 72 35 116
-0.451069 0.025671 -0.084974 71 37 117
-0.241579 -0.304668 -0.174441 98 202 95
0.690009 -0.540294 0.352614 68 1 84
-0.389284 0.331624 0.004176 44 114 142
0.470771 0.331218 0.334221 59 81 138
0.649795 -0.232680 0.465872 68 1 84
0.575703 -0.214093 0.057799 68 1 84
-0.271900 0.446331 -0.012524 71 20 102
-0.280981 -0.016817 -0.205964 68 1 84
-0.219859 0.494872 -0.041347 72 35 116
0.633123 -0.166313 0.253647 68 1 84
0.017363 -0.175059 -0.386201 68 1 84
0.594054 -0.043458 0.300661 68 1 84
-0.001389 0.216285 -0.297887 68 1 84
-0.001925 -0.436792 -0.317370 134 212 73
-0.234520 0.198323 -0.192460 68 1 84
0.523936 0.213996 0.404239 68 1 84
0.529172 0.198765 0.403565 68 1 84
-0.546242 0.114662 0.409268 68 1 84
0.603757 -0.201167 0.116796 68 1 84
-0.146673 0.257648 -0.220989 68 1 84
0.492115 0.272568 0.197175 70 9 92
-0.539471 0.130946 0.442325 68 1 84
-0.424132 -0.332737 -0.104227 46 108 142
0.269076 -0.453573 -0.259554 89 199 100
-0.217330 0.048256 -0.209878 68 1 84
-0.522609 0.209124 0.415037 68 1 84
-0.501969 -0.029554 -0.031524 71 42 121
-0.587565 -0.036257 0.238964 68 1 84
0.274750 0.331024 -0.114237 69 5 88
0.564303 0.047176 0.251525 68 1 84
0.049431 -0.449166 -0.319330 51 182 121
-0.101224 -0.308125 -0.188255 30 158 136
0.429326 0.164781 -0.067198 70 45 124
-0.073522 -0.083017 -0.410363 68 1 84
-0.313993 -0.135985 -0.153354 68 2 85
-0.589588 -0.194275 0.100883 70 11 94
0.628306 -0.478112 0.201413 68 1 84
0.652816 -0.257925 0.501336 68 1 84
0.429491 -0.371957 -0.149092 42 117 142
0.604012 -0.082940 0.175602 68 1 84
-0.146499 0.268868 -0.203466 68 1 84
0.230153 0.566920 0.013887 59 80 138
0.265052 0.463629 -0.046618 45 110 142
-0.250935 0.505851 0.020852 56 87 140
-0.640935 -0.221410 0.475295 68 1 84
-0.586158 -0.132188 0.097841 70 11 94
0.644007 -0.210562 0.269680 68 1 84
-0.153190 0.605649 0.012517 71 38 118
0.450577 -0.022199 -0.107194 68 1 84
-0.468239 -0.069545 -0.080929 69 50 127
0.582369 -0.170065 0.065214 68 1 84
-0.295050 -0.410823 -0.225440 96 201 96
-0.711395 -0.519386 0.394004 68 1 84
-0.585806 -0.165911 0.092669 69 8 91
-0.619765 -0.203017 0.181230 68 1 84
0.564621 0.053468 0.479549 68 1 84
-0.604365 -0.106303 0.478422 68 1 84
0.657655 -0.266862 0.467000 68 1 84
-0.419866 0.350034 0.089588 37 131 141
-0.556797 0.057961 0.289999 68 1 84
0.268663 -0.008472 -0.220550 68 1 84
-0.333513 0.334937 -0.057648 70 14 97
0.620839 -0.150723 0.506447 68 1 84
0.246737 0.330101 -0.125079 69 6 90
0.453972 -0.326648 -0.084458 63 69 135
-0.486868 0.298245 0.234960 56 87 140
-0.060540 0.131105 -0.274955 68 1 84
0.284535 0.319172 -0.116572 69 52 127
-0.144715 -0.361495 -0.207386 181 221 43
-0.451285 -0.180979 -0.066390 68 55 129
-0.090444 -0.158110 -0.297733 68 1 84
0.110131 -0.261979 -0.213392 63 71 136
0.556986 0.067444 0.206175 68 1 84
0.078791 0.036587 -0.319870 68 1 84
0.239850 -0.251679 -0.174393 67 60 132
-0.148321 0.009072 -0.274530 68 1 84
0.081451 0.066830 -0.295320 68 1 84
-0.399376 0.219420 -0.067830 68 3 87
0.514639 0.162387 0.116489 68 1 84
-0.533513 0.118918 0.491295 68 1 84
0.598114 -0.428350 0.102790 68 1 84
-0.066625 -0.162172 -0.335251 68 1 84
-0.482587 0.219667 0.085558 57 85 139
-0.519622 -0.363913 -0.005003 65 66 134
-0.562670 0.043595 0.320703 68 1 84
-0.166713 0.100214 -0.221072 68 1 84
0.042408 0.454007 -0.189608 68 1 84
-0.615423 -0.133909 0.448740 68 1 84
0.278429 -0.163668 -0.165401 71 21 103
-0.542826 0.132580 0.306883 68 1 84
0.084825 -0.008268 -0.440066 68 1 84
-0.093883 -0.123600 -0.312729 68 1 84
0.085810 0.108402 -0.275078 68 1 84
0.528534 0.044187 0.036368 68 1 84
-0.214562 0.566462 0.073194 33 140 141
0.478340 -0.415566 -0.124458 41 121 142
-0.535350 0.121689 0.480755 68 1 84
-0.322800 0.292404 -0.096084 68 1 84
0.441294 -0.058275 -0.119347 68 1 84
0.320564 -0.478335 -0.260903 154 216 60
-0.570105 0.006522 0.261456 68 1 84
-0.292427 -0.058605 -0.193382 68 1 84
0.191015 0.284024 -0.166860 68 1 84
0.538168 0.171226 0.313524 68 1 84
0.707813 -0.479558 0.458452 68 1 84
0.455891 0.354545 0.303766 64 68 135
0.073683 0.120949 -0.281841 68 1 84
-0.471739 -0.457375 -0.120036 36 170 130
0.512598 0.251438 0.305079 68 1 84
-0.136936 -0.428802 -0.277562 233 228 25
0.574916 -0.368740 0.052300 68 1 84
-0.621622 -0.135140 0.367344 68 1 84
0.071527 -0.153532 -0.362119 68 1 84
0.262883 -0.052740 -0.217310 68 1 84
0.396525 0.128644 -0.122824 61 75 137
0.147962 0.539287 -0.136387 72 26 108
-0.551066 0.086854 0.432486 68 1 84
0.662171 -0.293854 0.341294 68 1 84
-0.576920 -0.016571 0.432603 68 1 84
-0.453038 0.282403 0.077743 47 105 141
-0.268400 0.495152 0.041097 50 98 141
-0.544353 -0.063493 0.025724 68 1 84
-0.529599 0.032918 0.047133 72 26 108
0.081308 0.085327 -0.288245 68 1 84
0.623946 -0.386442 0.189465 68 1 84
0.650188 -0.525486 0.257101 68 1 84
-0.473042 0.007271 -0.060988 62 73 137
-0.209375 -0.335187 -0.195879 136 213 71
-0.313562 0.020974 -0.193231 68 1 84
0.350468 -0.308593 -0.159657 42 118 142
0.160772 -0.413380 -0.254638 100 203 93
-0.290903 0.166957 -0.173732 68 1 84
0.420354 0.403553 0.275798 56 87 140
-0.644654 -0.205313 0.365720 68 1 84
-0.540275 -0.465829 0.001337 47 105 141
-0.372444 0.445144 0.201017 30 153 138
-0.449215 -0.408827 -0.126105 31 150 139
0.080488 0.074800 -0.293067 68 1 84
0.535915 0.131172 0.176989 68 1 84
-0.434584 -0.144375 -0.094755 61 76 137
0.086889 0.630471 -0.108054 68 1 84
0.028932 0.068103 -0.362981 68 1 84
0.644986 -0.177312 0.344679 68 1 84
0.702013 -0.545576 0.392051 68 1 84
-0.196878 0.511176 -0.062011 68 1 84
0.565076 0.025171 0.127590 68 1 84
-0.306317 -0.386760 -0.219329 91 200 98
0.709414 -0.504268 0.446283 68 1 84
-0.230873 0.254833 -0.158132 68 1 84
0.308528 0.424526 -0.022102 55 89 140
-0.432602 -0.279312 -0.059048 46 109 142
-0.424687 0.217425 -0.035816 71 22 105
0.647195 -0.215343 0.452775 68 1 84
0.052018 0.026729 -0.438810 68 1 84
-0.375547 0.224098 -0.089081 68 1 84
0.609077 -0.089758 0.227265 68 1 84
0.339317 -0.527529 -0.261777 246 230 31
-0.217399 0.461695 -0.072228 68 1 84
0.607847 -0.326751 0.126081 68 1 84
-0.197777 0.574510 0.036644 41 120 142
0.412107 0.130852 -0.105202 72 25 107
-0.415492 -0.515329 -0.185570 39 173 128
-0.603146 -0.097474 0.457638 68 1 84
0.476491 0.237102 0.079583 71 24 106
0.380218 0.437548 0.143983 63 69 135
0.586377 -0.017064 0.454387 68 1 84
0.408981 0.411242 0.327558 68 57 130
0.490070 0.170700 0.050813 68 1 84
0.521041 -0.394515 -0.046137 61 75 137
0.511366 0.244523 0.412689 68 1 84
-0.448002 0.365224 0.372765 38 127 142
-0.624161 -0.451365 0.201861 68 1 84
-0.169110 0.378430 -0.160798 68 1 84
0.076237 -0.122240 -0.382190 68 1 84
-0.639328 -0.196836 0.397200 68 1 84
-0.291645 -0.147493 -0.157266 71 39 119
0.626843 -0.504460 0.199358 68 1 84
-0.321478 0.419227 0.023103 65 65 134
-0.034500 -0.008416 -0.454133 68 1 84
0.442783 -0.472276 -0.182495 98 202 95
0.216645 -0.460190 -0.285472 154 216 60
-0.705644 -0.489092 0.372748 68 1 84
-0.045414 -0.122366 -0.396515 68 1 84
-0.147771 -0.342608 -0.192675 112 206 86
0.442203 -0.411160 -0.160333 33 141 140
0.034946 -0.299222 -0.312785 53 93 140
-0.129589 -0.013720 -0.332479 68 1 84
0.155394 -0.151275 -0.245929 68 1 84
-0.460302 0.342029 0.221103 41 120 142
-0.273020 0.521415 0.122838 35 136 141
0.385124 0.442954 0.276227 70 14 97
-0.145684 0.028343 -0.262183 68 1 84
-0.317080 0.251629 -0.125587 68 1 84
-0.479185 0.313457 0.399170 72 30 112
0.446871 0.064041 -0.089620 68 3 87
0.107321 -0.350367 -0.236325 53 183 120
0.697217 -0.437882 0.415141 68 1 84
-0.635520 -0.274323 0.224467 68 1 84
-0.295070 0.372766 -0.059566 71 18 101
0.245646 -0.195462 -0.167221 71 40 120
-0.356139 -0.287875 -0.141613 34 139 141
0.266180 0.415910 -0.079496 59 81 138
0.259668 0.160975 -0.197862 68 1 84
-0.499824 0.232340 0.495403 68 1 84
0.195623 0.344458 -0.165748 68 1 84
-0.585031 -0.212662 0.092439 68 1 84
-0.597420 -0.356673 0.120491 68 1 84
0.570278 0.020167 0.163937 68 1 84
0.020533 0.095599 -0.330748 68 1 84
0.392871 -0.028753 -0.153395 68 1 84
0.132110 0.126047 -0.249562 68 1 84
0.380870 0.449672 0.210135 67 58 131
0.162087 0.394614 -0.176468 68 1 84
0.443448 0.307778 0.073923 67 60 132
-0.626039 -0.408718 0.200938 68 1 84
0.478209 0.095555 -0.026381 69 52 127
0.325053 0.502138 0.180741 69 53 128
-0.176999 0.274124 -0.160512 68 1 84
-0.600596 -0.081150 0.428233 68 1 84
-0.068122 -0.249445 -0.268133 42 118 142
-0.588445 -0.033923 0.351069 68 1 84
0.230069 0.543307 -0.030075 59 81 138
-0.201833 -0.443515 -0.261282 170 219 50
0.579741 0.007795 0.364291 68 1 84
0.178834 -0.351077 -0.193375 47 179 123
0.181723 0.436716 -0.144225 68 1 84
-0.209010 0.312448 -0.132646 68 1 84
-0.602805 -0.103519 0.484881 68 1 84
0.146703 -0.096923 -0.274347 68 1 84
0.705902 -0.528223 0.413041 68 1 84
-0.464090 -0.347859 -0.069290 49 102 141
0.319881 0.392106 -0.041491 59 81 138
-0.518862 -0.063060 -0.016542 71 22 105
0.051918 0.333864 -0.273936 68 1 84
-0.641096 -0.193862 0.285898 68 1 84
-0.436221 0.137516 -0.065051 68 1 84
0.626659 -0.167290 0.499003 68 1 84
-0.142950 0.319456 -0.195124 68 1 84
-0.423345 -0.186308 -0.082113 56 87 140
-0.005032 -0.208765 -0.366428 68 1 84
-0.576303 -0.154271 0.073127 68 1 84
0.097218 -0.134917 -0.335539 68 1 84
-0.002624 -0.451105 -0.320235 114 207 85
0.494684 0.145258 0.039375 68 1 84
0.656381 -0.255078 0.369025 68 1 84
-0.454029 0.189540 -0.004443 49 101 141
-0.030538 0.142114 -0.289389 68 1 84
0.381925 0.444451 0.179149 67 60 132
0.297183 0.389472 -0.066240 58 83 139
0.595523 -0.144665 0.097206 68 1 84
0.119232 -0.222291 -0.235977 72 26 108
-0.528984 -0.111694 -0.007677 70 11 94
-0.105233 -0.076224 -0.327427 68 1 84
0.135215 0.315853 -0.221296 68 1 84
-0.495781 -0.367896 -0.040592 63 69 135
0.398515 -0.277696 -0.118498 71 39 119
0.618209 -0.162966 0.176837 68 1 84
0.253067 0.447535 -0.072330 54 90 140
-0.380535 0.374830 0.045251 39 124 142
-0.250651 0.504477 0.018609 59 81 138
-0.576202 -0.023225 0.474617 68 1 84
-0.651171 -0.221936 0.286626 68 1 84
0.519336 -0.390492 -0.046727 65 66 134
-0.537508 0.108100 0.484124 68 1 84
-0.457872 -0.235668 -0.038832 67 58 131
0.005509 0.556859 -0.186995 68 1 84
-0.487246 0.026369 -0.033927 56 86 139
0.299553 0.394487 -0.060484 45 110 142
-0.315847 0.329553 -0.076024 68 1 84
0.426199 0.389378 0.344687 68 55 129
-0.519801 -0.050022 -0.011785 72 25 107
0.610716 -0.092992 0.266614 68 1 84
-0.451033 -0.237698 -0.043739 71 39 119
-0.615753 -0.134657 0.447395 68 1 84
0.342973 0.298860 -0.094594 61 74 137
0.202725 -0.148179 -0.208175 68 1 84
0.579488 -0.000185 0.473316 68 1 84
-0.186809 0.026233 -0.215065 68 1 84
-0.597832 -0.450308 0.128943 68 1 84
0.656943 -0.516000 0.271224 68 1 84
-0.208643 -0.419796 -0.233897 144 214 67
0.384097 -0.180053 -0.123645 68 1 84
0.572028 0.016546 0.269497 68 1 84
0.058254 0.643185 -0.100709 68 1 84
0.609523 -0.105137 0.354688 68 1 84
0.382688 0.415942 0.095069 63 69 135
-0.586312 -0.028706 0.341754 68 1 84
-0.513902 0.164516 0.127155 66 62 133
0.047036 0.647873 -0.093444 68 1 84
-0.621363 -0.165780 0.509879 68 1 84
-0.510018 0.087388 0.039861 55 89 140
-0.652085 -0.251934 0.452619 68 1 84
0.572297 -0.354104 0.051081 68 1 84
0.398847 -0.459873 -0.211757 107 205 89
0.549086 0.121937 0.470133 68 1 84
-0.093210 -0.073549 -0.380550 68 1 84
-0.335766 -0.241886 -0.154045 32 145 140
0.535964 -0.120489 -0.018999 68 1 84
-0.398208 -0.442383 -0.182790 54 184 119
0.271718 0.145346 -0.195605 68 1 84
0.015871 0.558378 -0.186510 68 1 84
-0.637195 -0.192067 0.402052 68 1 84
-0.564540 0.009726 0.480562 68 1 84
-0.082166 0.007214 -0.405665 68 1 84
0.265452 0.289227 -0.137281 71 37 117
0.031512 0.023799 -0.448432 68 1 84
-0.208990 0.541177 -0.013425 62 73 137
0.415097 0.372135 0.095833 54 90 140
-0.496662 0.290941 0.340696 64 68 135
-0.238613 0.548988 0.099839 33 141 140
0.542524 0.129125 0.237088 68 1 84
-0.513435 0.237456 0.235732 71 38 118
-0.524291 -0.272498 0.022367 61 74 137
0.307260 0.314026 -0.110388 69 53 128
-0.631840 -0.509765 0.210065 68 1 84
0.278702 0.053280 -0.210370 68 1 84
-0.579595 -0.336882 0.085910 72 26 108
-0.052072 -0.270526 -0.293955 54 91 140
-0.208618 0.287533 -0.132915 68 1 84
-0.037437 0.628461 -0.133803 68 1 84
-0.009505 0.379193 -0.253153 68 1 84
-0.312391 0.222780 -0.142574 68 1 84
0.325968 0.494966 0.131960 52 94 141
-0.289536 -0.386396 -0.224374 119 208 82
-0.468568 0.289701 0.131330 39 124 142
-0.467494 0.236013 0.063193 45 111 142
-0.196107 0.224439 -0.202349 68 1 84
-0.375996 -0.291194 -0.127215 30 160 135
0.044209 0.295387 -0.259312 68 1 84
-0.143597 0.020262 -0.304503 68 1 84
0.377539 0.343102 -0.023234 51 96 141
0.204871 0.561570 -0.053776 52 95 141
-0.595914 -0.487247 0.128237 68 1 84
-0.697314 -0.402051 0.394077 68 1 84
0.003533 0.283433 -0.259666 68 1 84
0.433338 0.247191 -0.012227 60 78 138
-0.398820 0.091239 -0.125790 68 1 84
0.097665 0.410480 -0.200570 68 1 84
0.269302 -0.100317 -0.196838 71 17 99
0.234984 0.539237 -0.025574 60 77 138
0.500055 -0.412172 -0.091690 64 67 135
0.450021 0.341619 0.443970 68 1 84
-0.157058 0.397557 -0.161700 68 1 84
-0.416888 0.251394 -0.023650 57 85 139
-0.511970 0.226170 0.456078 68 1 84
0.456746 0.270542 0.062764 63 69 135
0.461997 0.231592 0.035452 68 1 84
0.382784 0.076211 -0.152272 68 1 84
-0.430538 -0.027723 -0.114916 70 12 95
0.578742 -0.015604 0.517830 68 1 84
0.256536 0.555691 0.089617 65 65 134
-0.357712 0.460837 0.226749 37 131 141
0.420384 -0.475572 -0.201110 121 209 81
-0.138352 0.265558 -0.214193 68 1 84
-0.157218 0.476306 -0.127130 68 1 84
0.528503 0.179898 0.485902 68 1 84
-0.127068 0.151108 -0.244694 68 1 84
-0.142689 -0.284297 -0.158849 35 168 131
-0.215620 -0.451547 -0.264280 181 221 43
-0.366598 0.149740 -0.131448 68 1 84
0.651193 -0.215813 0.352118 68 1 84
0.504534 0.048242 -0.008548 68 1 84
-0.586264 -0.033371 0.212377 68 1 84
-0.528297 0.142050 0.162005 69 53 128
-0.694449 -0.373180 0.450006 68 1 84
0.290469 0.100944 -0.197896 68 1 84
0.515959 0.105022 0.057473 68 1 84
0.014531 0.399393 -0.222045 68 1 84
-0.436410 0.328800 0.097619 44 114 142
-0.369727 -0.459592 -0.207305 57 185 118
-0.352282 -0.118863 -0.145823 69 8 91
0.473756 -0.118241 -0.088749 68 1 84
-0.285636 0.401060 -0.042668 72 33 114
0.385935 0.335577 -0.018288 54 91 140
0.634914 -0.148768 0.333296 68 1 84
-0.248814 -0.367538 -0.222298 194 223 34
-0.205253 -0.417654 -0.233034 116 208 84
-0.634219 -0.213818 0.234366 68 1 84
-0.633495 -0.367023 0.217596 68 1 84
-0.208752 0.240690 -0.185537 68 1 84
0.497589 0.062101 -0.012828 68 1 84
-0.007009 0.418864 -0.199999 68 1 84
-0.557364 0.069040 0.347415 68 1 84
0.581939 -0.405680 0.063228 68 1 84
0.121306 -0.113240 -0.304194 68 1 84
-0.483364 -0.354543 -0.047996 59 81 138
0.373635 -0.444414 -0.220718 36 170 130
0.579002 -0.065112 0.078385 68 1 84
0.671616 -0.398656 0.327594 68 1 84
0.605100 -0.273847 0.120258 68 1 84
-0.029717 0.051814 -0.355930 68 1 84
0.374418 0.151776 -0.137088 57 84 139
-0.097850 0.312859 -0.235743 68 1 84
0.382970 0.435332 0.147869 58 82 139
0.539271 0.125313 0.191690 68 1 84
-0.037990 0.269921 -0.259783 68 1 84
-0.244874 0.497337 -0.000503 71 44 123
0.181128 0.072577 -0.222118 68 1 84
0.586676 -0.408526 0.074619 68 1 84
-0.637660 -0.187728 0.351287 68 1 84
0.396807 0.427999 0.306078 70 48 125
0.158385 0.596172 -0.080243 71 37 117
-0.137606 0.384011 -0.181725 68 1 84
-0.494846 0.280588 0.229510 66 61 132
-0.461546 0.183807 0.005919 63 71 136
0.299342 0.171197 -0.179335 68 1 84
-0.135201 -0.309916 -0.164973 31 149 139
0.054706 0.539047 -0.186014 68 1 84
-0.551999 -0.066953 0.039249 68 1 84
0.390611 0.147777 -0.122478 72 34 115
-0.413571 -0.347780 -0.126038 41 121 142
-0.033779 -0.129831 -0.398349 68 1 84
0.507741 0.226963 0.187608 68 1 84
-0.342005 0.473830 0.243516 40 122 142
0.468457 0.213153 0.034718 68 1 84
0.143785 0.272984 -0.225042 68 1 84
0.015100 -0.302416 -0.315747 59 80 138
0.656325 -0.257457 0.317890 68 1 84
-0.386374 -0.306038 -0.121627 31 150 139
0.566862 -0.009989 0.087992 68 1 84
0.650302 -0.193249 0.321969 68 1 84
-0.050275 0.542522 -0.181024 68 1 84
-0.584161 -0.193949 0.090055 70 12 95
0.373715 -0.397293 -0.221170 30 152 138
-0.002640 0.260533 -0.280209 68 1 84
0.644475 -0.204699 0.433405 68 1 84
0.351764 0.475094 0.260854 72 35 116
0.604211 -0.089303 0.501737 68 1 84
-0.608514 -0.095105 0.235612 68 1 84
-0.064134 0.415362 -0.195894 68 1 84
-0.118000 0.308522 -0.215648 68 1 84
-0.605604 -0.153597 0.148930 68 1 84
0.221761 -0.165463 -0.184628 70 9 92
0.299924 0.475099 0.021539 50 99 141
-0.380796 -0.362478 -0.181404 47 179 123
-0.302444 -0.350955 -0.216146 61 187 116
0.635226 -0.278112 0.215303 68 1 84
-0.267814 0.007450 -0.212242 68 1 84
0.435889 -0.283251 -0.079988 72 26 108
-0.482944 0.308714 0.390804 70 49 126
0.581216 -0.235774 0.070336 68 1 84
-0.396682 0.282704 -0.028360 72 34 115
0.454848 0.344825 0.190593 69 52 127
-0.190512 0.266821 -0.160231 68 1 84
0.180388 -0.004921 -0.240265 68 1 84
-0.443741 0.187097 -0.025179 64 68 135
-0.426105 0.305254 0.041592 45 111 142
0.638182 -0.267277 0.234255 68 1 84
-0.390693 0.382860 0.078594 55 88 140
-0.408930 0.372835 0.103797 43 116 142
-0.586119 -0.266961 0.095164 68 1 84
-0.047091 0.084645 -0.293721 68 1 84
-0.563866 -0.333148 0.061602 71 15 98
0.170052 0.129493 -0.233347 68 1 84
-0.196546 0.337419 -0.145722 68 1 84
0.061342 0.093302 -0.299485 68 1 84
0.167766 0.024048 -0.257723 68 1 84
-0.051850 0.035865 -0.397048 68 1 84
0.581947 -0.011984 0.220478 68 1 84
0.090663 0.560368 -0.169120 68 1 84
0.076414 0.635897 -0.105289 68 1 84
-0.121952 -0.391992 -0.247699 146 215 65
-0.275235 -0.120580 -0.173929 68 1 84
-0.114894 -0.215645 -0.210932 48 104 141
0.506969 -0.466190 -0.102901 38 127 142
0.171868 0.280147 -0.193913 68 1 84
0.545888 0.057885 0.091564 68 1 84
-0.405568 0.158487 -0.092908 68 1 84
0.175742 0.033207 -0.232395 68 1 84
-0.560599 0.001807 0.100800 68 2 85
0.478182 0.284544 0.483564 68 1 84
-0.533941 0.035571 0.059147 69 8 91
0.641771 -0.367208 0.244793 68 1 84
0.483955 0.296530 0.430592 68 1 84
-0.549340 -0.019525 0.054260 68 1 84
-0.518756 0.035652 0.025572 67 58 131
0.652677 -0.228383 0.355146 68 1 84
-0.648831 -0.454358 0.241354 68 1 84
0.402075 0.161952 -0.104423 68 57 130
0.159922 0.498860 -0.137201 68 1 84
0.515442 0.229437 0.245795 68 1 84
-0.483269 0.177369 0.047627 65 65 134
-0.482688 0.270133 0.149462 44 112 142
-0.411712 -0.030014 -0.131023 68 1 84
0.301044 0.363049 -0.081392 62 73 137
-0.260357 -0.360477 -0.222346 129 211 76
-0.616850 -0.441027 0.182386 68 1 84
-0.281731 0.180452 -0.175595 68 1 84
0.623523 -0.189525 0.183888 68 1 84
-0.688821 -0.375016 0.360102 68 1 84
0.411924 0.405812 0.173917 68 57 130
0.644255 -0.179620 0.290116 68 1 84
0.169241 0.446960 -0.148151 68 1 84
0.693190 -0.393490 0.464540 68 1 84
0.162760 -0.358229 -0.195853 42 176 126
0.606293 -0.266165 0.123123 68 1 84
-0.304346 -0.407963 -0.222319 66 190 113
0.524440 0.209878 0.272464 68 1 84
0.684239 -0.422285 0.365298 68 1 84
0.509054 0.231698 0.465983 68 1 84
0.379021 0.322929 -0.039689 54 90 140
0.630362 -0.186430 0.218095 68 1 84
0.369876 -0.032269 -0.167059 68 1 84
-0.318685 0.490478 0.181872 36 132 141
-0.687341 -0.475127 0.312046 68 1 84
-0.602932 -0.085665 0.201733 68 1 84
-0.636857 -0.217031 0.241379 68 1 84
-0.431049 0.338880 0.100492 46 108 142
-0.479456 0.204600 0.062449 66 64 133
-0.701831 -0.486883 0.358416 68 1 84
0.638285 -0.186436 0.445095 68 1 84
-0.318095 -0.117540 -0.158613 68 1 84
0.416097 -0.151795 -0.115623 71 20 102
0.652924 -0.378311 0.273010 68 1 84
-0.140015 0.139384 -0.237872 68 1 84
-0.221581 0.431887 -0.088039 68 1 84
-0.103886 0.013570 -0.374613 68 1 84
0.244184 0.564705 0.133483 68 1 84
-0.052425 -0.004332 -0.441571 68 1 84
0.422158 0.320101 0.034378 55 89 140
0.495930 0.271398 0.217989 68 3 87
0.451014 0.346627 0.421815 71 21 103
-0.597788 -0.071612 0.190397 68 1 84
-0.593794 -0.473282 0.121507 68 1 84
-0.024823 0.572560 -0.178812 68 1 84
-0.665731 -0.349790 0.297906 68 1 84
-0.551643 0.064489 0.201678 68 1 84
0.510855 -0.494067 -0.097197 30 157 136
0.347697 0.417633 0.026120 55 88 140
0.479352 0.069931 -0.039771 68 1 84
0.560040 0.093899 0.364794 68 1 84
-0.677858 -0.310701 0.380331 68 1 84
0.579448 -0.037192 0.105886 68 1 84
0.613594 -0.168264 0.153962 68 1 84
0.265931 0.301383 -0.128301 69 8 91
0.555572 -0.418263 0.006999 70 14 97
-0.081996 0.305853 -0.244715 68 1 84
-0.530622 0.158835 0.459838 68 1 84
-0.233220 0.356915 -0.117779 68 1 84
-0.547238 0.113225 0.329091 68 1 84
0.470554 0.316445 0.438698 68 1 84
-0.070621 -0.458979 -0.314622 189 222 38
0.464075 -0.378217 -0.116231 46 108 142
0.698712 -0.516476 0.381570 68 1 84
-0.500209 0.276460 0.257572 55 89 140
-0.258469 -0.381379 -0.224285 139 213 70
0.029536 0.136517 -0.297429 68 1 84
0.388766 0.023793 -0.156882 68 1 84
-0.177466 0.164755 -0.221912 68 1 84
-0.372577 -0.148536 -0.126382 69 50 127
0.515418 -0.265693 -0.005118 68 1 84
-0.620441 -0.336919 0.173522 68 1 84
0.274895 0.511194 0.019437 48 104 141
-0.024044 -0.123041 -0.408257 68 1 84
-0.416400 -0.336597 -0.115189 34 138 141
0.116385 0.633019 -0.053890 69 53 128
0.104321 -0.213735 -0.275204 68 1 84
0.359020 0.130751 -0.157113 56 86 139
-0.367749 0.327949 -0.028667 63 69 135
0.627210 -0.167181 0.491774 68 1 84
-0.540209 0.047938 0.085390 71 20 102
-0.302959 0.503458 0.211624 32 143 140
-0.206118 0.536797 -0.024277 66 64 133
-0.540031 -0.011246 0.040154 70 11 94
0.598807 -0.056597 0.306890 68 1 84
-0.489144 -0.279563 -0.007012 60 78 138
0.462421 0.006326 -0.089099 68 1 84
-0.487917 0.218560 0.100304 56 86 139
0.036643 0.648584 -0.097264 68 1 84
-0.624947 -0.178870 0.219303 68 1 84
0.647639 -0.318379 0.261102 68 1 84
-0.022496 0.657125 -0.063498 68 1 84
-0.422800 0.094134 -0.099919 68 1 84
0.239020 -0.358998 -0.226975 31 161 135
0.395942 0.248394 -0.068463 61 76 137
0.316323 0.482644 0.067016 43 116 142
-0.578642 -0.530050 0.079474 68 2 85
0.422380 0.189380 -0.065369 71 44 123
0.057697 -0.371727 -0.294083 54 184 119
0.485349 -0.012769 -0.066624 68 1 84
-0.420693 0.150043 -0.079623 68 1 84
0.455884 0.355251 0.279560 72 29 111
0.475493 0.226842 0.065636 72 32 113
0.562402 0.032720 0.517993 68 1 84
-0.071649 -0.435896 -0.307080 218 226 24
-0.525923 0.163923 0.482071 68 1 84
0.246918 -0.343776 -0.205141 36 134 141
0.392762 -0.027663 -0.153557 68 1 84
0.390028 -0.328526 -0.147918 53 93 140
-0.049817 0.232132 -0.290091 68 1 84
-0.380206 0.178641 -0.108291 68 1 84
0.498967 -0.330128 -0.032597 68 1 84
-0.539136 -0.078582 0.012380 68 3 87
-0.175426 0.113461 -0.219013 68 1 84
0.610030 -0.442944 0.136926 68 1 84
0.660336 -0.329209 0.305927 68 1 84
0.104181 0.369302 -0.236049 68 1 84
-0.187779 0.453379 -0.110773 68 1 84
-0.664303 -0.277907 0.423534 68 1 84
0.416136 -0.039554 -0.138120 68 1 84
-0.607013 -0.227331 0.138457 68 1 84
-0.189931 0.218559 -0.208603 68 1 84
-0.394625 -0.385327 -0.161161 33 167 132
0.696635 -0.483440 0.382707 68 1 84
0.637107 -0.339360 0.219424 68 1 84
0.075707 0.545868 -0.179176 68 1 84
0.438162 0.379854 0.289009 65 65 134
-0.482458 0.317597 0.293817 44 112 142
-0.005353 -0.158799 -0.393233 68 1 84
-0.612113 -0.096872 0.351959 68 1 84
-0.237704 0.515017 0.007768 58 82 139
-0.165170 -0.144404 -0.216736 68 1 84
-0.052463 -0.275855 -0.291526 49 101 141
-0.425277 0.075963 -0.103495 68 1 84
0.613682 -0.103618 0.256362 68 1 84
0.374678 -0.040609 -0.163231 68 1 84
