ply
format ascii 1.0
element vertex 1266
property float x
property float y
property float z
property uchar red
property uchar green
property uchar blue
end_header
0.092265 0.049355 -0.373782 70 45 124
0.415049 -0.510167 -0.190898 68 1 84
-0.639142 -0.110216 0.302837 71 20 102
0.139162 0.076828 -0.226890 68 1 84
-0.124284 0.506743 -0.170926 37 171 129
-0.295201 -0.113870 -0.195925 68 1 84
-0.542066 -0.236542 -0.005942 68 1 84
0.399892 -0.194977 -0.143582 69 54 129
-0.306855 0.220248 -0.139709 68 1 84
-0.730099 -0.480537 0.460294 47 105 141
-0.045478 -0.268298 -0.352325 68 1 84
0.178356 -0.449148 -0.276774 68 1 84
0.566397 0.116897 0.526997 30 154 137
0.488828 0.362148 0.192153 71 21 103
0.452959 0.414241 0.321326 72 33 114
0.034094 0.276409 -0.247236 70 45 124
0.597883 -0.052223 0.337791 32 145 140
0.486224 0.102064 -0.027896 62 72 136
-0.666958 -0.185311 0.464746 52 94 141
0.554176 0.242957 0.402031 70 47 124
-0.507638 -0.153815 -0.073968 68 1 84
-0.563886 -0.443777 -0.067473 68 1 84
0.592916 -0.061546 0.239868 40 123 142
-0.512525 0.301502 0.453506 68 1 84
0.560802 0.211913 0.275452 52 95 141
-0.636296 -0.132455 0.169668 69 6 90
0.370757 0.517038 0.200864 68 1 84
-0.378434 -0.363251 -0.163616 68 1 84
0.046371 0.392002 -0.237313 50 98 141
0.027696 0.523168 -0.218587 30 158 136
0.438907 0.443711 0.246751 68 1 84
-0.359477 0.341130 -0.051566 70 14 97
-0.428792 0.423522 0.137618 68 1 84
0.608311 -0.307597 0.200488 44 113 142
0.501514 -0.469062 -0.045240 68 1 84
0.257925 -0.418984 -0.240838 68 1 84
-0.317050 0.485275 0.008488 55 88 140
0.325703 -0.121349 -0.187718 68 1 84
0.553041 0.218479 0.242928 54 90 140
-0.171217 -0.283329 -0.191108 68 1 84
-0.505729 0.307952 0.179004 68 1 84
0.048837 0.480335 -0.207501 37 131 141
-0.550657 0.209571 0.252695 69 5 88
0.627921 -0.464609 0.447162 103 204 92
-0.468994 0.230350 0.010252 72 35 116
0.370989 -0.388266 -0.158060 68 1 84
-0.339778 -0.489950 -0.279789 68 1 84
-0.684100 -0.271649 0.353410 54 90 140
-0.506050 0.334261 0.390144 68 1 84
0.617001 -0.202764 0.450876 129 211 76
-0.109661 -0.181189 -0.321223 68 1 84
0.338239 0.532770 0.050292 68 1 84
0.471419 -0.538981 -0.123788 68 1 84
-0.536625 0.230154 0.477470 72 29 111
0.202360 0.238786 -0.192428 71 17 99
-0.051019 -0.274784 -0.346868 68 1 84
-0.386092 0.102278 -0.164759 57 85 139
0.626322 -0.474997 0.423010 56 185 118
-0.676540 -0.430686 0.295128 51 97 141
0.524952 0.294744 0.426658 42 117 142
-0.402678 0.458617 0.137166 68 1 84
0.317896 0.439742 -0.062961 71 38 118
-0.630074 -0.461398 0.139856 68 1 84
0.601622 -0.084761 0.475941 64 189 114
0.123075 0.659957 -0.129824 50 98 141
0.629960 -0.437648 0.463065 210 225 27
-0.541016 0.255985 0.314160 68 3 87
-0.491299 0.090032 -0.069731 67 58 131
-0.471394 0.309482 0.083032 68 1 84
-0.301860 -0.035704 -0.209638 71 15 98
-0.436738 0.297041 0.014156 72 25 107
-0.425299 0.240279 -0.046711 71 43 122
0.450075 0.300494 0.020898 68 1 84
-0.269029 0.586245 0.108243 68 1 84
-0.470472 0.014752 -0.115909 68 55 129
0.130796 -0.475996 -0.312951 68 1 84
0.512682 -0.162409 -0.051789 55 89 140
-0.203582 -0.042429 -0.233349 68 1 84
0.394160 -0.364357 -0.133693 68 1 84
-0.269998 0.551398 0.003099 63 69 135
0.333739 0.404162 -0.065644 72 32 113
0.467334 0.016314 -0.093307 55 89 140
-0.430812 -0.451931 -0.220159 68 1 84
0.494996 0.349369 0.191931 70 9 92
0.566784 -0.266747 0.072194 61 76 137
-0.096572 0.066503 -0.331410 70 9 92
-0.085382 -0.450361 -0.349743 68 1 84
0.600863 -0.172293 0.142317 30 157 136
0.576978 -0.048675 0.117915 38 127 142
-0.529186 0.260506 0.205372 68 1 84
-0.260341 -0.160888 -0.198327 68 1 84
0.587899 0.001200 0.523932 68 190 112
0.296598 0.438104 -0.080834 71 37 117
0.329797 0.106620 -0.179803 72 28 110
0.124156 -0.002039 -0.371420 70 49 126
0.627252 -0.257701 0.376940 30 151 138
-0.270448 0.073857 -0.204556 70 9 92
0.514350 0.330652 0.336219 71 39 119
-0.503198 0.343168 0.275887 68 1 84
-0.479477 0.348163 0.468181 68 1 84
-0.526987 0.179103 0.097803 68 1 84
0.563432 0.225190 0.351805 46 109 142
-0.203573 -0.185251 -0.209498 68 1 84
-0.356608 -0.009921 -0.192907 71 43 122
-0.528517 0.224733 0.516756 62 72 136
0.066661 0.474207 -0.203360 38 129 142
0.376079 0.441885 0.006734 68 1 84
-0.591990 -0.033501 0.062209 68 1 84
0.612127 -0.372963 0.264877 48 103 141
0.405527 -0.484346 -0.193118 68 1 84
0.257584 0.606992 0.009540 71 38 118
-0.619463 -0.066549 0.419067 63 69 135
-0.465301 0.299116 0.061443 71 24 106
0.508793 -0.552620 -0.031877 68 1 84
-0.491741 0.350490 0.414532 68 1 84
0.595879 -0.079625 0.222891 39 126 142
-0.620614 -0.056662 0.191854 71 15 98
-0.265564 0.366835 -0.090503 72 28 110
0.502835 0.180611 0.058340 69 53 128
0.474509 -0.033126 -0.093755 66 64 133
0.085716 0.636440 -0.172751 45 111 142
-0.082028 0.543466 -0.196421 35 169 130
-0.243461 0.585528 0.000318 66 62 133
-0.386866 0.136174 -0.151190 67 59 131
-0.155238 -0.181778 -0.248727 68 1 84
0.510146 0.311751 0.186228 72 32 113
-0.225782 0.198603 -0.187111 68 1 84
0.137474 -0.465030 -0.305299 68 1 84
0.016305 0.113163 -0.286628 68 1 84
-0.146215 -0.253475 -0.213350 68 1 84
-0.333688 -0.349932 -0.172540 68 1 84
0.052181 0.590162 -0.205626 34 139 141
-0.520957 -0.470131 -0.149694 68 1 84
-0.538787 0.011865 -0.029729 71 15 98
-0.201846 -0.432668 -0.307152 68 1 84
-0.537118 0.056991 -0.008615 69 6 90
0.580454 -0.068857 0.112888 39 124 142
0.154479 0.015011 -0.314106 69 6 90
0.352952 0.481351 0.005444 68 1 84
-0.564207 0.141085 0.215551 68 1 84
-0.275473 -0.501062 -0.312759 68 1 84
0.460085 -0.289155 -0.072787 71 17 99
0.543588 -0.542814 0.071156 68 1 84
0.339325 -0.171400 -0.175807 68 1 84
-0.283022 -0.071759 -0.208790 70 14 97
-0.422889 0.344171 0.027421 68 1 84
0.603181 -0.114424 0.251337 50 99 141
0.599800 -0.501992 0.294521 67 60 132
-0.398673 -0.205851 -0.154040 68 1 84
0.573471 -0.189171 0.059884 39 126 142
-0.172064 -0.244232 -0.202408 68 1 84
0.575764 -0.046231 0.114051 36 134 141
0.297586 0.436626 -0.080719 71 39 119
-0.613053 -0.033505 0.201220 71 18 101
0.585524 -0.583513 0.276539 68 1 84
0.063067 -0.157370 -0.340850 68 1 84
0.569900 0.161037 0.464121 48 104 141
0.609526 -0.530419 0.360121 54 91 140
0.182518 0.583095 -0.153682 52 94 141
0.567006 0.161734 0.260570 47 106 141
0.498792 0.198407 0.058468 72 30 112
0.003189 0.100507 -0.293685 68 1 84
-0.606662 -0.190023 0.072218 68 2 85
-0.615783 -0.220821 0.096031 71 20 102
0.439413 0.072767 -0.114525 70 48 125
0.518692 -0.460602 0.015175 68 1 84
-0.394836 0.481382 0.181938 68 1 84
-0.159855 0.521331 -0.145389 34 137 141
-0.277630 0.525787 -0.011042 51 97 141
0.422478 0.420437 0.070361 68 1 84
0.592711 0.003912 0.502100 51 182 121
0.459746 -0.358647 -0.050717 68 1 84
0.387216 -0.304377 -0.147687 68 1 84
-0.607230 -0.027573 0.306287 68 1 84
0.603119 -0.104962 0.474278 36 170 130
0.484236 -0.170924 -0.082690 61 76 137
0.141058 -0.479903 -0.310327 68 1 84
-0.537190 -0.105942 -0.050461 68 1 84
0.552932 -0.551677 0.112050 68 1 84
-0.575403 0.082379 0.188107 72 28 110
0.569286 0.140839 0.255132 41 120 142
-0.490265 0.352927 0.412575 68 1 84
0.619268 -0.521934 0.392347 38 127 142
-0.129261 -0.299248 -0.216611 68 1 84
-0.366927 -0.156553 -0.168556 68 1 84
-0.189416 -0.166329 -0.223271 68 1 84
-0.390021 -0.372496 -0.226054 68 1 84
-0.063457 -0.087321 -0.420824 71 40 120
-0.129968 -0.178976 -0.288280 68 1 84
-0.155389 -0.151595 -0.262809 68 1 84
0.591735 0.022625 0.487987 35 168 131
-0.596136 -0.369821 0.071717 68 1 84
-0.513452 -0.041090 -0.076991 72 28 110
-0.174748 -0.385875 -0.252015 68 1 84
0.614441 -0.625746 0.438862 70 49 126
0.228183 0.572661 -0.111613 66 62 133
-0.471695 0.170363 -0.043995 71 39 119
0.551871 0.229035 0.248948 57 84 139
0.537399 -0.138512 -0.017603 48 103 141
0.253609 0.611426 0.022811 69 8 91
0.196400 0.519551 -0.151439 57 84 139
0.419124 0.461523 0.151321 68 1 84
0.464705 0.396064 0.160941 68 1 84
0.629246 -0.259631 0.352471 40 122 142
0.322649 -0.461163 -0.251268 68 1 84
0.152235 0.304563 -0.216810 63 69 135
-0.548008 0.178285 0.505094 71 40 120
0.049153 -0.024923 -0.457385 61 74 137
-0.561189 0.124144 0.165762 68 1 84
-0.112651 0.672517 -0.052839 59 81 138
0.231272 -0.107119 -0.224225 68 1 84
0.196631 -0.389642 -0.175483 68 1 84
-0.633124 -0.106016 0.180220 68 3 87
-0.091515 0.312391 -0.229030 72 29 111
-0.506067 0.106945 -0.035017 70 47 124
-0.153386 -0.185684 -0.248437 68 1 84
-0.432493 0.169578 -0.096165 63 69 135
-0.072135 0.679124 -0.097743 41 121 142
0.412793 -0.447247 -0.177348 68 1 84
-0.369217 -0.088765 -0.175859 68 1 84
0.056567 0.061243 -0.381387 72 25 107
-0.664867 -0.177672 0.328977 68 55 129
-0.429422 0.328633 0.025581 71 20 102
0.596377 -0.222898 0.129588 30 151 138
-0.682541 -0.241699 0.460920 59 80 138
0.340444 -0.387315 -0.175479 68 1 84
-0.547375 -0.280351 0.007309 68 1 84
0.575844 -0.055289 0.104234 39 126 142
-0.064623 -0.239937 -0.355047 68 1 84
0.596861 -0.010184 0.456458 31 162 134
-0.569025 -0.345133 0.022103 68 1 84
-0.538908 -0.454188 -0.122681 68 1 84
-0.505809 0.077617 -0.053649 72 33 114
-0.359701 -0.317916 -0.167570 68 1 84
-0.268084 -0.247643 -0.190816 68 1 84
-0.278928 0.575560 0.085992 71 38 118
0.587743 0.043937 0.304929 30 159 136
-0.507634 0.159790 0.018930 70 14 97
0.516686 -0.473981 0.002372 68 1 84
-0.690907 -0.339629 0.370431 48 103 141
0.592597 0.024921 0.411384 32 143 140
-0.542776 0.194339 0.167830 68 1 84
-0.141967 -0.208714 -0.249113 68 1 84
0.570542 -0.439903 0.160481 70 12 95
-0.460763 -0.187091 -0.110525 68 1 84
-0.399168 -0.277327 -0.160852 68 1 84
-0.079375 -0.193262 -0.361087 68 1 84
0.472898 0.387021 0.340011 69 50 127
-0.325300 0.531128 0.087746 68 1 84
-0.629208 -0.089559 0.350371 69 50 127
0.370319 0.476307 0.031599 68 1 84
0.064645 0.262383 -0.253266 67 58 131
0.339577 -0.264492 -0.172290 68 1 84
-0.014168 0.593604 -0.201907 32 145 140
0.259302 0.425562 -0.113005 71 43 122
-0.613759 -0.519033 0.066983 68 1 84
-0.124169 0.110104 -0.232920 68 1 84
0.517207 0.328040 0.313637 67 60 132
-0.682498 -0.425857 0.344795 49 101 141
-0.536991 0.186436 0.138803 70 14 97
0.329085 0.419526 -0.063041 71 44 123
0.032016 -0.396824 -0.316092 68 1 84
0.578529 0.092851 0.493875 30 159 136
0.588506 -0.332028 0.152771 40 123 142
0.589920 0.041316 0.445193 32 144 140
-0.671736 -0.236534 0.297297 59 81 138
0.576615 -0.399006 0.157302 38 128 142
0.613971 -0.174642 0.416984 48 180 122
-0.349163 -0.449839 -0.261752 68 1 84
-0.400607 0.362630 0.009498 68 1 84
-0.671220 -0.241420 0.292090 57 84 139
-0.597944 0.006266 0.253904 71 17 99
0.494188 0.345040 0.400165 57 85 139
0.446122 0.198803 -0.037836 71 39 119
-0.040434 0.686108 -0.079347 56 87 140
-0.118697 0.234974 -0.250936 67 58 131
-0.618773 -0.367805 0.127187 68 1 84
0.232979 0.131408 -0.197548 68 1 84
-0.248448 -0.406202 -0.249487 68 1 84
-0.535839 0.244055 0.211732 68 1 84
0.023212 -0.352264 -0.306965 68 1 84
-0.533828 -0.191269 -0.032626 68 1 84
-0.624560 -0.265735 0.124063 68 2 85
0.486947 -0.103631 -0.086252 65 66 134
0.209792 -0.460520 -0.278582 68 1 84
-0.051889 -0.142946 -0.399899 68 1 84
0.398397 -0.442993 -0.191656 68 1 84
0.330625 0.391675 -0.072646 70 45 124
0.574319 0.017840 0.182887 42 119 142
0.257597 -0.368622 -0.179968 68 1 84
-0.076094 0.556616 -0.197844 33 166 133
-0.274121 -0.148887 -0.196029 68 1 84
0.634167 -0.340715 0.449514 149 215 63
-0.330311 0.537921 0.228468 68 1 84
-0.183194 0.231422 -0.207036 69 50 127
0.543402 0.248135 0.234342 53 92 140
-0.275277 -0.379680 -0.223123 68 1 84
0.509599 0.144472 0.053591 71 43 122
-0.218858 0.618352 0.061627 62 72 136
-0.627746 -0.189016 0.120995 71 37 117
-0.414395 0.085894 -0.152181 58 83 139
0.583488 -0.032738 0.186857 34 139 141
-0.049077 0.283038 -0.235427 72 25 107
0.289702 0.008238 -0.212722 70 14 97
0.586632 -0.008232 0.268287 30 152 138
0.214156 0.114336 -0.203600 68 1 84
-0.353178 -0.297200 -0.174169 68 1 84
0.600313 -0.054779 0.443650 81 196 104
-0.109369 0.672056 -0.076818 51 96 141
-0.331332 0.087602 -0.192106 71 38 118
0.595599 -0.568353 0.333127 68 2 85
0.580587 0.069255 0.272130 31 150 139
0.518518 -0.147219 -0.045753 55 88 140
-0.657879 -0.301587 0.232002 65 66 134
-0.487812 -0.424876 -0.168586 68 1 84
0.023819 0.076965 -0.423447 71 44 123
-0.144203 -0.324494 -0.204097 68 1 84
0.244719 -0.003035 -0.221159 68 1 84
-0.678604 -0.342540 0.322668 44 112 142
-0.620803 -0.230815 0.107952 68 1 84
-0.237528 -0.113495 -0.215355 68 1 84
-0.043419 0.258714 -0.261841 63 69 135
-0.248285 0.398006 -0.094997 70 45 124
0.569775 -0.278091 0.083251 59 80 138
0.200915 0.009085 -0.217434 68 1 84
0.234164 0.112104 -0.197416 68 1 84
-0.391024 0.485911 0.184536 68 1 84
-0.428402 0.417655 0.125114 68 1 84
-0.535287 0.231822 0.187497 68 1 84
-0.276798 0.525689 -0.012461 50 98 141
0.188176 0.087904 -0.208868 68 1 84
0.008113 0.383247 -0.249898 59 81 138
0.487799 -0.248672 -0.052306 66 64 133
0.134039 -0.074211 -0.276772 68 1 84
-0.157728 0.064978 -0.292487 68 1 84
-0.238810 0.605421 0.113865 68 3 87
-0.658726 -0.196072 0.243059 66 64 133
0.482989 -0.230763 -0.064571 66 61 132
-0.645206 -0.126719 0.472127 51 96 141
0.564675 0.185780 0.268988 49 100 141
-0.043128 -0.037213 -0.457971 47 105 141
-0.167262 0.043543 -0.219086 68 1 84
0.473384 -0.139810 -0.098520 65 66 134
0.594910 -0.182852 0.120584 36 134 141
0.034845 0.058125 -0.315671 68 1 84
-0.166161 0.649094 -0.008221 57 84 139
0.328721 0.393115 -0.073313 70 47 124
-0.609499 -0.030338 0.276209 68 1 84
-0.056587 0.052222 -0.458086 55 88 140
-0.138432 -0.207028 -0.257078 68 1 84
0.525193 0.266938 0.183185 68 1 84
-0.288179 0.564749 0.075848 72 29 111
0.330378 -0.411080 -0.211809 68 1 84
-0.412330 0.166964 -0.116640 64 67 135
-0.649744 -0.512007 0.189548 68 1 84
-0.196763 0.353629 -0.145465 72 30 112
-0.602781 -0.005261 0.483560 52 94 141
0.089184 0.486131 -0.203683 41 121 142
-0.356766 0.494255 0.088015 68 1 84
0.554473 0.206594 0.237125 45 110 142
0.115697 0.049662 -0.303024 68 1 84
0.087454 0.181105 -0.284082 71 18 101
0.394158 0.488739 0.128483 68 1 84
0.128698 -0.166612 -0.266034 68 1 84
0.281981 0.582278 0.008314 68 1 84
0.575397 0.160602 0.420724 42 118 142
-0.716313 -0.373865 0.444822 44 113 142
-0.682276 -0.435212 0.328682 51 96 141
0.394887 0.407145 0.005875 68 1 84
0.037149 -0.163329 -0.367653 68 1 84
0.554535 -0.443978 0.117531 55 88 140
-0.558740 -0.380423 -0.031119 68 1 84
0.355448 -0.475557 -0.226306 68 1 84
0.073333 -0.262283 -0.262207 68 1 84
0.017498 -0.154079 -0.388171 68 1 84
0.124426 0.052509 -0.310607 68 2 85
0.375722 -0.202732 -0.157245 70 12 95
-0.494039 -0.098501 -0.097058 68 1 84
-0.679773 -0.232762 0.468131 51 97 141
-0.208353 0.224959 -0.189792 71 22 105
-0.572068 -0.079922 0.001717 68 1 84
-0.548734 0.027232 -0.002439 68 1 84
0.161926 0.017886 -0.270946 68 1 84
-0.580094 -0.470340 -0.027702 68 1 84
-0.576189 0.106168 0.347257 70 9 92
0.039857 0.511060 -0.216327 30 158 136
-0.291972 0.149837 -0.177376 68 1 84
0.065016 -0.016830 -0.451436 55 89 140
-0.186793 0.138947 -0.208475 68 1 84
-0.068178 0.430245 -0.196962 48 104 141
-0.127388 0.432206 -0.173983 43 116 142
-0.611425 -0.029057 0.194498 68 1 84
-0.249610 0.597760 0.074687 67 59 131
-0.600026 -0.098407 0.056849 68 1 84
-0.048969 0.227366 -0.287176 58 82 139
0.579191 0.093972 0.488591 30 155 137
-0.496698 0.337041 0.435915 68 1 84
0.445245 -0.116006 -0.124406 65 66 134
0.574331 -0.124789 0.060635 42 119 142
0.595119 0.000816 0.409464 30 158 136
-0.043041 0.200872 -0.294639 57 84 139
0.438448 0.103142 -0.105222 71 44 123
0.480897 -0.496223 -0.106011 68 1 84
0.515531 0.190542 0.094025 70 48 125
0.489380 -0.155850 -0.079975 58 82 139
0.529341 0.292605 0.242212 72 28 110
-0.589671 -0.376408 0.052872 68 1 84
0.365282 -0.053810 -0.183001 69 5 88
-0.474439 -0.487637 -0.199685 68 1 84
-0.671056 -0.222119 0.301643 62 72 136
0.162143 0.019953 -0.264507 68 1 84
0.570651 0.160014 0.461552 55 88 140
-0.716131 -0.416056 0.426445 50 98 141
0.626608 -0.274642 0.456073 139 213 70
0.020059 -0.115304 -0.408951 68 1 84
-0.656026 -0.162029 0.278202 67 60 132
-0.307348 0.557300 0.197039 68 1 84
-0.240538 -0.107051 -0.215527 68 1 84
0.443404 -0.543861 -0.162137 68 1 84
-0.438092 -0.015823 -0.145199 72 34 115
-0.732377 -0.438444 0.452302 60 78 138
0.234868 0.257073 -0.132286 68 1 84
-0.099330 0.275915 -0.216987 70 49 126
0.492077 -0.151906 -0.077723 57 85 139
0.107103 0.041151 -0.391504 62 73 137
-0.510280 0.275437 0.150725 70 11 94
0.187373 0.262688 -0.171535 68 1 84
0.548853 -0.222002 0.020188 55 88 140
-0.369049 -0.440302 -0.254300 68 1 84
-0.562393 0.080980 0.088378 68 1 84
-0.572230 0.118669 0.259275 68 1 84
-0.049233 -0.317098 -0.328501 68 1 84
-0.428174 0.433397 0.355902 68 1 84
0.161774 0.315642 -0.214291 66 61 132
0.083638 -0.193017 -0.299231 68 1 84
0.551615 0.096573 0.142105 52 94 141
0.476472 0.389830 0.300246 69 6 90
-0.033672 0.537394 -0.212513 30 159 136
-0.012581 -0.082558 -0.439392 71 15 98
0.142532 0.032928 -0.341627 72 30 112
0.498441 0.101403 -0.002292 71 39 119
0.409229 0.121460 -0.127723 68 2 85
-0.134325 0.577871 -0.159019 30 153 138
0.587512 -0.007829 0.278676 32 143 140
0.557991 -0.075191 0.032935 57 84 139
0.112863 -0.198012 -0.263020 68 1 84
0.632063 -0.398883 0.486535 253 231 36
-0.532748 -0.160564 -0.044570 68 1 84
0.631734 -0.364730 0.469634 154 216 60
0.468583 -0.029310 -0.099822 65 66 134
0.392856 -0.281847 -0.141692 68 1 84
-0.131702 -0.304642 -0.213354 68 1 84
-0.254198 0.123599 -0.190252 68 1 84
-0.576194 0.103073 0.443290 72 32 113
-0.409104 0.055270 -0.162069 66 64 133
-0.525020 -0.367173 -0.088361 68 1 84
0.590283 -0.575939 0.300192 68 1 84
0.595975 -0.143696 0.132649 32 144 140
-0.411766 0.270570 -0.039542 71 37 117
0.052980 -0.309449 -0.272280 68 1 84
-0.196933 0.478100 -0.119219 48 104 141
-0.016711 -0.281668 -0.347824 68 1 84
-0.507792 0.330908 0.392644 68 1 84
-0.477973 0.181936 -0.021991 72 28 110
-0.625331 -0.128532 0.121843 68 1 84
-0.664081 -0.182396 0.303811 58 82 139
-0.611795 -0.033769 0.253578 68 1 84
-0.294800 -0.453731 -0.284543 68 1 84
0.360523 -0.569601 -0.237854 68 1 84
0.630549 -0.381119 0.456517 167 219 51
-0.106048 -0.189454 -0.324286 68 1 84
0.614024 -0.285369 0.214006 38 129 142
0.162604 0.557090 -0.176051 54 90 140
-0.179252 0.314264 -0.162803 68 1 84
-0.508120 0.271797 0.515390 70 9 92
0.048942 0.076788 -0.291084 68 1 84
0.008273 -0.308382 -0.325501 68 1 84
0.565319 -0.362032 0.111172 62 72 136
0.524680 -0.514421 0.015303 68 1 84
-0.120324 0.278694 -0.206713 70 12 95
0.456434 0.368440 0.090479 68 1 84
0.206123 -0.337850 -0.177519 68 1 84
-0.254522 0.577845 0.013523 66 61 132
0.596856 -0.298623 0.158657 31 146 140
0.131843 -0.177781 -0.257591 68 1 84
-0.204152 0.028917 -0.214799 68 1 84
-0.173466 0.197667 -0.218945 72 30 112
-0.323729 0.542151 0.232986 68 1 84
-0.133365 0.187917 -0.244624 57 85 139
0.143633 0.669888 -0.081908 47 105 141
-0.478528 0.302555 0.092308 69 5 88
-0.288476 0.199265 -0.158045 68 1 84
-0.121431 0.615551 -0.151355 30 158 136
-0.463660 0.344513 0.104458 68 1 84
-0.474057 -0.381384 -0.149554 68 1 84
-0.070105 -0.419320 -0.338142 68 1 84
0.577558 -0.044250 0.124889 38 128 142
-0.509314 -0.268743 -0.038914 68 1 84
0.582980 -0.169285 0.083548 38 129 142
-0.403846 0.371907 0.021587 68 1 84
-0.218732 0.578760 -0.062524 45 110 142
-0.532018 -0.374504 -0.084459 68 1 84
-0.004223 0.259704 -0.268463 66 62 133
0.365458 -0.400740 -0.178626 68 1 84
-0.572155 -0.001550 0.030422 68 1 84
-0.470847 -0.310758 -0.085488 68 1 84
0.163835 -0.396992 -0.213108 68 1 84
0.457946 0.398379 0.138869 68 1 84
0.582684 -0.479725 0.223792 72 28 110
-0.691691 -0.378734 0.384689 43 116 142
0.261247 0.605525 0.028852 68 1 84
-0.026511 0.683941 -0.097892 63 71 136
0.493250 -0.214029 -0.059740 55 89 140
-0.364713 0.504206 0.280959 68 1 84
0.629538 -0.310575 0.348646 43 115 142
-0.045528 -0.252994 -0.358929 68 1 84
0.609284 -0.355837 0.235895 46 108 142
-0.469043 -0.194201 -0.103120 68 1 84
-0.400966 -0.370738 -0.214920 68 1 84
-0.269697 0.108879 -0.193455 68 1 84
-0.183613 -0.268261 -0.194311 68 1 84
0.343799 -0.273919 -0.170871 68 1 84
-0.026953 -0.443099 -0.350413 68 1 84
0.481898 0.368424 0.174912 72 25 107
0.070835 -0.341166 -0.241364 68 1 84
-0.415612 -0.132186 -0.146730 68 1 84
-0.461860 -0.154177 -0.112909 68 1 84
-0.678138 -0.351440 0.322042 43 115 142
-0.484107 0.367896 0.224667 68 1 84
-0.031234 0.083752 -0.419903 62 72 136
-0.233173 -0.224943 -0.194698 68 1 84
0.358031 0.420443 -0.033446 68 1 84
0.151416 -0.051226 -0.257725 68 1 84
-0.373136 0.413800 0.017733 70 9 92
-0.227652 -0.426767 -0.286011 68 1 84
0.103199 0.308497 -0.246200 63 71 136
-0.463399 0.185601 -0.042782 69 50 127
-0.355325 0.079480 -0.185611 59 80 138
0.440799 0.118149 -0.094772 71 39 119
0.624117 -0.218732 0.345348 53 92 140
-0.480348 0.380367 0.335805 68 1 84
-0.090046 0.088393 -0.264490 68 1 84
0.364845 -0.228526 -0.161306 70 11 94
-0.270553 0.569872 0.038073 72 34 115
0.071984 -0.332789 -0.238201 68 1 84
-0.679347 -0.236847 0.478347 52 94 141
0.054411 -0.242966 -0.306810 68 1 84
-0.513640 0.097234 -0.027225 71 20 102
0.533464 0.255413 0.202653 70 49 126
0.338481 -0.332165 -0.180466 68 1 84
-0.436030 0.438108 0.219523 68 1 84
0.441124 0.439086 0.187010 68 1 84
0.611014 -0.350962 0.239866 43 116 142
0.133397 -0.378602 -0.193624 68 1 84
-0.678960 -0.301345 0.324678 64 68 135
-0.332326 -0.375876 -0.215451 68 1 84
-0.578682 0.064511 0.519359 71 42 121
0.261171 -0.347069 -0.186643 68 1 84
0.105802 0.294372 -0.238361 60 77 138
0.081528 0.146470 -0.276346 68 1 84
-0.573631 -0.441630 -0.040416 68 1 84
-0.321051 0.548130 0.154993 68 1 84
-0.309807 0.051128 -0.205795 66 62 133
-0.691805 -0.411852 0.386592 36 132 141
0.479080 0.035368 -0.071900 66 61 132
-0.533131 0.259374 0.441670 68 1 84
0.578274 -0.599587 0.237598 68 1 84
0.525424 0.138746 0.091352 57 85 139
0.178447 -0.465809 -0.286407 68 1 84
0.482954 0.382922 0.233227 68 1 84
0.089184 -0.047087 -0.399945 70 9 92
0.464646 0.049294 -0.088531 69 54 129
0.299891 -0.092970 -0.204111 70 11 94
-0.402693 0.208600 -0.095710 71 44 123
0.170291 0.509751 -0.171668 49 101 141
0.623447 -0.321565 0.282782 34 139 141
-0.648834 -0.170236 0.207910 71 38 118
-0.572547 0.113907 0.243833 71 17 99
-0.642890 -0.119681 0.342658 70 45 124
0.095788 -0.177575 -0.294613 68 1 84
-0.058955 0.281174 -0.233081 72 25 107
0.009696 0.001101 -0.475238 35 135 141
0.462101 0.157492 -0.038435 70 49 126
-0.109284 0.068319 -0.360211 70 45 124
-0.370587 0.435298 0.035228 69 5 88
-0.086131 0.283039 -0.221673 72 25 107
-0.481327 0.360533 0.424651 68 1 84
-0.687613 -0.478850 0.316347 71 37 117
0.213338 0.623190 -0.090431 70 9 92
0.103570 0.262838 -0.235122 71 39 119
0.619979 -0.249422 0.235339 50 99 141
0.132826 0.113939 -0.234907 68 1 84
-0.658680 -0.248653 0.226675 72 25 107
0.593285 0.019092 0.465461 31 150 139
-0.518034 -0.141740 -0.066427 68 1 84
-0.534391 0.275788 0.327891 70 12 95
-0.042678 -0.169714 -0.392776 68 1 84
-0.013657 -0.019830 -0.470935 42 118 142
0.580795 0.146604 0.345514 37 131 141
-0.719086 -0.376314 0.495054 52 94 141
-0.491015 -0.078303 -0.101695 68 1 84
-0.488994 0.361798 0.232497 68 1 84
-0.636111 -0.102527 0.299644 71 20 102
-0.597103 -0.490628 0.023450 68 1 84
0.296786 0.477014 -0.066350 72 25 107
-0.547802 0.214941 0.442338 71 38 118
0.621853 -0.411682 0.332512 42 118 142
-0.658397 -0.379558 0.244675 62 72 136
-0.125078 -0.337824 -0.234811 68 1 84
-0.181061 0.137000 -0.211105 68 1 84
0.603768 -0.153031 0.164242 32 143 140
0.448406 -0.282121 -0.089118 70 48 125
-0.585792 -0.439033 0.001877 68 1 84
0.574401 -0.242429 0.078135 43 116 142
0.539051 0.045806 0.063793 71 22 105
0.090580 -0.479622 -0.329737 68 1 84
0.527820 -0.278655 0.012829 63 71 136
0.101781 0.044574 -0.331684 68 1 84
-0.552617 0.193620 0.451199 68 1 84
0.305054 -0.415031 -0.216579 68 1 84
0.469987 0.008736 -0.091438 69 52 127
0.613019 -0.173135 0.453044 43 177 125
0.557676 0.057359 0.136969 50 99 141
0.426691 -0.354883 -0.098761 68 1 84
-0.323568 0.281093 -0.099072 68 1 84
0.599363 -0.054804 0.366404 31 162 134
0.239973 -0.367677 -0.177129 68 1 84
0.233576 0.419735 -0.132137 70 49 126
0.133077 0.657627 -0.127540 55 88 140
0.317445 0.560034 0.068739 68 1 84
0.595711 -0.043513 0.508244 109 206 88
-0.043241 0.615815 -0.187028 33 166 133
0.063190 -0.403626 -0.296771 68 1 84
-0.503575 -0.188828 -0.068043 68 1 84
0.629114 -0.448226 0.455224 131 211 75
0.288336 0.535882 -0.049645 68 1 84
0.302475 0.035522 -0.205494 70 12 95
-0.595822 0.012854 0.305872 71 21 103
-0.166211 -0.338506 -0.195147 68 1 84
0.524568 -0.491129 0.022325 68 1 84
0.619433 -0.249328 0.231906 55 88 140
0.440602 0.441891 0.210070 68 1 84
0.075895 0.681771 -0.089504 67 59 131
-0.367693 0.058699 -0.184411 66 64 133
0.150036 -0.025331 -0.263034 68 1 84
0.356874 -0.513685 -0.233777 68 1 84
-0.661069 -0.164973 0.358190 70 45 124
0.056349 -0.228283 -0.313954 68 1 84
0.551398 0.182065 0.512214 32 144 140
-0.596830 -0.253207 0.069022 69 5 88
0.351290 0.244908 -0.114295 68 1 84
0.566185 -0.383155 0.122387 43 115 142
0.597573 -0.277646 0.152791 31 147 139
-0.150337 0.327401 -0.195233 67 58 131
0.570835 -0.527767 0.189828 68 1 84
0.596857 -0.016424 0.419163 35 168 131
0.577967 -0.326554 0.125009 39 126 142
0.392410 -0.032826 -0.167779 71 24 106
-0.200154 0.166336 -0.203344 68 1 84
0.519580 -0.420444 0.029560 68 2 85
-0.370708 0.501900 0.153480 68 1 84
-0.651514 -0.178485 0.216402 71 40 120
-0.140526 -0.335169 -0.211696 68 1 84
0.600341 -0.065805 0.395804 32 164 133
-0.559839 0.171816 0.246367 68 1 84
-0.105031 -0.390945 -0.309640 68 1 84
0.068203 0.094398 -0.277129 68 1 84
-0.429722 0.440550 0.307776 68 1 84
-0.126507 -0.350181 -0.245278 68 1 84
0.551464 0.075435 0.128777 58 82 139
-0.159080 0.325244 -0.186811 64 68 135
0.434788 -0.054812 -0.133578 69 52 127
-0.602220 -0.005624 0.508576 66 61 132
-0.695978 -0.298519 0.494210 55 89 140
0.084419 -0.386478 -0.254380 68 1 84
-0.365770 -0.375636 -0.228487 68 1 84
0.458923 0.146981 -0.050701 65 66 134
-0.075408 -0.192883 -0.365408 68 1 84
-0.551719 0.219455 0.328643 68 1 84
0.626962 -0.277885 0.410831 62 188 115
0.626552 -0.339998 0.313618 38 129 142
0.280316 -0.416615 -0.227712 68 1 84
0.022391 0.508160 -0.217075 32 143 140
0.520475 -0.187781 -0.035938 55 89 140
0.163421 -0.395540 -0.208986 68 1 84
0.544431 0.163642 0.161135 71 44 123
0.584965 -0.550895 0.254058 72 26 108
-0.197256 -0.333272 -0.174679 68 1 84
-0.613818 -0.043600 0.147702 68 1 84
-0.555947 0.185998 0.440943 68 1 84
0.626806 -0.478220 0.431575 91 200 98
-0.446214 -0.355631 -0.146720 68 1 84
-0.535242 0.214745 0.506517 72 33 114
0.191266 0.168031 -0.216569 68 1 84
0.039939 0.121634 -0.284304 68 1 84
-0.633048 -0.334665 0.160147 68 1 84
0.492249 -0.163961 -0.075601 59 80 138
-0.509889 0.315395 0.435378 68 1 84
-0.732669 -0.424725 0.484942 61 74 137
0.569445 -0.024866 0.108789 43 115 142
0.448236 0.168576 -0.054398 66 62 133
-0.440565 0.416407 0.380103 68 1 84
-0.000813 0.369612 -0.256971 63 71 136
0.614314 -0.193078 0.470518 165 218 53
-0.195798 0.559338 -0.104766 38 127 142
-0.567566 0.140126 0.257224 68 1 84
-0.441844 0.422493 0.342134 68 1 84
-0.173220 0.011789 -0.228624 68 1 84
0.527609 -0.513044 0.025234 68 1 84
0.630040 -0.270860 0.339127 38 128 142
-0.609028 -0.034308 0.422167 59 80 138
0.473890 -0.516183 -0.121357 68 1 84
-0.252294 0.100130 -0.197460 68 1 84
-0.179099 -0.332890 -0.183840 68 1 84
0.606596 -0.281128 0.183128 30 158 136
-0.499803 0.139180 -0.021754 68 1 84
0.465387 -0.322321 -0.053315 68 1 84
-0.157564 0.028633 -0.304223 68 1 84
0.081505 0.393702 -0.228108 53 92 140
-0.717646 -0.385441 0.440636 44 114 142
-0.508333 0.249726 0.115861 69 6 90
0.606325 -0.390364 0.256603 56 87 140
-0.276624 0.078289 -0.203250 68 2 85
-0.550725 -0.294729 0.010062 68 1 84
-0.510347 -0.481782 -0.163963 68 1 84
-0.275655 -0.102824 -0.203519 68 1 84
-0.387719 0.479344 0.310604 68 1 84
0.566972 0.174192 0.271698 49 102 141
-0.513183 0.323717 0.353622 68 1 84
0.474117 -0.313418 -0.044739 72 25 107
-0.472110 -0.399026 -0.168769 68 1 84
-0.596179 0.011362 0.344825 68 1 84
0.098439 0.294383 -0.240463 58 82 139
0.587355 -0.034078 0.225812 37 130 142
-0.113253 0.529611 -0.178637 36 170 130
0.453759 0.179147 -0.038167 72 33 114
-0.047798 -0.221912 -0.371984 68 1 84
0.097975 0.130721 -0.262219 68 1 84
-0.050017 0.043467 -0.465200 49 100 141
0.572423 0.136823 0.270577 40 123 142
0.449664 -0.165227 -0.114388 67 60 132
-0.598556 -0.414891 0.059559 68 1 84
-0.598475 0.012325 0.476607 65 66 134
0.421479 -0.196592 -0.128895 65 65 134
0.270036 0.363384 -0.115668 72 35 116
-0.366743 0.509069 0.173954 68 1 84
-0.159438 -0.441400 -0.330761 68 1 84
0.192083 0.259946 -0.167587 68 1 84
-0.478571 0.278602 0.069886 71 15 98
-0.584735 0.057007 0.267650 70 12 95
-0.603648 -0.394887 0.083960 68 1 84
-0.346028 -0.261112 -0.179005 68 1 84
-0.709169 -0.388420 0.422465 42 117 142
0.248649 0.362104 -0.130607 68 55 129
-0.724968 -0.531958 0.437539 63 69 135
-0.195522 0.631976 0.016867 64 67 135
-0.075399 -0.117378 -0.393578 68 1 84
0.581060 0.024159 0.235928 33 140 141
0.557807 -0.467262 0.132923 68 1 84
-0.355402 -0.144387 -0.173578 68 1 84
0.568665 0.091387 0.205299 44 113 142
-0.238453 -0.068735 -0.222508 68 1 84
0.054798 0.057495 -0.436300 64 68 135
-0.215352 -0.048131 -0.230673 68 1 84
-0.114785 -0.070152 -0.350320 68 1 84
0.145084 0.303730 -0.221802 61 76 137
0.110670 0.047418 -0.347234 68 3 87
-0.590001 0.026614 0.520527 67 60 132
-0.329345 -0.180960 -0.183082 68 1 84
0.608528 -0.148332 0.336360 30 153 138
-0.577612 0.083343 0.217243 72 26 108
-0.092875 0.455364 -0.184319 35 137 141
0.608460 -0.176661 0.506655 103 204 92
0.041121 -0.249550 -0.321712 68 1 84
0.269284 0.201531 -0.172407 68 1 84
0.228826 0.417510 -0.135616 70 48 125
0.612159 -0.164786 0.313311 46 108 142
0.061236 0.083077 -0.282736 68 1 84
-0.110348 0.083860 -0.262467 68 1 84
0.543595 0.272426 0.384128 53 92 140
-0.181794 -0.157815 -0.232315 68 1 84
0.378081 -0.284685 -0.152199 68 1 84
0.535775 -0.092659 -0.017004 43 116 142
-0.139546 -0.070206 -0.290542 68 1 84
-0.485991 0.374530 0.278981 68 1 84
0.075584 -0.126947 -0.342260 68 1 84
0.163221 0.033274 -0.227663 68 1 84
0.627595 -0.280084 0.298639 32 164 133
-0.108524 0.591429 -0.172603 33 167 132
0.423256 -0.218262 -0.123287 66 64 133
0.139336 0.429455 -0.182516 61 74 137
0.558028 -0.265754 0.054799 57 85 139
0.476284 0.378158 0.364624 72 33 114
-0.429844 0.442978 0.289731 68 1 84
-0.094414 0.642766 -0.146828 33 167 132
0.138972 -0.494356 -0.314120 68 1 84
0.506682 -0.115427 -0.063472 60 77 138
0.094920 -0.066858 -0.356945 68 1 84
0.477642 -0.517626 -0.114235 68 1 84
-0.059935 0.574414 -0.200207 30 155 137
-0.075208 0.066221 -0.428408 55 88 140
-0.535086 0.262954 0.251381 68 2 85
0.004554 0.260723 -0.266653 71 44 123
-0.176980 0.642662 0.009109 54 90 140
-0.454438 -0.000299 -0.131453 69 52 127
0.630638 -0.435676 0.473624 141 214 68
0.031584 -0.224009 -0.346775 68 1 84
0.461737 0.411718 0.198767 68 1 84
-0.038407 0.074690 -0.328874 68 1 84
0.560900 -0.483356 0.146414 68 2 85
-0.178501 -0.356095 -0.204237 68 1 84
-0.667041 -0.333962 0.274250 64 68 135
-0.675885 -0.251406 0.316554 59 81 138
0.507926 0.343919 0.273739 72 34 115
0.545704 0.273210 0.337889 62 72 136
0.285287 0.578111 0.006979 68 1 84
-0.548204 0.133291 0.115861 71 20 102
-0.455347 0.123125 -0.099933 67 58 131
-0.091853 0.237251 -0.264621 68 55 129
0.269151 -0.346978 -0.187182 68 1 84
0.431646 0.392414 0.057791 68 1 84
0.039226 0.654332 -0.155018 38 127 142
-0.045607 -0.043517 -0.454302 56 87 140
-0.179649 -0.122361 -0.246168 68 1 84
0.515447 0.265749 0.149217 70 9 92
-0.636061 -0.474689 0.154106 68 1 84
0.601966 -0.193812 0.145252 31 162 134
-0.505071 0.317923 0.199243 68 1 84
0.539920 -0.016465 0.021493 70 49 126
0.593592 0.017051 0.382912 32 145 140
-0.184365 -0.362371 -0.209245 68 1 84
0.573703 -0.355680 0.127839 35 135 141
0.535943 0.215969 0.172505 67 60 132
0.545132 0.272377 0.307031 66 64 133
0.307112 -0.145217 -0.190163 68 1 84
-0.112913 0.059305 -0.389652 59 81 138
-0.556092 0.203727 0.361262 72 33 114
-0.075376 -0.447362 -0.350420 68 1 84
0.561246 -0.017046 0.081964 53 92 140
-0.537845 -0.406069 -0.101888 68 1 84
0.479524 -0.408354 -0.043572 68 1 84
0.350299 0.401952 -0.052484 68 1 84
0.080670 0.330810 -0.257489 58 82 139
-0.482840 0.101396 -0.076294 69 53 128
-0.219209 -0.170533 -0.207083 68 1 84
-0.288591 0.273582 -0.110528 68 2 85
-0.445323 0.018971 -0.138346 63 71 136
0.364352 0.522055 0.118414 68 1 84
-0.683173 -0.378106 0.354642 48 104 141
-0.415925 -0.176754 -0.142974 68 1 84
0.289505 -0.156431 -0.194060 68 1 84
0.165563 0.366336 -0.201654 71 43 122
0.574335 0.038507 0.198496 41 121 142
-0.657478 -0.165276 0.284254 67 60 132
0.437174 0.443237 0.267803 68 1 84
-0.227108 -0.108971 -0.220487 68 1 84
0.632538 -0.347429 0.434475 96 201 96
-0.035237 0.089263 -0.300922 68 1 84
0.377868 -0.094318 -0.169386 70 14 97
0.631879 -0.359258 0.468618 151 216 62
0.512571 0.328780 0.359724 70 47 124
0.140026 0.162448 -0.246164 71 40 120
-0.575984 0.100331 0.483841 63 69 135
0.403397 -0.523477 -0.202327 68 1 84
-0.694237 -0.348200 0.386175 44 113 142
0.088146 -0.115078 -0.329623 68 1 84
0.091930 0.274764 -0.236232 71 40 120
-0.597654 -0.406640 0.060909 68 1 84
0.255948 0.544743 -0.090010 68 55 129
-0.378621 0.192954 -0.124653 71 39 119
-0.299105 -0.372129 -0.215546 68 1 84
-0.035496 -0.019513 -0.467608 49 102 141
0.525069 0.244419 0.160034 70 9 92
0.459012 -0.044609 -0.111480 67 59 131
-0.499530 0.154861 -0.006396 71 18 101
0.231964 -0.420453 -0.246421 68 1 84
0.548573 0.123136 0.148982 54 90 140
0.157849 0.228738 -0.235422 68 1 84
-0.571243 -0.448832 -0.049441 68 1 84
-0.654506 -0.202740 0.217539 67 58 131
-0.355675 -0.162413 -0.173005 68 1 84
-0.133566 0.442346 -0.168970 40 122 142
0.436937 -0.223449 -0.110916 70 45 124
-0.118050 -0.039906 -0.364526 70 12 95
0.505419 0.244555 0.101132 65 66 134
-0.699212 -0.327362 0.424995 40 122 142
0.256647 0.605494 -0.008633 69 8 91
-0.163504 0.650963 -0.022039 62 72 136
0.441411 -0.458681 -0.148620 68 1 84
0.474906 0.222079 0.023388 70 49 126
0.017574 0.085430 -0.302684 68 1 84
0.111642 0.245138 -0.249698 69 53 128
0.552257 -0.153550 0.009142 45 111 142
-0.042954 0.151841 -0.284900 54 91 140
0.590585 -0.456241 0.242486 60 78 138
-0.162564 0.190764 -0.226011 71 37 117
0.074752 0.484954 -0.205952 44 113 142
-0.478851 -0.211988 -0.092681 68 1 84
0.582530 0.114948 0.321746 32 145 140
-0.409636 0.298755 -0.022703 67 58 131
-0.562289 0.142634 0.203857 68 1 84
0.018885 -0.121878 -0.405515 68 1 84
-0.574680 0.079065 0.171867 68 1 84
0.520594 0.319233 0.344321 65 66 134
0.098017 0.071523 -0.262943 68 1 84
-0.186304 0.084257 -0.205116 68 1 84
-0.344505 -0.453528 -0.263965 68 1 84
0.061364 0.038939 -0.331451 68 1 84
0.118868 0.445850 -0.186980 61 76 137
-0.131453 0.619807 -0.140167 30 157 136
-0.497345 -0.317548 -0.060574 68 1 84
-0.731843 -0.436744 0.487412 61 74 137
-0.104685 -0.196769 -0.323602 68 1 84
-0.659173 -0.432185 0.246327 72 32 113
0.280157 0.164982 -0.178620 68 1 84
-0.559938 0.092415 0.097056 68 1 84
0.147698 0.037826 -0.327814 72 25 107
-0.434335 -0.187655 -0.131044 68 1 84
0.108435 -0.030685 -0.376823 71 21 103
-0.683540 -0.362863 0.348540 53 93 140
-0.497756 -0.212363 -0.069587 68 1 84
-0.076262 0.246825 -0.264549 61 75 137
-0.411995 0.341463 0.009614 68 1 84
0.567447 0.174989 0.275578 49 101 141
-0.677386 -0.426642 0.301941 51 96 141
0.044648 0.398513 -0.230011 44 112 142
0.428497 0.232690 -0.044375 71 15 98
0.565398 -0.219860 0.050392 59 80 138
0.591336 0.000142 0.511678 75 194 108
0.595506 -0.182107 0.122634 33 141 140
-0.597807 -0.160818 0.051394 68 1 84
-0.339396 -0.212159 -0.180176 68 1 84
-0.466221 -0.324747 -0.099958 68 1 84
0.599387 -0.051564 0.376633 30 157 136
0.583324 0.021981 0.256674 40 174 127
0.542093 -0.469985 0.086943 72 28 110
-0.259170 -0.135701 -0.201666 68 1 84
-0.383961 0.492132 0.177369 68 1 84
0.610170 -0.252389 0.187945 31 149 139
-0.415470 0.310594 -0.006549 72 30 112
0.149323 -0.007570 -0.300739 68 1 84
0.346440 -0.352327 -0.172879 68 1 84
0.027612 0.150067 -0.286098 69 5 88
0.113927 0.644520 -0.158260 39 125 142
-0.471046 -0.038800 -0.118577 68 1 84
-0.550335 0.175215 0.178343 68 1 84
0.047778 0.071026 -0.402301 69 54 129
-0.657192 -0.251156 0.220850 71 43 122
-0.111332 0.551006 -0.179790 30 156 137
-0.676529 -0.423402 0.298028 49 102 141
-0.721065 -0.426283 0.430673 56 86 139
0.403622 -0.373830 -0.122368 68 1 84
-0.032701 -0.029939 -0.463775 44 113 142
0.237898 -0.455903 -0.278564 68 1 84
-0.338898 0.531218 0.226269 68 1 84
0.073179 0.539814 -0.214129 30 151 138
-0.585739 -0.012638 0.058685 68 1 84
0.557250 -0.559140 0.131485 68 1 84
0.379473 0.476291 0.051201 68 1 84
-0.664474 -0.177487 0.463773 54 91 140
-0.718025 -0.363552 0.474891 43 116 142
0.514209 0.276894 0.156736 71 20 102
-0.059266 -0.247584 -0.355087 68 1 84
-0.158768 0.256108 -0.212995 67 60 132
0.148034 -0.299752 -0.190499 68 1 84
-0.111144 0.652810 -0.122449 30 151 138
0.481490 0.372058 0.363172 71 44 123
-0.047113 0.155971 -0.284628 49 100 141
0.623987 -0.235608 0.392070 31 162 134
0.470899 0.361410 0.121793 68 1 84
-0.485892 0.278612 0.086254 69 8 91
-0.080470 0.076246 -0.277395 68 1 84
-0.258242 0.553513 -0.016755 55 88 140
-0.013512 0.687426 -0.076383 66 61 132
-0.377278 0.307980 -0.052992 71 22 105
-0.273824 0.389150 -0.080597 70 11 94
-0.187289 0.381328 -0.147296 72 29 111
0.346443 0.540162 0.172781 68 1 84
0.250630 0.094426 -0.197004 68 1 84
0.115166 -0.049230 -0.327976 68 1 84
-0.046078 0.146682 -0.283572 56 87 140
0.285303 -0.358184 -0.185196 68 1 84
0.195829 -0.126361 -0.235011 68 1 84
-0.499200 -0.003502 -0.088103 71 42 121
0.515729 0.318722 0.227633 71 37 117
0.447476 -0.260081 -0.093896 71 22 105
-0.099625 -0.220160 -0.322044 68 1 84
-0.101891 -0.000583 -0.429748 50 98 141
0.364789 -0.189776 -0.163699 68 1 84
0.584943 -0.154113 0.089102 39 125 142
0.124295 0.197324 -0.265428 68 1 84
-0.278678 -0.289572 -0.186071 68 1 84
-0.032507 -0.309749 -0.335531 68 1 84
0.069230 -0.106966 -0.364763 68 1 84
-0.615218 -0.511478 0.074743 68 1 84
0.473642 0.202789 0.011317 70 45 124
0.581463 0.137752 0.339305 43 116 142
-0.388036 0.484380 0.280387 68 1 84
0.400867 -0.085688 -0.156833 71 38 118
0.566265 0.096096 0.196957 45 110 142
0.315403 0.564832 0.105160 68 1 84
-0.298440 0.155691 -0.173793 68 3 87
0.014462 0.422800 -0.206724 43 115 142
-0.034832 -0.283599 -0.347330 68 1 84
-0.001799 -0.062154 -0.450286 64 67 135
0.436964 0.380643 0.057528 68 1 84
-0.301609 -0.273536 -0.186909 68 1 84
0.445987 0.245659 -0.011517 71 37 117
-0.067291 0.062529 -0.305563 68 1 84
-0.232815 -0.059941 -0.225273 68 1 84
0.627240 -0.454522 0.425269 59 186 117
-0.279114 -0.366597 -0.205709 68 1 84
0.233940 0.060021 -0.204646 68 1 84
0.602785 -0.105179 0.349000 34 137 141
-0.610354 -0.039725 0.390898 69 52 127
0.580153 0.071167 0.503116 39 173 128
-0.623341 -0.270617 0.122111 68 2 85
-0.693635 -0.519814 0.325560 70 12 95
-0.425080 0.443344 0.316270 68 1 84
-0.148668 0.395897 -0.174099 61 75 137
-0.482599 0.366158 0.210182 68 1 84
0.632806 -0.365243 0.448255 131 211 75
-0.317378 -0.023363 -0.207233 71 22 105
-0.377362 0.492016 0.291036 68 1 84
0.213394 -0.383812 -0.170748 68 1 84
0.063776 0.045563 -0.351139 68 2 85
0.500549 -0.437249 -0.023251 68 1 84
0.471769 0.258877 0.036018 71 37 117
-0.470177 0.229377 0.011491 72 32 113
0.633388 -0.316389 0.470873 85 198 102
-0.579877 -0.464710 -0.027359 68 1 84
-0.252043 -0.362189 -0.198882 68 1 84
-0.689279 -0.273839 0.450618 42 118 142
0.131069 0.659827 -0.125198 56 86 139
0.399517 -0.525845 -0.205977 68 1 84
-0.619598 -0.490598 0.093981 68 1 84
-0.475764 -0.412253 -0.174289 68 1 84
0.604877 -0.156715 0.551276 194 223 34
-0.043829 0.208281 -0.293597 64 68 135
0.297391 0.432843 -0.082135 71 42 121
-0.035768 0.339250 -0.256784 60 78 138
0.486153 0.143647 -0.000568 66 61 132
0.543081 0.197566 0.523903 30 156 137
-0.374708 -0.062887 -0.178169 71 24 106
0.550484 0.245688 0.422234 49 102 141
0.603853 -0.101348 0.438165 77 194 107
-0.010231 -0.207111 -0.378791 68 1 84
0.588583 0.031655 0.306231 31 163 134
-0.532656 -0.387873 -0.096993 68 1 84
0.608187 -0.456310 0.292496 70 48 125
-0.638151 -0.212897 0.154284 71 44 123
-0.192029 -0.296229 -0.180454 68 1 84
0.172508 0.350183 -0.203376 68 1 84
0.493288 -0.093930 -0.078482 62 72 136
-0.201749 0.333564 -0.142074 68 1 84
-0.195549 -0.295784 -0.179908 68 1 84
-0.661681 -0.393426 0.254288 46 108 142
-0.240000 0.321119 -0.105151 70 9 92
0.602939 -0.099501 0.418179 68 190 112
0.531373 0.283801 0.428632 43 115 142
-0.494509 -0.264286 -0.060351 68 1 84
0.255493 -0.132023 -0.209620 68 1 84
-0.297764 -0.100572 -0.198024 68 1 84
-0.556401 0.171808 0.208095 68 1 84
-0.436127 -0.279794 -0.132069 68 1 84
0.074797 0.040160 -0.334208 68 1 84
0.491006 0.116435 -0.008667 68 57 130
0.389120 -0.198421 -0.149755 71 21 103
0.166312 0.019590 -0.226079 68 1 84
-0.310872 0.188471 -0.156479 68 1 84
0.145070 0.161603 -0.242524 72 25 107
0.506698 -0.503177 -0.042159 68 1 84
0.253245 0.047701 -0.208415 68 1 84
0.563696 0.189279 0.455997 49 102 141
-0.264086 -0.349230 -0.183727 68 1 84
0.580777 0.061663 0.510484 48 180 122
-0.399206 0.230112 -0.083337 66 64 133
0.123374 0.663870 -0.121896 56 87 140
-0.457284 0.047643 -0.124357 66 61 132
0.171329 0.105584 -0.216923 68 1 84
0.469952 0.385847 0.159377 68 1 84
-0.350904 0.307591 -0.074242 72 29 111
-0.362459 0.508704 0.262389 68 1 84
-0.590649 0.044405 0.475046 69 52 127
0.563619 -0.501595 0.159322 68 1 84
0.283652 -0.028217 -0.216872 69 8 91
-0.447194 0.073730 -0.128611 60 78 138
0.273743 -0.314571 -0.191595 68 1 84
-0.310564 -0.053511 -0.204695 68 1 84
-0.009689 0.531409 -0.216705 30 152 138
-0.339669 0.532984 0.187129 68 1 84
-0.220427 -0.338875 -0.171554 68 1 84
-0.078035 0.071149 -0.408969 54 90 140
0.582239 0.083313 0.292375 37 131 141
0.420597 0.195280 -0.077730 70 48 125
-0.576409 0.094776 0.246751 68 1 84
0.507765 0.317640 0.435552 37 130 142
0.505964 -0.449470 -0.017717 68 1 84
0.266752 0.415532 -0.109811 70 47 124
-0.652798 -0.145150 0.377968 68 55 129
-0.526308 -0.511514 -0.143520 68 1 84
-0.686608 -0.391659 0.373335 47 105 141
0.310867 0.404013 -0.082634 71 40 120
0.561848 0.155093 0.225326 40 122 142
-0.575404 0.104928 0.461702 71 43 122
0.535118 0.261271 0.215789 69 54 129
-0.459442 0.276334 0.033345 72 34 115
-0.059768 -0.181723 -0.381402 68 1 84
0.405674 -0.546887 -0.201951 68 1 84
0.593531 -0.017154 0.509590 141 214 68
0.409373 -0.160112 -0.143238 72 28 110
-0.262548 0.279433 -0.108199 68 1 84
-0.648792 -0.276237 0.195421 69 54 129
0.584150 -0.593783 0.272809 68 1 84
-0.106272 0.638062 -0.143825 31 163 134
0.122607 0.664680 -0.120709 52 95 141
0.534143 0.285748 0.404444 61 75 137
-0.632864 -0.171372 0.138495 72 32 113
0.443215 0.016306 -0.120759 62 73 137
0.625628 -0.226928 0.348764 39 124 142
-0.039377 0.085507 -0.404244 67 60 132
0.632504 -0.309210 0.451247 42 176 126
-0.450273 0.261454 0.007710 72 25 107
0.120864 0.528863 -0.200908 34 139 141
0.617213 -0.514021 0.376124 40 122 142
0.579064 0.161926 0.364087 32 144 140
0.421533 0.271792 -0.036427 68 1 84
0.282232 0.051012 -0.205476 68 1 84
0.038813 0.474594 -0.206200 31 146 140
-0.567839 -0.507321 -0.067897 68 1 84
0.041430 0.315871 -0.251752 59 81 138
0.434562 0.442502 0.159464 68 1 84
0.165126 0.146514 -0.227357 68 1 84
0.098743 0.671304 -0.118277 67 60 132
0.188475 -0.140256 -0.234774 68 1 84
-0.577069 0.084551 0.210856 72 25 107
0.474803 -0.238750 -0.070586 70 49 126
-0.375231 0.374921 -0.013207 68 2 85
-0.545449 -0.408962 -0.090348 68 1 84
0.582132 0.024850 0.247514 30 156 137
0.611541 -0.212177 0.187658 30 153 138
0.602329 -0.413846 0.262313 47 106 141
-0.349023 0.143890 -0.165334 71 37 117
0.390944 0.383050 -0.019339 68 1 84
-0.216729 0.569322 -0.072267 56 87 140
-0.614146 -0.331507 0.113636 68 1 84
-0.021628 0.433834 -0.202066 41 120 142
-0.713694 -0.510693 0.393964 60 77 138
-0.457296 0.381766 0.451891 68 1 84
0.417855 -0.097397 -0.144899 70 45 124
0.267043 0.150742 -0.185449 68 1 84
0.052790 -0.334293 -0.272137 68 1 84
-0.689568 -0.268150 0.409519 53 93 140
-0.517863 -0.016756 -0.068620 70 49 126
-0.682775 -0.234184 0.444029 50 98 141
0.045097 0.083317 -0.290566 68 1 84
-0.531495 -0.049769 -0.056742 68 1 84
0.069758 0.679636 -0.101609 65 66 134
0.626483 -0.531943 0.456865 46 178 124
-0.656242 -0.425174 0.239228 68 1 84
0.093367 -0.462144 -0.324778 68 1 84
0.301380 0.251505 -0.126171 68 1 84
-0.052288 0.066459 -0.316653 68 1 84
0.394318 0.166282 -0.120787 68 1 84
0.567647 0.147064 0.251418 42 119 142
0.447139 -0.163233 -0.116898 64 68 135
0.495014 -0.273181 -0.033243 67 60 132
-0.666069 -0.178971 0.357633 69 53 128
-0.540735 0.207285 0.494968 72 30 112
0.230516 0.311919 -0.142692 70 12 95
0.203616 0.375985 -0.163490 71 22 105
0.590051 -0.003687 0.301316 34 138 141
-0.666870 -0.182285 0.390459 67 60 132
-0.689372 -0.267447 0.421601 50 99 141
-0.308526 -0.156555 -0.188342 68 1 84
0.281585 -0.053221 -0.216264 68 1 84
-0.003805 0.070551 -0.448789 49 102 141
0.558985 0.225338 0.284804 56 87 140
-0.487365 0.372209 0.303571 68 1 84
0.514487 -0.337811 0.017690 72 25 107
-0.629043 -0.197073 0.125326 70 45 124
-0.618646 -0.453983 0.107062 68 1 84
0.608976 -0.143328 0.260728 31 146 140
0.289532 -0.502089 -0.264779 68 1 84
0.375700 0.268088 -0.089482 68 1 84
0.486976 0.134710 -0.004915 63 69 135
0.437157 0.423404 0.114914 68 1 84
-0.068306 0.051758 -0.452948 51 97 141
0.398081 0.404002 0.007768 68 1 84
0.121548 0.639836 -0.159547 38 128 142
-0.542463 0.078342 0.021381 68 1 84
-0.537152 -0.344695 -0.033429 68 1 84
0.252872 -0.129158 -0.211105 68 1 84
-0.577283 0.093745 0.271082 68 1 84
-0.374165 0.402223 0.008403 71 17 99
-0.690184 -0.339016 0.367275 46 107 142
-0.577143 0.098919 0.326021 68 1 84
0.422191 0.082905 -0.129718 68 57 130
-0.573395 0.114678 0.276642 68 1 84
0.213209 -0.176690 -0.213062 68 1 84
-0.387948 0.481889 0.151293 68 1 84
-0.692255 -0.290181 0.441854 45 110 142
0.275199 0.583195 -0.013420 68 1 84
0.626334 -0.407908 0.392138 31 149 139
0.016122 0.385845 -0.248156 60 77 138
-0.548668 0.073370 0.032360 68 1 84
0.279656 -0.216435 -0.192139 68 1 84
-0.688393 -0.258411 0.399519 54 91 140
-0.059138 0.496880 -0.200892 31 161 135
0.622970 -0.556845 0.433392 38 128 142
0.351219 0.408416 -0.047973 68 1 84
0.578683 0.089027 0.272595 32 145 140
-0.443884 0.374189 0.094550 68 1 84
0.355502 -0.513433 -0.234511 68 1 84
-0.031772 0.555885 -0.210837 33 141 140
0.429450 0.438977 0.122701 68 1 84
-0.550696 0.095669 0.065971 68 1 84
0.233443 0.479521 -0.124098 62 72 136
0.608212 -0.139600 0.446714 98 202 95
-0.318761 -0.195461 -0.186705 68 1 84
0.627692 -0.475498 0.465667 94 201 97
-0.394542 -0.195759 -0.155808 68 1 84
-0.311316 0.512029 0.027232 66 64 133
-0.616147 -0.055672 0.444219 59 81 138
-0.105801 -0.348839 -0.278448 68 1 84
0.444707 0.434386 0.188488 68 1 84
-0.644599 -0.502291 0.173606 68 3 87
-0.658284 -0.158238 0.324190 70 49 126
0.057576 0.499608 -0.212860 38 128 142
0.538409 -0.154758 -0.014684 46 108 142
-0.064180 0.012056 -0.464087 46 107 142
0.226513 0.630832 0.000197 70 14 97
-0.692691 -0.312121 0.390246 44 113 142
-0.413797 0.209693 -0.084582 70 47 124
-0.611629 -0.037342 0.515332 63 71 136
0.595291 -0.023452 0.336016 36 132 141
0.032426 -0.264960 -0.324473 68 1 84
0.284540 0.579437 0.008231 69 5 88
0.248602 0.139684 -0.192233 68 1 84
-0.635137 -0.103414 0.431619 56 87 140
-0.557732 0.157159 0.486744 71 42 121
0.116625 -0.179017 -0.271188 68 1 84
0.625445 -0.265781 0.426189 98 202 95
-0.657118 -0.244389 0.220206 71 20 102
0.397829 0.458423 0.066286 68 1 84
-0.491973 -0.502939 -0.182879 68 1 84
0.505337 0.071157 -0.006711 69 50 127
-0.395924 0.017270 -0.173330 70 45 124
0.017594 -0.107174 -0.415892 70 14 97
-0.479467 -0.027343 -0.111074 72 35 116
0.213812 0.277886 -0.142981 69 6 90
-0.537310 0.264243 0.386525 71 20 102
0.544860 -0.105972 -0.003002 46 109 142
0.172011 -0.150024 -0.240570 68 1 84
-0.499001 0.350558 0.353016 68 1 84
0.331162 -0.055199 -0.199051 71 22 105
0.548315 -0.127273 0.001942 46 109 142
0.353195 0.001927 -0.191862 71 37 117
0.006117 -0.317776 -0.322985 68 1 84
0.586210 0.074797 0.428256 30 153 138
-0.493507 0.322893 0.160669 68 1 84
0.612843 -0.618090 0.409388 69 52 127
-0.437572 -0.329534 -0.126944 68 1 84
-0.498682 0.342977 0.406322 68 1 84
0.461661 0.077097 -0.083731 61 76 137
-0.253571 0.564443 -0.012197 61 74 137
