ply
format ascii 1.0
element vertex 1244
property float x
property float y
property float z
property uchar red
property uchar green
property uchar blue
end_header
-0.634526 -0.208551 0.195473 69 191 111
0.280358 -0.407451 -0.250320 58 82 139
-0.289306 -0.293014 -0.162896 70 12 95
-0.650410 -0.241636 0.358686 144 214 67
0.057276 -0.268529 -0.249524 68 1 84
-0.592374 0.056491 0.289995 35 136 141
0.056885 -0.393336 -0.237211 68 1 84
-0.404822 -0.221046 -0.114847 68 1 84
-0.088986 0.068600 -0.416593 53 93 140
-0.178817 0.600989 -0.100515 72 26 108
-0.096609 -0.247224 -0.263149 68 1 84
-0.517610 0.290234 0.424085 36 132 141
-0.103128 -0.109929 -0.352755 68 1 84
-0.295244 -0.368824 -0.152158 68 1 84
0.361247 0.469126 0.024837 70 49 126
-0.457875 0.307087 0.041451 51 97 141
0.307861 0.549930 0.086122 72 32 113
0.396606 0.176041 -0.136661 70 47 124
0.505514 -0.359307 -0.044401 72 33 114
-0.054279 0.183463 -0.266365 62 73 137
0.581739 0.061201 0.120061 48 104 141
0.667764 -0.312606 0.321664 77 194 107
0.402251 -0.372653 -0.139567 68 1 84
0.649337 -0.224218 0.223021 35 137 141
0.056375 -0.229319 -0.286981 68 1 84
-0.662973 -0.316194 0.372660 210 225 27
0.551853 -0.525567 0.001913 69 52 127
-0.288872 -0.451300 -0.206048 68 1 84
-0.143006 0.483817 -0.167370 68 1 84
0.491908 0.158328 -0.050546 67 58 131
0.068341 0.114034 -0.246327 67 60 132
-0.513776 0.290404 0.437365 34 138 141
0.633942 -0.229528 0.150461 34 138 141
0.613747 -0.001411 0.371043 30 158 136
-0.568877 0.061630 0.086643 44 114 142
-0.328829 0.542224 0.175600 44 114 142
-0.457249 -0.405518 -0.100613 71 38 118
0.249379 -0.385076 -0.201085 71 20 102
-0.525645 0.227611 0.485775 35 168 131
-0.453622 0.380859 0.120908 61 75 137
0.580241 0.173760 0.392537 44 114 142
-0.376071 0.084168 -0.169148 71 22 105
0.169251 0.102648 -0.200810 71 40 120
0.196118 -0.520101 -0.279721 68 1 84
-0.581595 0.128144 0.282011 30 151 138
0.424163 0.437509 0.092612 69 50 127
0.406727 0.446677 0.072344 69 52 127
-0.272427 -0.484071 -0.210621 68 1 84
-0.610212 -0.084998 0.545628 48 180 122
-0.576546 -0.115618 0.015051 41 121 142
-0.269447 0.555603 0.027393 52 94 141
-0.024548 0.669008 -0.112832 49 102 141
0.098720 0.135184 -0.233994 66 64 133
0.576615 0.182444 0.201616 52 95 141
0.159029 0.601586 -0.146018 52 94 141
0.510511 0.369062 0.325604 48 104 141
-0.186965 0.243434 -0.162906 71 42 121
0.099291 0.434015 -0.178290 70 11 94
0.630249 -0.475795 0.210700 30 152 138
0.236719 0.544808 -0.089900 66 61 132
0.090644 0.067259 -0.251619 72 33 114
-0.495593 -0.545560 -0.098169 70 48 125
0.087401 0.657087 -0.130829 46 108 142
0.139265 0.015080 -0.231890 71 21 103
0.417470 -0.428496 -0.173618 71 38 118
0.451980 0.448031 0.254891 48 103 141
-0.060681 0.087503 -0.395061 50 98 141
0.572657 0.180337 0.170557 52 95 141
0.499808 -0.193488 -0.080571 71 37 117
0.087949 0.017042 -0.399539 68 1 84
-0.107446 -0.319304 -0.187226 68 1 84
-0.484674 0.028916 -0.100468 72 34 115
-0.053959 -0.354461 -0.268262 68 1 84
-0.627343 -0.474780 0.240777 44 177 125
-0.173588 -0.140204 -0.222616 68 1 84
0.600304 -0.286328 0.065009 42 119 142
0.125054 -0.480706 -0.273809 68 1 84
-0.509000 0.346778 0.283576 40 122 142
0.003214 -0.334454 -0.283857 68 1 84
-0.215044 0.449538 -0.117014 68 1 84
0.690404 -0.573549 0.420361 34 139 141
-0.616079 -0.072306 0.363534 98 202 95
-0.459028 0.418848 0.240930 44 113 142
-0.320892 -0.164592 -0.154197 68 1 84
-0.568676 0.139008 0.420455 35 169 130
-0.529867 0.116385 0.008059 46 108 142
-0.234205 -0.479207 -0.216392 68 1 84
0.110529 -0.355644 -0.165830 68 1 84
-0.128151 0.651149 -0.087198 72 32 113
-0.607244 -0.054723 0.178164 37 131 141
0.495014 0.097663 -0.072160 71 38 118
0.040124 0.548964 -0.199339 70 47 124
-0.020360 0.679983 -0.079301 44 114 142
-0.638226 -0.263986 0.192314 57 185 118
0.624044 -0.524732 0.201465 48 103 141
0.575064 0.014521 0.057202 56 86 139
0.450683 0.148140 -0.108931 70 49 126
0.611906 -0.050572 0.202976 34 139 141
-0.567821 -0.417655 0.039872 45 111 142
0.577119 0.176344 0.195913 52 94 141
0.010539 -0.229211 -0.345619 68 1 84
-0.526551 0.260631 0.439601 30 154 137
0.281672 0.076058 -0.201903 58 83 139
0.373049 -0.369481 -0.156440 68 1 84
-0.614785 -0.418961 0.147345 32 165 133
-0.222877 0.343678 -0.138261 71 39 119
-0.381232 0.500429 0.266220 50 98 141
-0.070105 -0.375839 -0.253373 68 1 84
0.095868 -0.064306 -0.306376 68 1 84
-0.330707 0.495196 0.056546 62 73 137
-0.144429 0.394260 -0.168725 68 1 84
-0.083139 0.035823 -0.458367 70 47 124
-0.028380 -0.316879 -0.297524 68 1 84
-0.262387 -0.166155 -0.170668 70 11 94
-0.074656 0.077676 -0.292114 70 48 125
0.654309 -0.400103 0.250595 30 157 136
-0.333327 -0.098360 -0.181127 68 1 84
0.610336 -0.223719 0.083810 42 118 142
-0.511649 -0.537375 -0.077756 67 60 132
-0.120861 -0.356826 -0.176823 68 1 84
-0.099301 -0.285541 -0.220028 68 1 84
-0.190101 0.618247 -0.013623 62 73 137
0.095765 -0.039441 -0.336953 68 1 84
-0.265501 0.205249 -0.175090 59 81 138
-0.140498 -0.101041 -0.268922 68 1 84
0.557122 0.248742 0.431109 41 121 142
0.052448 0.407218 -0.187515 68 1 84
0.558251 0.077397 0.041848 60 77 138
-0.558707 -0.513313 0.012935 43 116 142
0.381470 0.493107 0.107470 69 52 127
-0.350263 0.526262 0.182718 40 122 142
0.643530 -0.451204 0.249785 38 172 129
-0.280208 0.571479 0.132351 56 86 139
0.101491 0.590058 -0.181422 61 74 137
-0.325546 -0.372740 -0.152434 68 1 84
0.617439 -0.224236 0.101788 35 137 141
-0.615986 -0.120716 0.150055 30 156 137
-0.080285 -0.221449 -0.323217 68 1 84
-0.497224 -0.201339 -0.072295 56 87 140
-0.191680 -0.355406 -0.150286 68 1 84
0.361698 0.417297 -0.026693 72 28 110
0.350078 0.188063 -0.152748 72 32 113
0.592101 0.140410 0.306304 49 102 141
0.519835 -0.017525 -0.063931 63 69 135
-0.157497 0.061816 -0.197284 72 35 116
-0.228013 -0.028599 -0.208628 70 14 97
-0.530332 -0.553586 -0.044384 65 65 134
-0.346797 0.411244 -0.011787 59 80 138
-0.612760 -0.063390 0.230294 39 126 142
-0.162855 0.035890 -0.265580 58 82 139
0.647559 -0.390459 0.216348 34 167 132
0.419541 -0.234908 -0.112130 66 61 132
-0.375153 0.212872 -0.117720 71 40 120
-0.242681 0.186799 -0.184236 64 67 135
0.578957 0.117709 0.497554 38 128 142
-0.543905 0.269662 0.333974 32 144 140
-0.079325 -0.249181 -0.301075 68 1 84
0.551882 -0.185250 -0.027584 46 109 142
0.452230 0.256186 -0.038093 67 60 132
-0.600443 -0.043600 0.136543 39 124 142
-0.226034 0.472679 -0.099547 68 1 84
-0.006147 -0.002875 -0.475542 68 1 84
-0.283168 0.506363 -0.014968 65 66 134
0.086395 0.288877 -0.224567 71 42 121
-0.575022 0.150163 0.238404 37 130 142
0.278104 -0.379868 -0.176943 68 1 84
-0.675304 -0.484420 0.421675 253 231 36
0.086132 0.174461 -0.250878 61 75 137
0.066525 -0.128318 -0.327175 68 1 84
-0.569422 0.114546 0.446024 96 201 96
0.097583 0.061925 -0.256248 72 35 116
0.616175 -0.230255 0.097916 35 137 141
0.027802 0.364719 -0.207947 68 55 129
-0.447181 -0.216815 -0.096172 64 67 135
-0.145393 0.227097 -0.212489 62 73 137
-0.572627 0.044870 0.518570 77 194 107
0.394207 0.201445 -0.123405 72 32 113
0.638420 -0.140809 0.318715 51 182 121
0.060883 -0.116036 -0.345629 68 1 84
-0.628725 -0.507950 0.249512 57 185 118
-0.338340 0.531917 0.155976 41 120 142
-0.166668 0.009609 -0.205369 72 32 113
-0.520240 0.245572 0.480667 53 183 120
0.101693 0.294699 -0.216944 71 37 117
-0.541057 0.277853 0.248792 38 129 142
0.436564 0.463396 0.246394 51 97 141
0.120317 0.630643 -0.148462 40 122 142
0.056996 -0.436339 -0.259165 68 1 84
0.271198 -0.034447 -0.219587 70 47 124
0.616268 -0.439438 0.131749 44 113 142
0.641173 -0.243707 0.169049 35 136 141
0.491895 -0.142250 -0.097110 70 47 124
-0.285863 0.092406 -0.183668 72 25 107
0.054540 -0.320688 -0.225601 68 1 84
0.130984 0.158878 -0.223376 60 77 138
-0.447410 0.431405 0.289862 40 123 142
-0.238302 0.333921 -0.131686 68 57 130
-0.435690 0.407249 0.122043 53 92 140
0.445939 -0.428745 -0.150683 70 12 95
-0.193932 0.535120 -0.122546 68 1 84
0.363208 -0.177493 -0.144519 71 37 117
0.595575 0.057058 0.230316 41 121 142
-0.626796 -0.121199 0.361113 85 198 102
-0.441569 0.431414 0.190235 51 96 141
-0.067593 0.334088 -0.225291 66 61 132
-0.519377 0.032864 -0.053124 47 105 141
-0.174336 0.082083 -0.196470 71 37 117
0.237410 -0.344086 -0.165184 68 1 84
0.057057 0.344954 -0.221222 67 59 131
0.074796 0.292430 -0.232091 69 54 129
0.509057 0.224836 0.022731 65 65 134
-0.112002 -0.063765 -0.384326 68 1 84
0.535139 -0.513039 -0.035551 72 32 113
-0.637279 -0.370800 0.211152 48 180 122
-0.537302 0.290868 0.285769 40 122 142
-0.146265 0.564819 -0.162344 68 1 84
0.486613 0.062012 -0.094249 67 58 131
0.020776 0.592853 -0.185642 58 82 139
-0.304500 0.557701 0.156474 46 109 142
-0.258057 0.043227 -0.191834 68 2 85
-0.054284 -0.243002 -0.337744 68 1 84
-0.527670 0.236352 0.110394 50 99 141
-0.271060 -0.288620 -0.165470 68 1 84
0.263918 0.176444 -0.182612 58 82 139
-0.146530 -0.521003 -0.280545 68 1 84
0.667452 -0.413366 0.337400 53 183 120
-0.131787 0.063540 -0.272064 58 83 139
-0.499052 0.303677 0.114302 54 90 140
-0.401862 -0.217042 -0.116495 70 14 97
0.198552 -0.213373 -0.166255 72 25 107
0.218602 0.393239 -0.141645 70 14 97
-0.593917 0.015141 0.438670 141 214 68
0.487532 0.170470 -0.050364 70 49 126
0.008698 0.296587 -0.246686 66 62 133
0.465777 -0.355933 -0.080198 67 60 132
0.553347 0.280762 0.339418 53 93 140
0.408586 0.478067 0.147131 64 68 135
-0.199720 0.058974 -0.188769 72 26 108
0.512521 0.361840 0.377735 46 109 142
0.604088 -0.101855 0.094751 39 126 142
0.641824 -0.361409 0.172598 34 138 141
0.644665 -0.164971 0.449661 119 208 82
0.632044 -0.152889 0.203325 33 142 140
-0.490934 -0.132610 -0.090964 53 93 140
0.667439 -0.361073 0.481434 31 149 139
0.461680 0.424322 0.176684 55 89 140
0.515748 0.344577 0.188037 49 101 141
0.622023 -0.150985 0.145098 34 139 141
0.294076 0.552148 0.047871 71 24 106
0.012435 0.057247 -0.461043 68 55 129
-0.255437 -0.567996 -0.260547 68 1 84
0.064590 -0.429345 -0.251161 68 1 84
-0.574651 -0.482599 0.048900 39 125 142
0.677325 -0.430347 0.426176 114 207 85
0.036069 -0.299441 -0.271112 68 1 84
0.005013 0.372346 -0.202211 69 53 128
-0.285544 -0.246131 -0.155338 68 1 84
-0.308262 -0.508442 -0.211130 68 1 84
0.569944 0.227048 0.359534 47 105 141
0.074186 0.289347 -0.231412 68 57 130
0.280831 -0.113104 -0.194798 68 1 84
0.238555 0.590225 0.018040 70 49 126
-0.358571 0.521377 0.211763 40 122 142
-0.001840 0.285527 -0.244496 69 53 128
0.246878 -0.448481 -0.232869 68 1 84
-0.421664 -0.178241 -0.116772 71 42 121
0.527869 0.257043 0.091039 55 88 140
0.507941 0.371063 0.358648 49 100 141
-0.034413 0.473448 -0.189993 68 1 84
0.551305 -0.123268 -0.033567 57 84 139
0.509411 -0.045371 -0.081554 68 55 129
0.558019 -0.123387 -0.023326 49 101 141
-0.060145 -0.252416 -0.325953 68 1 84
0.428328 0.114234 -0.143268 70 47 124
0.667580 -0.433208 0.333893 41 175 127
0.642567 -0.164346 0.282014 35 169 130
0.647107 -0.203279 0.475181 54 184 119
-0.638863 -0.176365 0.364344 165 218 53
0.502244 0.221265 0.007827 65 66 134
-0.621459 -0.336459 0.142182 50 181 122
-0.376716 -0.120876 -0.156080 66 62 133
-0.360151 -0.577102 -0.208628 68 1 84
0.664391 -0.351060 0.397149 136 213 71
-0.575960 0.147064 0.241971 38 127 142
-0.624439 -0.172813 0.164270 33 167 132
0.634472 -0.353005 0.142377 30 152 138
-0.365816 -0.331828 -0.134423 71 38 118
-0.103408 -0.376024 -0.210035 68 1 84
0.687293 -0.551042 0.381783 41 175 127
-0.062042 -0.259292 -0.319180 68 1 84
0.571913 -0.167403 0.000899 37 130 142
-0.152981 -0.500115 -0.274776 68 1 84
-0.647397 -0.320455 0.238032 91 200 98
0.652241 -0.243137 0.222170 30 152 138
-0.112387 0.541226 -0.183412 68 1 84
0.091659 -0.246110 -0.210587 68 1 84
-0.368311 -0.412288 -0.176545 71 39 119
-0.666798 -0.388589 0.397355 223 227 24
0.420876 -0.168317 -0.131966 68 1 84
0.434773 0.448442 0.144100 65 66 134
0.089058 -0.045941 -0.345443 68 1 84
0.525104 0.131783 -0.006691 66 64 133
0.569966 -0.452236 0.032813 49 101 141
0.555811 0.253662 0.427037 47 105 141
0.510597 0.369898 0.293579 46 108 142
0.009111 -0.006962 -0.471843 68 1 84
-0.169126 0.007612 -0.268726 57 84 139
-0.582763 0.104004 0.242202 36 132 141
-0.151509 -0.056643 -0.261352 68 1 84
0.167470 -0.330751 -0.149664 68 1 84
-0.131045 -0.047126 -0.344592 68 1 84
-0.568634 -0.432124 0.039755 45 111 142
0.040046 -0.368212 -0.248180 68 1 84
0.643489 -0.405065 0.211378 30 155 137
-0.347613 0.498265 0.094208 49 101 141
0.568178 0.217788 0.403912 49 100 141
-0.109643 -0.248634 -0.231039 68 1 84
-0.431581 0.449207 0.287281 35 137 141
0.584537 0.001607 0.083871 51 96 141
0.451998 0.170930 -0.095454 69 52 127
-0.393795 0.491085 0.245663 38 127 142
-0.639596 -0.228939 0.457237 225 227 24
0.564140 -0.084660 -0.007656 45 110 142
-0.136175 0.551207 -0.171980 69 8 91
-0.544543 0.255959 0.368509 30 157 136
-0.517570 0.176686 0.027556 43 115 142
-0.071450 0.230594 -0.245641 61 74 137
0.682202 -0.561018 0.355265 38 172 129
0.463145 -0.210800 -0.098979 70 47 124
-0.655129 -0.377924 0.294778 181 221 43
-0.015768 -0.516415 -0.289325 68 1 84
-0.649586 -0.542977 0.299032 96 201 96
-0.200590 -0.391814 -0.175582 68 1 84
0.617572 -0.033791 0.320552 30 152 138
-0.628280 -0.439472 0.219295 39 173 128
0.311207 -0.102607 -0.191031 68 1 84
-0.646723 -0.299981 0.233822 119 208 82
0.426757 0.419054 0.071741 71 40 120
-0.650416 -0.300637 0.444041 199 224 31
-0.534253 -0.290013 -0.001656 52 94 141
0.591004 0.098928 0.467433 36 133 141
-0.605527 -0.237693 0.092863 50 181 122
-0.348925 -0.081614 -0.180254 71 18 101
-0.583812 0.110250 0.272705 32 143 140
-0.504023 0.270536 0.088800 56 86 139
-0.262744 0.581566 0.115205 58 82 139
0.668698 -0.348758 0.280924 31 162 134
-0.325084 0.314332 -0.102743 45 111 142
0.502857 0.379052 0.237053 54 90 140
-0.186163 -0.190413 -0.187739 68 1 84
-0.279500 0.248755 -0.156429 53 92 140
0.658181 -0.272388 0.236795 30 159 136
0.595761 0.101123 0.374498 45 110 142
-0.274792 0.361368 -0.105919 67 60 132
0.206488 0.561825 -0.122182 59 81 138
-0.601897 -0.024807 0.195789 38 128 142
0.661457 -0.562051 0.272816 35 137 141
-0.306464 -0.145519 -0.168319 68 1 84
0.424653 -0.064096 -0.155614 71 17 99
0.079377 -0.036935 -0.389207 68 1 84
-0.269974 0.506942 -0.033337 71 38 118
-0.055222 0.083388 -0.328362 62 73 137
0.193814 -0.035039 -0.218324 68 1 84
0.225173 -0.197967 -0.166809 69 5 88
-0.522913 0.321489 0.296566 39 126 142
-0.064029 0.542374 -0.196214 71 24 106
0.622140 -0.049452 0.350010 32 165 133
-0.465086 0.188439 -0.051911 63 71 136
-0.422579 -0.269560 -0.099452 71 37 117
-0.048133 0.574052 -0.194077 71 40 120
-0.095830 -0.126422 -0.352923 68 1 84
-0.640344 -0.258556 0.465530 178 221 44
0.624757 -0.064506 0.482436 35 168 131
-0.221429 0.520024 -0.092096 68 1 84
-0.575895 0.162003 0.303406 37 131 141
-0.209073 -0.224866 -0.160039 68 1 84
0.523651 0.347258 0.274298 48 104 141
0.611419 0.014083 0.436292 33 141 140
-0.655914 -0.336102 0.470909 157 217 58
0.599759 -0.535800 0.124367 48 104 141
-0.429528 0.445345 0.320949 36 134 141
0.161833 0.246793 -0.174241 71 44 123
-0.369283 -0.093507 -0.168311 71 39 119
-0.221490 -0.177822 -0.178531 68 1 84
0.536085 0.283402 0.146151 48 103 141
0.621599 -0.041559 0.469647 31 163 134
-0.029711 0.211417 -0.269399 58 82 139
-0.331723 0.160615 -0.162442 71 18 101
0.159379 0.536654 -0.172301 71 39 119
-0.598901 -0.206993 0.074125 34 167 132
-0.634246 -0.280763 0.173422 51 182 121
0.381540 0.401357 -0.015520 70 14 97
0.466886 -0.192700 -0.102547 69 8 91
0.338900 0.404234 -0.060932 70 12 95
0.518731 0.355989 0.284961 44 112 142
0.641282 -0.275456 0.160950 32 143 140
0.625111 -0.440077 0.161729 39 126 142
-0.633389 -0.556657 0.254383 48 180 122
0.678661 -0.436071 0.469286 36 170 130
-0.084654 0.649701 -0.134868 57 85 139
0.088592 0.006651 -0.399294 68 1 84
0.563784 0.231954 0.407980 46 109 142
-0.409165 -0.314515 -0.100979 71 24 106
-0.662792 -0.326099 0.382591 220 226 24
0.375142 -0.384989 -0.175964 70 9 92
0.606531 -0.538992 0.147810 63 69 135
0.632751 -0.141792 0.227154 30 156 137
-0.560050 -0.200211 -0.003586 32 144 140
0.081286 -0.207009 -0.257742 68 1 84
0.417957 -0.365555 -0.119405 69 6 90
0.047110 -0.099338 -0.383577 68 1 84
0.330690 0.537676 0.111859 71 17 99
-0.559255 0.212151 0.367481 31 147 139
-0.598196 -0.003207 0.209860 36 133 141
0.590643 0.086629 0.207983 49 100 141
0.650812 -0.203630 0.437967 126 210 78
0.380465 -0.300159 -0.128992 68 1 84
0.665275 -0.334102 0.379871 112 206 86
-0.558368 -0.464347 0.013500 46 108 142
-0.136243 -0.480806 -0.266688 68 1 84
-0.562052 0.028966 0.033026 40 122 142
-0.189142 0.619594 -0.006417 63 69 135
-0.208342 0.612263 0.057396 70 48 125
-0.194532 -0.230284 -0.162879 68 1 84
0.607286 0.032300 0.363716 39 125 142
0.452588 0.043832 -0.137700 71 44 123
0.003849 0.679516 -0.092520 47 105 141
-0.558988 -0.005250 0.005909 42 117 142
0.519637 0.352833 0.323634 49 102 141
-0.145472 -0.381766 -0.175841 68 1 84
-0.310468 0.139641 -0.172985 70 12 95
-0.431322 0.181325 -0.092791 69 53 128
0.067528 0.457420 -0.185437 68 1 84
0.656127 -0.251556 0.248064 33 167 132
0.123588 0.083825 -0.211385 68 1 84
-0.170867 0.611490 -0.099364 69 50 127
-0.141573 0.642571 -0.089215 71 38 118
-0.499603 -0.309229 -0.026568 50 98 141
0.229239 0.549812 -0.097665 62 72 136
0.606565 0.035444 0.451754 32 145 140
0.589740 0.073993 0.191537 49 100 141
-0.350299 0.198366 -0.139803 72 34 115
-0.446073 -0.403187 -0.107735 70 9 92
0.636581 -0.110813 0.423270 59 186 117
-0.448733 0.406343 0.150623 58 83 139
0.363255 0.389199 -0.047131 69 8 91
-0.195961 0.566959 -0.104680 68 3 87
0.490774 -0.215516 -0.081180 72 30 112
0.575267 -0.571728 0.053246 70 14 97
-0.151164 -0.391674 -0.180173 68 1 84
0.366790 0.017981 -0.197760 66 62 133
0.042722 0.661191 -0.131852 48 103 141
0.516668 -0.306859 -0.024286 55 89 140
0.047548 0.000610 -0.453591 68 1 84
-0.240858 -0.528674 -0.258513 68 1 84
-0.639693 -0.176802 0.334159 157 217 58
-0.173722 0.507340 -0.149181 68 1 84
0.629444 -0.100773 0.305270 44 177 125
-0.509131 0.344475 0.239823 42 119 142
0.646361 -0.212483 0.214541 30 151 138
0.140070 0.486434 -0.175392 71 15 98
0.461078 0.341891 0.044507 70 48 125
-0.655091 -0.503061 0.304999 114 207 85
-0.364685 0.410128 0.010869 56 86 139
-0.559893 -0.508867 0.015165 43 115 142
-0.419832 0.428610 0.122836 63 71 136
0.454072 -0.094011 -0.131008 61 76 137
-0.370871 -0.189142 -0.130434 68 1 84
-0.575221 0.047625 0.103926 47 106 141
0.669035 -0.311441 0.276197 30 156 137
0.411421 0.182499 -0.123227 69 50 127
0.650242 -0.288140 0.192591 35 137 141
-0.454378 0.272651 0.002906 42 117 142
0.291596 0.560478 0.082573 72 35 116
-0.437621 0.290733 -0.003245 45 111 142
0.575222 -0.199227 0.010709 45 110 142
-0.671796 -0.536362 0.381398 129 211 76
0.071444 -0.018452 -0.419633 68 1 84
0.298771 0.433463 -0.078090 68 55 129
0.359715 0.305748 -0.095497 72 32 113
0.249343 0.572389 -0.025722 72 30 112
-0.281899 0.253214 -0.153660 51 96 141
0.184110 -0.355133 -0.166590 68 1 84
-0.575203 -0.414845 0.054467 39 126 142
0.646689 -0.444048 0.259169 41 175 127
0.554197 0.016655 0.005371 52 95 141
-0.436914 -0.316962 -0.074695 66 64 133
0.132805 0.031298 -0.255444 72 26 108
-0.649508 -0.313823 0.513337 131 211 75
-0.439243 0.249137 -0.036664 53 93 140
-0.415577 -0.243638 -0.107545 72 28 110
0.257722 -0.534685 -0.260841 68 1 84
0.102905 0.060500 -0.281962 69 54 129
-0.614198 -0.073591 0.216013 35 135 141
0.114176 -0.375553 -0.177276 68 1 84
0.664706 -0.280316 0.283558 40 174 127
0.177614 0.441418 -0.155835 68 2 85
-0.272178 -0.306157 -0.163074 68 1 84
-0.455118 0.093036 -0.112264 72 26 108
-0.570098 0.186925 0.316972 36 132 141
-0.328753 -0.366646 -0.149587 68 1 84
0.355926 -0.060688 -0.191340 69 6 90
-0.286922 0.429222 -0.060792 72 35 116
0.525430 0.210687 0.045801 68 57 130
-0.584474 0.030782 0.138212 41 120 142
0.234878 0.586323 -0.028519 67 58 131
-0.181409 0.624703 -0.012537 63 69 135
0.181008 -0.172606 -0.190747 68 1 84
0.587835 -0.020052 0.081908 52 95 141
0.541657 -0.464778 -0.025266 66 62 133
0.193659 0.112357 -0.196344 67 60 132
0.404109 0.450617 0.073192 71 44 123
-0.515725 -0.024005 -0.070841 58 82 139
0.603835 0.051217 0.443992 36 133 141
-0.613494 -0.059979 0.340588 30 159 136
0.014842 0.287231 -0.243919 66 61 132
-0.221036 -0.051290 -0.214530 71 21 103
0.192711 -0.064252 -0.222690 68 1 84
-0.419229 0.044457 -0.153479 71 17 99
-0.069882 -0.290462 -0.283049 68 1 84
0.435705 -0.091680 -0.144142 71 22 105
-0.160585 -0.020853 -0.280835 72 35 116
0.567439 0.239171 0.246009 51 96 141
0.633609 -0.345371 0.137350 31 148 139
-0.627545 -0.384515 0.177286 33 167 132
-0.287967 -0.516802 -0.222969 68 1 84
0.640555 -0.153982 0.278670 47 179 123
0.404163 0.406272 0.020360 72 33 114
-0.462685 0.088251 -0.106464 71 39 119
-0.215648 -0.104354 -0.214385 71 21 103
-0.589621 -0.017332 0.554952 75 194 108
-0.607349 -0.057285 0.171624 36 133 141
-0.415788 0.038598 -0.156267 69 6 90
0.583212 -0.009235 0.070757 49 100 141
-0.677277 -0.579865 0.421308 50 181 122
0.191733 -0.550805 -0.285653 68 1 84
-0.147938 -0.072652 -0.262776 68 1 84
0.607943 -0.072041 0.139208 38 129 142
-0.563626 0.162144 0.168415 48 103 141
-0.170017 -0.017549 -0.230826 71 40 120
-0.591143 0.033512 0.215427 42 119 142
-0.490023 -0.548443 -0.104742 71 37 117
0.669077 -0.344418 0.281163 37 171 129
-0.208393 0.077223 -0.189146 72 35 116
0.176554 0.444508 -0.156435 69 8 91
0.665361 -0.300533 0.344387 116 208 84
0.610796 -0.226732 0.084713 42 117 142
-0.000243 -0.209786 -0.361564 68 1 84
0.370442 -0.123776 -0.165972 68 1 84
-0.230441 0.064727 -0.186906 71 43 122
-0.606938 -0.028702 0.362329 33 167 132
-0.625078 -0.313633 0.148235 69 191 111
0.494421 -0.009277 -0.096953 63 71 136
0.024385 0.083738 -0.408610 60 78 138
0.548115 0.132233 0.046858 61 75 137
-0.509754 -0.458772 -0.076549 54 90 140
-0.468177 0.366480 0.130886 61 74 137
0.371938 -0.256786 -0.133798 68 1 84
-0.155032 0.069351 -0.199219 70 47 124
0.161926 0.506302 -0.170247 72 25 107
0.003012 -0.081998 -0.430641 68 1 84
0.028548 0.455044 -0.187176 68 1 84
0.550933 -0.532570 -0.000512 71 43 122
-0.230638 0.044230 -0.187945 71 22 105
-0.360173 0.424536 0.018915 60 78 138
0.665859 -0.346148 0.377567 103 204 92
-0.393877 0.435858 0.085411 61 75 137
-0.499222 -0.245910 -0.054435 55 88 140
-0.478379 -0.037386 -0.111293 66 64 133
-0.659563 -0.351810 0.459701 181 221 43
0.146029 -0.112507 -0.232068 68 1 84
-0.638144 -0.255734 0.193582 59 186 117
0.345370 -0.456993 -0.216730 68 1 84
-0.306136 0.558031 0.193676 49 102 141
0.362516 0.430387 -0.014922 71 17 99
-0.504944 -0.171014 -0.074486 52 94 141
0.430180 -0.318917 -0.083023 68 2 85
0.311426 0.293391 -0.133643 59 80 138
-0.135881 -0.474941 -0.262834 68 1 84
-0.625774 -0.130797 0.469869 194 223 34
0.595048 0.079140 0.244411 43 116 142
-0.406629 0.001112 -0.163983 68 1 84
-0.226846 -0.484297 -0.224112 68 1 84
0.404939 0.160557 -0.140375 71 43 122
-0.562958 -0.375109 0.037616 43 116 142
0.661820 -0.338030 0.462063 47 179 123
-0.515905 -0.008522 -0.068499 58 83 139
0.658481 -0.246904 0.327304 75 194 108
0.343106 0.230614 -0.137483 71 42 121
-0.095828 0.586497 -0.181827 68 57 130
-0.567262 0.147938 0.417335 35 169 130
-0.273714 0.526914 -0.009874 69 53 128
-0.035104 0.332947 -0.233393 52 95 141
-0.091700 -0.198395 -0.315876 68 1 84
-0.561860 -0.450450 0.022812 50 99 141
-0.257520 -0.138525 -0.188814 68 1 84
0.428705 0.168481 -0.118678 70 48 125
0.340935 -0.133454 -0.169588 68 1 84
0.470921 -0.335420 -0.061780 67 58 131
-0.541312 -0.067182 -0.040766 48 103 141
0.032030 -0.151378 -0.364119 68 1 84
0.573249 -0.498089 0.045838 53 92 140
-0.573545 0.139117 0.202508 50 99 141
0.653130 -0.218573 0.351061 89 199 100
0.112186 -0.006898 -0.338208 68 1 84
-0.418652 -0.505569 -0.169010 68 1 84
-0.469340 0.362494 0.127408 58 82 139
0.081993 0.090312 -0.235031 70 48 125
0.030172 -0.095838 -0.405407 68 1 84
0.193319 -0.401470 -0.215195 68 1 84
-0.185497 0.608323 -0.074603 71 37 117
-0.144935 -0.014602 -0.337144 68 1 84
0.610788 -0.151716 0.098265 34 137 141
-0.675384 -0.556519 0.402967 136 213 71
0.557997 0.128574 0.071916 62 72 136
0.051419 -0.295861 -0.241496 68 1 84
-0.406399 0.475971 0.278636 41 120 142
0.266636 0.009748 -0.217671 49 101 141
0.077570 -0.213826 -0.259430 68 1 84
0.648489 -0.454290 0.267964 38 172 129
-0.551031 0.127974 0.506285 53 183 120
-0.041981 0.002271 -0.476479 68 1 84
-0.605155 -0.066894 0.537123 73 193 109
0.447108 0.405958 0.092299 67 60 132
0.578598 -0.148157 0.013444 38 127 142
-0.045640 -0.266347 -0.326779 68 1 84
0.269570 -0.211843 -0.158296 68 1 84
-0.467207 0.293564 0.043248 48 104 141
-0.637722 -0.498103 0.269648 85 198 102
0.642843 -0.172276 0.489465 50 181 122
-0.156655 0.504648 -0.162072 68 1 84
0.592476 -0.472906 0.083563 46 108 142
0.586915 0.101336 0.192216 50 99 141
-0.456400 -0.224546 -0.089391 64 67 135
-0.542630 0.136917 0.524693 44 177 125
-0.284907 0.188207 -0.172015 57 85 139
-0.463938 0.033569 -0.120240 70 47 124
-0.422338 0.451866 0.325524 36 134 141
-0.160560 0.370483 -0.166968 68 1 84
-0.508425 0.294879 0.126189 49 100 141
0.669176 -0.403000 0.358378 51 182 121
-0.267513 0.367669 -0.106960 69 52 127
-0.313624 0.552295 0.167682 47 105 141
0.126817 -0.249442 -0.174384 68 1 84
0.106429 -0.446918 -0.243676 68 1 84
0.495952 -0.329600 -0.040966 65 66 134
0.537724 -0.131147 -0.051806 64 68 135
-0.504816 0.169007 -0.005042 40 122 142
0.157067 0.220927 -0.205824 64 68 135
-0.291244 -0.286097 -0.163815 68 1 84
-0.240088 -0.386721 -0.181608 68 1 84
-0.188602 0.419738 -0.142127 68 1 84
0.576298 0.196744 0.221940 51 97 141
0.189633 -0.353894 -0.167451 68 1 84
-0.642623 -0.189659 0.292511 121 209 81
-0.512145 0.328971 0.359480 35 135 141
0.132207 0.035052 -0.267234 70 9 92
-0.104618 -0.231933 -0.260084 68 1 84
0.643449 -0.465417 0.253661 30 156 137
-0.113477 -0.500759 -0.279567 68 1 84
0.628181 -0.444241 0.178210 37 131 141
0.109430 0.107452 -0.222248 72 33 114
-0.567806 -0.258760 0.026186 36 134 141
0.403372 0.141833 -0.150064 70 45 124
0.582756 -0.041100 0.050767 43 116 142
-0.008110 -0.214790 -0.361569 68 1 84
0.356993 0.331766 -0.086524 70 45 124
-0.226000 0.452609 -0.105884 68 1 84
0.551197 0.281326 0.360305 46 108 142
-0.563645 0.140622 0.146891 46 107 142
-0.114822 -0.266682 -0.201230 68 1 84
0.061243 0.090041 -0.261963 66 62 133
0.649957 -0.219412 0.475928 66 190 113
-0.091910 0.327247 -0.221683 66 64 133
-0.116157 -0.264079 -0.201054 68 1 84
-0.662273 -0.300479 0.325038 173 220 48
-0.107511 -0.243494 -0.241970 68 1 84
0.674863 -0.474832 0.350587 73 193 109
0.595792 -0.039282 0.104799 45 111 142
-0.150611 0.364572 -0.173356 68 1 84
0.568594 -0.470455 0.032100 53 92 140
-0.050780 0.515329 -0.196329 68 1 84
-0.465966 0.016709 -0.121303 71 40 120
-0.113522 -0.043010 -0.402535 68 1 84
0.096855 0.522354 -0.193066 71 20 102
0.061847 -0.009408 -0.436460 68 1 84
0.490873 -0.028813 -0.102625 60 78 138
0.360757 0.384015 -0.053434 70 9 92
-0.262751 0.448985 -0.072572 71 18 101
0.254377 0.568200 -0.023221 71 42 121
0.618066 -0.353481 0.103481 34 139 141
0.166961 -0.106538 -0.223671 68 1 84
0.014950 0.093117 -0.315507 65 66 134
-0.099689 0.285359 -0.222300 58 82 139
0.344564 0.332364 -0.096339 68 3 87
-0.679606 -0.558372 0.454197 124 210 79
0.349239 0.365647 -0.075720 71 18 101
-0.127726 0.108176 -0.216095 69 50 127
0.474335 -0.405147 -0.109988 72 30 112
0.604175 0.049317 0.443908 38 129 142
-0.032432 0.517074 -0.198748 70 11 94
-0.149920 0.642801 -0.038309 72 34 115
-0.181076 -0.517704 -0.274402 68 1 84
0.595746 0.108663 0.344123 34 138 141
0.589478 -0.395806 0.062124 41 121 142
-0.162535 0.612565 -0.111706 72 25 107
0.077711 -0.179235 -0.281492 68 1 84
-0.605081 -0.555700 0.135170 31 150 139
-0.528732 0.274356 0.408468 36 133 141
-0.044496 0.044260 -0.473104 70 45 124
-0.571665 0.083543 0.474603 48 180 122
-0.494315 -0.223107 -0.067013 60 77 138
0.650819 -0.208683 0.340604 79 195 105
0.610707 -0.003762 0.513881 36 132 141
-0.500312 0.168312 -0.013758 44 114 142
0.243047 0.585885 0.013570 70 45 124
0.315647 -0.203925 -0.149286 68 1 84
0.583572 0.079126 0.151673 49 102 141
-0.121754 0.024080 -0.415871 71 38 118
-0.351904 -0.480190 -0.192112 68 1 84
-0.664081 -0.347975 0.386226 223 227 24
0.093642 0.301540 -0.223861 71 42 121
0.265412 -0.203417 -0.159585 68 1 84
-0.435879 -0.321373 -0.074489 66 61 132
0.165477 0.237551 -0.185319 70 49 126
-0.606407 -0.076188 0.131084 36 133 141
-0.412013 0.130899 -0.134185 71 20 102
0.653677 -0.327663 0.208794 33 141 140
0.608517 0.018818 0.468446 31 162 134
0.178284 -0.029556 -0.215493 68 1 84
-0.593509 0.051493 0.302133 32 145 140
-0.572061 0.180316 0.281679 30 153 138
0.079482 0.637917 -0.156665 54 90 140
-0.196249 0.474765 -0.130634 68 1 84
0.121354 0.007307 -0.326796 68 2 85
0.418333 0.477363 0.191707 56 86 139
-0.047154 -0.260543 -0.329878 68 1 84
0.598024 0.090251 0.361201 40 123 142
0.434589 0.388849 0.049541 70 45 124
-0.037211 -0.165944 -0.385235 68 1 84
0.610672 -0.398797 0.102010 30 156 137
-0.488747 0.327866 0.121479 56 86 139
0.666991 -0.367480 0.286978 59 186 117
0.618155 -0.021788 0.373512 31 163 134
0.055113 0.059171 -0.414483 71 18 101
0.589293 0.133547 0.385082 42 119 142
0.582544 0.164895 0.223432 52 94 141
0.272288 0.091401 -0.195625 71 43 122
-0.221079 -0.503458 -0.251046 68 1 84
0.178038 0.414433 -0.157021 68 1 84
0.514786 0.304280 0.109785 61 76 137
0.459112 -0.121204 -0.124711 71 22 105
0.152249 -0.476724 -0.259927 68 1 84
0.448318 0.298318 -0.010256 68 55 129
-0.670165 -0.414535 0.456441 186 222 39
0.298561 -0.011096 -0.217144 68 55 129
-0.640772 -0.204982 0.237726 103 204 92
-0.022649 0.492307 -0.195311 70 9 92
0.523064 0.347922 0.261404 46 107 142
0.685682 -0.496716 0.392937 91 200 98
0.472885 0.050718 -0.114654 66 61 132
-0.116028 -0.216107 -0.250238 68 1 84
0.562016 0.107659 0.071687 45 111 142
-0.099338 -0.352688 -0.203253 68 1 84
-0.320659 0.545466 0.151524 45 110 142
-0.029076 0.284995 -0.243779 69 52 127
-0.098630 0.153866 -0.244076 56 87 140
-0.025054 0.676528 -0.091669 48 104 141
0.413648 0.377973 0.008071 71 40 120
0.408903 -0.371145 -0.132455 68 1 84
0.230696 0.559263 -0.088295 66 64 133
-0.638212 -0.198914 0.450355 218 226 24
-0.502295 0.256409 0.525443 31 150 139
-0.231468 -0.311481 -0.161639 68 1 84
0.558093 -0.206221 -0.013990 48 104 141
-0.265901 0.578678 0.105591 55 88 140
-0.032590 -0.263205 -0.333509 68 1 84
0.308671 0.552953 0.111331 72 30 112
-0.556366 -0.552659 0.006768 52 95 141
0.098140 -0.512494 -0.289976 68 1 84
0.041462 0.530908 -0.200394 71 24 106
-0.669134 -0.505033 0.368981 121 209 81
0.283933 -0.423989 -0.243527 69 52 127
0.266353 -0.417654 -0.250689 56 86 139
0.139128 0.019201 -0.256372 70 12 95
0.671098 -0.504166 0.319372 64 189 114
-0.123373 -0.429341 -0.228700 68 1 84
-0.577693 0.086004 0.167769 46 107 142
0.610795 -0.052546 0.185745 32 143 140
0.393202 0.391674 -0.008283 70 47 124
0.065958 -0.385262 -0.222303 68 1 84
-0.549551 0.198402 0.142560 44 112 142
-0.577539 0.028158 0.092410 42 118 142
-0.486585 0.352242 0.154992 54 91 140
0.345268 0.387947 -0.065583 71 20 102
0.069108 0.203225 -0.260860 58 82 139
0.564509 0.221645 0.176020 53 92 140
-0.593309 0.044267 0.270830 40 123 142
0.513789 -0.190259 -0.069108 69 52 127
-0.186913 0.341372 -0.159182 68 1 84
-0.671858 -0.540092 0.381599 136 213 71
0.186613 0.399204 -0.155736 68 1 84
0.216704 -0.478542 -0.240503 68 1 84
0.354328 -0.153006 -0.157334 68 1 84
0.140354 0.609767 -0.153822 51 97 141
0.327193 0.449011 -0.042242 72 34 115
-0.572703 -0.341309 0.050431 37 130 142
0.236785 0.247353 -0.169833 64 67 135
0.577011 0.092234 0.120475 54 91 140
-0.537030 -0.117519 -0.048896 41 121 142
-0.288619 -0.131302 -0.182303 68 1 84
0.547361 -0.465268 -0.012697 54 91 140
-0.552858 -0.047563 -0.019197 43 116 142
-0.350860 0.184368 -0.145815 72 32 113
-0.614757 -0.497078 0.177754 37 171 129
-0.664074 -0.314641 0.324595 191 223 36
0.570806 0.203040 0.423762 45 110 142
-0.541894 0.206961 0.123036 52 95 141
0.100465 -0.030790 -0.338928 68 1 84
-0.567636 0.143507 0.420705 41 175 127
-0.507917 0.080233 -0.053276 56 87 140
0.039147 0.247686 -0.238912 71 37 117
0.610466 -0.441745 0.117043 44 114 142
-0.380118 0.010693 -0.178268 68 1 84
-0.533651 -0.103880 -0.053157 53 93 140
0.495094 0.244810 0.014012 67 60 132
-0.325352 -0.129134 -0.171184 71 37 117
-0.082883 0.468923 -0.182294 68 1 84
0.278043 0.567474 0.065566 72 35 116
0.496696 -0.399892 -0.079300 67 60 132
0.275204 0.143355 -0.184520 69 50 127
-0.358269 -0.381377 -0.169787 68 1 84
0.247346 -0.437577 -0.234997 72 35 116
-0.182592 0.195872 -0.203314 65 65 134
0.649413 -0.304094 0.188949 33 141 140
-0.172127 0.121746 -0.203262 62 73 137
0.625080 -0.062062 0.361461 31 163 134
0.057863 0.110294 -0.255462 69 54 129
-0.354983 0.446731 0.036728 61 75 137
0.343090 0.521612 0.086412 71 17 99
-0.599475 -0.083891 0.090430 34 137 141
-0.614950 -0.381077 0.134607 31 162 134
-0.473235 0.210370 -0.024467 61 75 137
-0.087618 -0.375541 -0.235302 68 1 84
0.095471 0.061435 -0.261924 71 39 119
-0.143024 0.603332 -0.144507 72 32 113
-0.331845 0.412055 -0.028522 61 76 137
0.071946 0.540209 -0.198409 71 42 121
0.668952 -0.390210 0.365854 59 186 117
-0.355930 -0.441581 -0.186849 68 1 84
0.493567 0.393053 0.343090 41 120 142
-0.569717 -0.247038 0.025698 32 145 140
-0.227289 0.586024 -0.011926 59 80 138
-0.499772 0.081515 -0.065577 59 80 138
0.249404 -0.484447 -0.238480 68 1 84
0.288132 0.237975 -0.163275 55 88 140
0.659622 -0.279260 0.401817 81 196 104
0.655564 -0.248034 0.442297 89 199 100
-0.234349 -0.254301 -0.160111 68 1 84
-0.435983 0.381599 0.087667 64 68 135
0.231670 -0.207072 -0.164037 68 1 84
0.348017 -0.405299 -0.205115 71 37 117
-0.112084 -0.055181 -0.393628 68 1 84
0.270073 -0.011937 -0.220390 59 80 138
-0.538316 -0.146440 -0.044888 44 113 142
0.119842 -0.083174 -0.256153 68 1 84
-0.604340 -0.295771 0.095294 31 163 134
0.274740 0.313323 -0.139098 69 54 129
-0.093328 0.091175 -0.241508 64 68 135
0.440095 0.460023 0.253460 55 89 140
-0.392470 0.232329 -0.094046 66 64 133
0.044376 0.059367 -0.328624 72 26 108
-0.011295 -0.319309 -0.296662 68 1 84
-0.668149 -0.411565 0.507785 129 211 76
0.553671 0.245298 0.158479 57 84 139
0.311635 0.539323 0.054396 68 55 129
-0.004514 -0.104953 -0.418794 68 1 84
0.186673 0.420501 -0.152606 68 1 84
0.597702 0.093522 0.301181 36 134 141
-0.401454 0.019777 -0.166285 68 1 84
0.234421 0.186336 -0.188321 67 58 131
-0.079102 0.007077 -0.462558 68 1 84
-0.494350 0.309729 0.469353 39 124 142
0.562345 0.179740 0.123427 56 87 140
-0.163112 0.634698 -0.046371 72 25 107
-0.053139 -0.050309 -0.447336 68 1 84
-0.662451 -0.343794 0.401001 228 227 24
0.472199 -0.178967 -0.103675 71 22 105
0.463385 -0.103161 -0.123634 68 55 129
0.688368 -0.564427 0.390914 32 145 140
-0.221661 0.396658 -0.126092 68 1 84
-0.177262 -0.527741 -0.276761 68 1 84
-0.622750 -0.482238 0.220880 35 168 131
0.486493 0.190166 -0.039899 66 64 133
-0.587798 0.080664 0.267162 37 130 142
0.432689 0.412754 0.074217 71 37 117
-0.474021 0.324397 0.087076 60 78 138
0.491197 0.031260 -0.094609 58 82 139
-0.530136 0.297254 0.221686 38 129 142
-0.320749 0.479691 0.019123 68 57 130
0.191452 0.131659 -0.198932 65 65 134
0.527076 -0.488100 -0.056360 71 42 121
-0.415868 -0.375150 -0.114005 72 30 112
0.638500 -0.315323 0.147820 31 149 139
-0.132473 -0.233982 -0.201866 68 1 84
-0.099340 -0.195868 -0.301264 68 1 84
-0.292331 -0.537305 -0.232974 68 1 84
0.463372 -0.319220 -0.062020 69 54 129
0.620381 -0.126188 0.157749 30 160 135
0.380075 -0.147424 -0.153366 68 1 84
-0.678889 -0.511243 0.437215 233 228 25
0.305121 -0.390065 -0.231190 57 85 139
0.621257 -0.373068 0.115624 30 156 137
0.247626 -0.265921 -0.173024 68 2 85
-0.239320 0.128443 -0.186708 71 39 119
0.549161 -0.439958 -0.009476 66 64 133
-0.517729 0.134503 -0.005417 42 119 142
-0.126460 0.049909 -0.379984 61 75 137
-0.118899 -0.059166 -0.374325 68 1 84
-0.363032 0.517281 0.240017 46 109 142
-0.208977 -0.428262 -0.191535 68 1 84
-0.508914 0.283842 0.463484 32 143 140
0.521459 -0.038025 -0.065142 61 75 137
-0.429458 0.194036 -0.086820 66 64 133
-0.571859 0.001072 0.043938 43 116 142
-0.096507 0.649094 -0.128799 55 88 140
-0.120197 0.484724 -0.175947 68 1 84
-0.369079 0.095448 -0.169174 72 30 112
-0.091785 0.060342 -0.426219 68 57 130
0.004477 0.234491 -0.256252 67 59 131
0.206337 0.572879 -0.113584 61 75 137
0.532938 0.253554 0.101971 58 82 139
0.481326 0.280127 0.021477 63 69 135
0.336655 0.388928 -0.072258 68 3 87
0.596652 0.002720 0.163301 47 106 141
0.475367 -0.486736 -0.134072 68 1 84
-0.334114 -0.316404 -0.149009 68 1 84
0.386530 0.011705 -0.188295 66 64 133
-0.654814 -0.478775 0.299959 119 208 82
-0.677984 -0.562345 0.425462 109 206 88
0.571039 0.213563 0.385275 49 102 141
0.539946 -0.167425 -0.046400 66 62 133
0.167543 -0.013610 -0.211091 68 2 85
-0.097739 0.666448 -0.075804 58 82 139
0.141053 -0.026789 -0.242723 71 21 103
-0.564080 0.175978 0.189252 47 106 141
-0.508085 0.277693 0.105987 56 87 140
-0.082151 0.669906 -0.085739 46 107 142
0.242076 0.568412 -0.056073 70 48 125
0.585513 0.170689 0.274594 48 104 141
0.076653 0.117006 -0.240444 71 39 119
0.569425 0.176671 0.150460 49 102 141
0.173269 0.327886 -0.174607 70 48 125
-0.406510 0.387436 0.046025 53 93 140
-0.031658 0.299485 -0.247505 63 71 136
-0.582478 0.044734 0.145696 48 103 141
-0.655411 -0.408108 0.299078 165 218 53
0.611138 -0.420931 0.110790 37 131 141
-0.236703 -0.306650 -0.163410 68 1 84
-0.090715 0.173238 -0.254881 62 72 136
-0.190077 0.597697 -0.083442 69 52 127
-0.586142 -0.038756 0.065186 36 134 141
0.000576 -0.356274 -0.275475 68 1 84
0.521655 0.212515 0.039150 66 62 133
0.112417 -0.042542 -0.300283 68 1 84
0.563792 0.014538 0.026647 54 91 140
-0.309210 0.539252 0.093535 50 98 141
-0.007117 -0.505649 -0.288918 68 1 84
-0.557250 -0.498405 0.008779 40 122 142
-0.602490 -0.040072 0.158860 41 120 142
0.089322 0.570852 -0.190915 71 40 120
0.188446 0.407149 -0.153740 68 1 84
-0.296939 0.062426 -0.190607 68 1 84
-0.596809 -0.003704 0.192021 44 114 142
0.538547 0.293801 0.173938 55 89 140
0.479240 -0.287931 -0.057629 67 59 131
-0.597127 -0.394815 0.095559 31 147 139
0.636325 -0.121456 0.384742 39 173 128
-0.180159 0.143030 -0.203954 69 50 127
0.007128 0.093762 -0.379870 48 104 141
0.643112 -0.149583 0.444867 105 204 91
0.616052 -0.020131 0.484950 33 166 133
-0.593075 -0.537739 0.100793 37 130 142
-0.556668 -0.060847 -0.015166 44 113 142
0.431920 0.428688 0.095339 72 34 115
-0.558510 0.201806 0.192396 45 111 142
0.477345 0.415218 0.323944 49 102 141
0.335099 -0.560837 -0.231221 68 1 84
0.665821 -0.368993 0.277597 48 180 122
0.655354 -0.220354 0.402389 134 212 73
-0.463740 0.401073 0.187911 54 90 140
-0.012671 -0.099675 -0.424540 68 1 84
-0.482234 0.022898 -0.104306 72 33 114
0.434490 0.323440 -0.008324 71 39 119
-0.585295 0.001984 0.100527 41 120 142
0.200867 0.609776 -0.063908 65 65 134
-0.462542 0.414858 0.268905 42 119 142
0.490021 0.400026 0.328021 52 94 141
0.424033 -0.311123 -0.088313 69 8 91
-0.160368 -0.289509 -0.157080 68 1 84
-0.547531 0.222384 0.164439 55 88 140
-0.237251 0.170379 -0.187631 66 61 132
0.051052 0.319226 -0.240206 59 80 138
-0.125347 0.243740 -0.199566 63 69 135
-0.099964 0.417940 -0.175947 68 1 84
-0.619654 -0.204034 0.134240 56 185 118
0.060284 -0.337038 -0.214611 68 1 84
-0.088461 0.224498 -0.247060 58 82 139
-0.536913 0.268261 0.383649 30 158 136
-0.095190 -0.216665 -0.294786 68 1 84
0.345390 0.508567 0.059678 71 21 103
0.579075 0.183785 0.380753 46 107 142
-0.242450 -0.373183 -0.168632 68 1 84
-0.294056 0.076720 -0.187167 70 9 92
-0.374352 0.224136 -0.112563 60 77 138
0.690217 -0.586391 0.423962 44 112 142
0.495868 0.389099 0.234495 55 89 140
-0.492180 0.361156 0.195640 49 102 141
0.643480 -0.290382 0.166113 31 148 139
0.492992 0.386528 0.376732 53 92 140
-0.582635 0.026154 0.119763 43 115 142
-0.416029 -0.298317 -0.099339 72 25 107
-0.569804 -0.034476 0.020633 35 137 141
0.304679 -0.268967 -0.167413 71 42 121
0.687221 -0.535802 0.382532 50 181 122
-0.645954 -0.302720 0.486314 139 213 70
0.277207 0.305734 -0.141192 66 64 133
0.586226 0.131345 0.213724 48 104 141
0.444323 0.387175 0.063948 64 68 135
-0.454060 0.133850 -0.096602 68 55 129
-0.450550 0.167323 -0.082316 70 49 126
-0.391742 -0.316531 -0.119122 71 20 102
-0.094598 0.067603 -0.405783 50 98 141
0.045905 0.087727 -0.281763 68 57 130
0.057225 0.358387 -0.211239 69 53 128
0.440715 0.456105 0.307622 57 84 139
-0.003713 0.123213 -0.265196 54 91 140
0.003193 0.665179 -0.126658 46 108 142
0.625004 -0.142407 0.170310 33 140 141
0.566964 0.191294 0.152125 62 73 137
-0.530723 0.222827 0.104929 49 101 141
-0.529148 0.308842 0.288366 38 128 142
0.099236 -0.045037 -0.321852 68 1 84
0.053684 0.680250 -0.077325 52 94 141
-0.165364 -0.177247 -0.211009 68 1 84
-0.130924 0.055675 -0.215625 71 42 121
-0.445025 0.317057 0.031310 58 83 139
0.577181 0.176917 0.197573 54 90 140
-0.169759 -0.254757 -0.162156 68 1 84
0.405371 -0.275878 -0.112428 67 59 131
0.188966 0.547400 -0.149683 72 29 111
0.591688 -0.471207 0.081417 46 109 142
0.597930 0.094481 0.319028 33 142 140
0.324170 0.280341 -0.131489 65 65 134
0.368596 -0.247689 -0.134947 68 1 84
-0.569714 -0.421072 0.043036 42 118 142
0.060644 -0.226832 -0.280689 68 1 84
0.590466 0.138778 0.353149 40 122 142
0.629510 -0.237989 0.132653 33 140 141
0.020250 -0.391145 -0.263125 68 1 84
0.188800 -0.262029 -0.165075 68 1 84
0.002451 0.075055 -0.446186 59 81 138
0.266347 -0.073941 -0.212946 68 1 84
-0.128611 -0.130584 -0.279129 68 1 84
-0.556426 0.232306 0.343175 35 135 141
0.398171 0.498147 0.231261 65 65 134
-0.643720 -0.316541 0.218758 51 182 121
-0.136643 0.407568 -0.168531 68 1 84
-0.558162 0.108824 0.499920 33 166 133
-0.630126 -0.158242 0.476725 197 223 33
-0.449008 0.380048 0.110164 61 75 137
-0.506283 0.348256 0.232126 43 116 142
-0.538786 -0.498367 -0.033425 58 83 139
0.019821 0.230648 -0.258864 64 68 135
0.625933 -0.434553 0.160500 40 122 142
0.314138 0.120843 -0.187970 58 82 139
0.296600 0.553132 0.060496 72 30 112
0.472509 0.424419 0.294750 44 112 142
0.609920 0.016551 0.341958 40 122 142
-0.611177 -0.049281 0.313079 34 139 141
-0.451302 -0.223547 -0.092405 61 75 137
-0.237222 -0.409245 -0.193932 68 1 84
0.562378 0.043673 0.035871 53 92 140
0.184592 -0.049838 -0.221365 68 1 84
-0.441712 -0.455289 -0.140128 72 26 108
-0.125861 0.445546 -0.168788 68 1 84
-0.562081 0.192842 0.200987 44 112 142
-0.176638 -0.501978 -0.272395 68 1 84
-0.050114 -0.303199 -0.296705 68 1 84
0.617827 -0.411120 0.123219 36 132 141
0.562045 0.242154 0.199999 52 94 141
0.209060 -0.130078 -0.204369 68 1 84
-0.542977 0.105495 0.032718 45 110 142
-0.621017 -0.096569 0.383144 157 217 58
0.329113 -0.530795 -0.233447 68 1 84
-0.583833 0.094070 0.378295 30 159 136
0.190266 0.147263 -0.200732 63 69 135
0.284237 0.369717 -0.114225 71 15 98
0.529050 0.322358 0.415360 51 96 141
0.573144 0.224889 0.277607 47 105 141
-0.500479 -0.398366 -0.055037 51 97 141
0.397815 0.456802 0.070921 69 52 127
-0.652960 -0.319125 0.460458 186 222 39
-0.145784 0.052381 -0.201463 71 37 117
0.375151 0.477639 0.061836 69 50 127
0.522035 0.020299 -0.051710 60 78 138
-0.251885 -0.376709 -0.171803 68 1 84
0.623672 -0.054052 0.361492 32 165 133
-0.512849 0.323149 0.192463 45 111 142
0.131768 0.310423 -0.198604 72 28 110
-0.608636 -0.284981 0.102247 39 173 128
-0.085228 -0.244370 -0.293180 68 1 84
0.517700 0.355945 0.331210 47 105 141
0.545280 -0.494493 -0.014716 67 60 132
-0.598055 0.010829 0.254278 36 132 141
0.546009 0.297631 0.343329 55 88 140
0.588455 0.085610 0.189990 53 92 140
0.601887 0.064731 0.368538 35 136 141
0.358496 -0.274551 -0.143838 68 1 84
-0.143815 -0.169145 -0.236991 68 1 84
-0.277383 -0.173938 -0.161159 71 15 98
-0.003684 -0.502915 -0.288820 68 1 84
-0.601758 -0.173332 0.080140 30 153 138
0.103668 0.033294 -0.363682 70 9 92
0.129715 0.562140 -0.180440 71 37 117
-0.532541 -0.372596 -0.001908 42 119 142
-0.493076 -0.400700 -0.065452 57 84 139
0.641828 -0.161177 0.320809 30 152 138
0.583352 -0.296220 0.040598 49 100 141
-0.611861 -0.499467 0.163433 59 186 117
-0.488293 -0.517407 -0.109366 70 47 124
0.050005 0.667966 -0.119166 48 104 141
0.660430 -0.348058 0.239154 30 158 136
-0.450115 -0.342040 -0.065003 68 57 130
0.570449 0.144413 0.505902 46 107 142
0.545117 0.118262 0.031150 52 94 141
0.616448 -0.391632 0.111931 30 154 137
0.129393 0.161970 -0.224752 58 82 139
0.624953 -0.068770 0.499792 37 171 129
-0.055141 -0.423325 -0.266697 68 1 84
-0.214578 0.486721 -0.108969 68 1 84
-0.614792 -0.361549 0.129092 34 167 132
-0.025786 0.208189 -0.270383 61 74 137
0.664341 -0.290260 0.343108 146 215 65
0.618619 -0.048350 0.298897 32 165 133
-0.604630 -0.180330 0.088597 30 153 138
0.487965 -0.362185 -0.064854 70 49 126
-0.511738 -0.321216 -0.014384 51 96 141
-0.414236 0.428007 0.110807 60 78 138
0.607546 -0.497600 0.135892 48 103 141
0.483481 -0.410145 -0.102470 71 43 122
0.496053 0.327222 0.091755 57 85 139
0.078272 0.234029 -0.236928 69 53 128
0.344081 0.470062 -0.001797 72 35 116
0.049894 -0.168187 -0.330354 68 1 84
-0.191721 -0.192828 -0.183175 68 1 84
-0.558661 0.231080 0.316390 34 137 141
-0.273429 0.200704 -0.173686 58 83 139
0.337342 -0.310322 -0.156505 68 1 84
0.209907 -0.154952 -0.190763 68 1 84
0.628823 -0.140135 0.199088 32 143 140
0.147951 0.112735 -0.208806 71 18 101
-0.678847 -0.571096 0.446340 89 199 100
0.123353 0.319542 -0.204471 71 43 122
0.321440 -0.077284 -0.198126 72 32 113
-0.161817 -0.408649 -0.187985 68 1 84
0.600955 0.054974 0.283037 39 126 142
0.560053 -0.259403 0.003312 48 104 141
0.610766 -0.233032 0.084262 40 122 142
-0.156230 0.000339 -0.311859 69 52 127
-0.094264 -0.121714 -0.359631 68 1 84
0.484674 0.296239 0.040465 63 69 135
-0.172686 0.472825 -0.150680 68 1 84
-0.647531 -0.272362 0.414956 210 225 27
-0.464727 0.146425 -0.078506 70 49 126
0.635414 -0.174937 0.194967 30 159 136
0.464533 -0.213856 -0.097352 72 34 115
-0.169551 -0.484695 -0.260554 68 1 84
0.185512 -0.321368 -0.157098 68 1 84
-0.388991 0.387885 0.020877 46 107 142
-0.608980 -0.095975 0.128830 31 148 139
0.415267 0.078783 -0.162354 64 67 135
-0.037944 -0.182643 -0.376927 68 1 84
-0.610265 -0.294204 0.107029 35 169 130
-0.306054 0.469127 -0.013332 64 67 135
0.453127 0.275473 -0.022100 66 64 133
-0.133669 -0.480923 -0.267439 68 1 84
-0.506051 -0.462308 -0.082715 56 86 139
-0.454333 0.422421 0.221533 43 115 142
-0.561479 0.223644 0.299561 30 158 136
-0.292994 -0.122704 -0.185330 69 8 91
0.099305 0.502951 -0.189892 68 1 84
0.109228 0.162154 -0.235560 68 55 129
0.363824 0.465875 0.024859 71 39 119
-0.545411 0.121805 0.530551 54 184 119
-0.368614 -0.176143 -0.134166 68 1 84
-0.611056 -0.049037 0.269275 39 126 142
0.663245 -0.294340 0.365365 131 211 75
-0.319265 -0.328107 -0.148432 68 1 84
-0.028275 0.099063 -0.368613 46 107 142
0.371237 -0.263025 -0.134952 68 1 84
-0.598996 0.013927 0.320822 45 111 142
-0.628696 -0.347929 0.167459 46 178 124
-0.461843 0.351279 0.095823 61 74 137
0.343596 0.467573 -0.005322 72 35 116
-0.164242 0.272697 -0.167492 71 22 105
-0.098413 -0.211857 -0.291218 68 1 84
-0.491660 0.371240 0.316023 35 137 141
-0.216985 0.532941 -0.092566 68 1 84
-0.041218 0.196774 -0.268616 60 77 138
0.044497 -0.361129 -0.243347 68 1 84
-0.554438 -0.076454 -0.021323 47 106 141
0.329032 0.541552 0.131007 70 45 124
-0.077857 0.260092 -0.223658 60 78 138
0.501548 0.141893 -0.043991 69 52 127
0.596481 0.062477 0.476310 32 143 140
-0.452006 0.238627 -0.029526 56 86 139
0.245153 -0.243531 -0.165663 72 28 110
-0.268067 -0.259781 -0.160193 68 1 84
0.086734 -0.396814 -0.207755 68 1 84
-0.620744 -0.119388 0.503894 223 227 24
-0.570729 0.100100 0.141452 46 107 142
0.113093 -0.247116 -0.186111 68 1 84
-0.212839 0.461892 -0.116907 68 1 84
0.552597 0.160805 0.078875 62 72 136
-0.465410 0.399016 0.351931 43 116 142
-0.351776 -0.129631 -0.160549 67 58 131
-0.116638 0.641283 -0.125697 69 54 129
0.458750 -0.464018 -0.150592 68 1 84
0.214164 -0.143646 -0.195309 68 1 84
-0.007865 0.627411 -0.166914 46 108 142
-0.182856 0.619490 -0.047490 72 28 110
0.587585 0.095217 0.191362 49 100 141
0.595358 -0.078973 0.072619 44 114 142
0.134969 0.441087 -0.170457 69 8 91
-0.621704 -0.105636 0.449377 197 223 33
0.516637 -0.089563 -0.076034 70 45 124
0.644953 -0.168271 0.395774 87 198 101
-0.391142 0.147581 -0.140693 72 29 111
0.651123 -0.261750 0.203322 34 139 141
-0.198651 -0.098510 -0.220345 71 42 121
0.604550 0.020957 0.490979 30 159 136
-0.604137 -0.018292 0.271343 44 114 142
-0.134227 0.371850 -0.179200 69 6 90
