ply
format ascii 1.0
element vertex 1245
property float x
property float y
property float z
property uchar red
property uchar green
property uchar blue
end_header
0.159373 0.452496 -0.173720 68 1 84
0.524296 0.307420 0.350731 85 198 102
0.251288 0.448470 -0.112424 71 24 106
-0.534760 -0.339704 -0.035599 81 196 104
-0.545106 -0.027052 -0.007614 68 190 112
-0.663127 -0.268741 0.333644 116 208 84
-0.666374 -0.470695 0.273876 105 204 91
-0.575876 0.123346 0.202038 91 200 98
0.142452 -0.295295 -0.157687 68 1 84
-0.483461 -0.401215 -0.153156 42 119 142
-0.677511 -0.348699 0.449601 33 167 132
0.461667 -0.192019 -0.088164 61 187 116
-0.418446 0.213079 -0.057273 31 163 134
0.411764 0.451882 0.151627 40 122 142
-0.138298 0.541675 -0.166374 68 1 84
-0.096600 -0.054342 -0.403539 68 1 84
-0.620064 -0.077927 0.185725 131 211 75
-0.456734 0.399039 0.161055 31 148 139
-0.354488 0.515710 0.168710 32 164 133
-0.123606 -0.483958 -0.333511 68 1 84
-0.351679 -0.344244 -0.192767 70 45 124
0.003239 -0.005898 -0.466528 68 1 84
-0.439841 0.445522 0.252314 56 185 118
0.474423 0.296603 0.078658 31 149 139
0.620630 -0.290585 0.206191 151 216 62
0.459575 -0.522251 -0.096476 60 77 138
-0.086726 -0.324428 -0.251130 68 1 84
0.456876 0.096450 -0.052873 30 159 136
0.068465 0.287062 -0.244571 68 1 84
-0.001596 0.297119 -0.254319 68 1 84
0.583937 0.040243 0.389909 178 221 44
0.449927 0.188962 -0.020007 36 134 141
-0.636884 -0.111073 0.348650 79 195 105
0.360710 0.327514 -0.068642 62 72 136
-0.119363 -0.277451 -0.196858 68 1 84
-0.209450 -0.435135 -0.292192 68 1 84
0.335480 0.499645 0.054650 61 75 137
0.560455 -0.146709 0.012254 183 221 41
-0.021467 0.582456 -0.157914 68 1 84
0.255109 0.129478 -0.198648 68 1 84
0.118399 -0.419613 -0.268143 68 1 84
-0.447739 0.436060 0.272426 44 177 125
-0.315662 -0.497230 -0.301052 68 1 84
-0.158330 -0.169137 -0.233692 68 1 84
0.358328 -0.423845 -0.210470 69 6 90
-0.519136 0.317398 0.267876 59 186 117
-0.581763 0.148759 0.399344 34 167 132
0.603923 -0.122335 0.189821 202 224 30
-0.334399 0.361775 -0.079855 71 37 117
0.586970 -0.003179 0.219227 112 206 86
0.502418 0.285371 0.133820 30 154 137
-0.691757 -0.494659 0.366072 112 206 86
0.145034 0.079515 -0.224539 68 1 84
0.594787 -0.305145 0.117071 103 204 92
-0.117524 -0.418913 -0.301626 68 1 84
-0.659120 -0.301021 0.482158 44 114 142
-0.631723 -0.117553 0.396557 34 167 132
0.002914 0.598654 -0.143531 71 17 99
-0.414603 0.472562 0.244780 57 185 118
0.029363 0.425435 -0.217628 68 1 84
0.486226 0.119026 0.000703 30 152 138
0.478690 0.235630 0.046914 30 153 138
0.517993 -0.091543 -0.045265 181 221 43
-0.062875 0.002843 -0.317873 68 1 84
-0.000184 0.345567 -0.221662 68 1 84
0.122575 -0.005145 -0.346373 68 1 84
0.029716 0.119147 -0.292860 68 1 84
0.008090 0.321286 -0.240597 68 1 84
-0.664724 -0.277271 0.259506 181 221 43
0.412432 0.231337 -0.048852 54 90 140
0.539234 -0.385375 0.029937 33 167 132
0.098935 -0.200492 -0.279042 68 1 84
-0.002165 -0.375937 -0.324045 68 1 84
-0.116421 0.504184 -0.196496 68 1 84
0.014935 0.216470 -0.254976 68 1 84
0.033625 0.018286 -0.335570 68 1 84
0.357847 0.450325 0.023897 60 77 138
-0.358609 -0.459795 -0.275837 68 1 84
-0.218252 0.322882 -0.156283 68 1 84
-0.590434 0.089933 0.420378 59 186 117
-0.117609 0.529280 -0.187050 68 1 84
-0.306422 -0.196749 -0.159513 68 1 84
0.613674 -0.165326 0.310827 167 219 51
0.046038 -0.415217 -0.311899 68 1 84
-0.449024 0.116901 -0.067292 30 151 138
0.462034 0.410800 0.240863 30 153 138
-0.256356 -0.422048 -0.249724 68 1 84
0.291865 0.548280 0.068953 59 80 138
-0.594590 -0.523391 0.066825 46 178 124
-0.348534 -0.489788 -0.286235 68 1 84
-0.625608 -0.147840 0.111671 167 219 51
-0.303763 0.362018 -0.104230 68 1 84
-0.228464 -0.447745 -0.303978 68 1 84
-0.470616 0.150890 -0.020879 64 189 114
0.232810 -0.433399 -0.249132 68 1 84
0.063652 0.619881 -0.109569 72 25 107
-0.032522 0.033987 -0.377178 68 1 84
0.624684 -0.556380 0.352863 30 152 138
0.097270 -0.127794 -0.320432 68 1 84
-0.240606 0.299482 -0.152602 68 1 84
-0.504976 -0.025645 -0.058696 51 182 121
0.332586 0.034565 -0.170006 63 69 135
0.598605 -0.085509 0.384528 220 226 24
0.130958 0.031416 -0.282226 68 1 84
0.131973 0.601508 -0.110978 69 54 129
-0.670194 -0.346572 0.314049 68 190 112
0.481179 -0.015671 -0.066413 47 179 123
0.219175 0.148664 -0.211119 68 1 84
-0.438574 0.237426 -0.018933 40 174 127
0.619539 -0.466142 0.331082 68 190 112
0.266300 0.193122 -0.188291 68 1 84
-0.341294 -0.033644 -0.179112 68 1 84
-0.090515 0.610146 -0.115424 70 9 92
-0.187147 0.593073 -0.017023 70 45 124
-0.501429 0.353922 0.465923 31 146 140
0.642301 -0.546527 0.442669 42 176 126
-0.560885 -0.415615 -0.009551 100 203 93
-0.076799 -0.016848 -0.416570 68 1 84
-0.514349 -0.241911 -0.042134 85 198 102
-0.217320 -0.194754 -0.177190 68 1 84
-0.292043 -0.257622 -0.163738 68 1 84
-0.353669 0.392996 -0.034001 54 91 140
0.602254 -0.311733 0.455311 59 186 117
-0.607812 -0.461967 0.104929 144 214 67
0.607242 -0.132904 0.361906 186 222 39
-0.237175 -0.124107 -0.202657 68 1 84
-0.583322 -0.144088 0.023767 109 206 88
-0.438025 -0.456840 -0.224409 68 57 130
-0.475489 0.403386 0.404106 35 136 141
0.430593 -0.422447 -0.152784 38 127 142
-0.073838 0.379512 -0.204316 68 1 84
-0.296571 -0.177212 -0.165066 68 1 84
0.564708 0.165130 0.428103 186 222 39
0.447046 0.040163 -0.084954 33 140 141
0.054006 0.001381 -0.336080 68 1 84
-0.373960 0.240039 -0.097544 57 85 139
0.470440 0.401626 0.339141 30 156 137
-0.644881 -0.260055 0.465786 37 130 142
0.476193 -0.426838 -0.070809 37 130 142
-0.524455 -0.087631 -0.053970 94 201 97
0.407275 0.335827 -0.002189 41 120 142
-0.197110 -0.237889 -0.169408 68 1 84
0.118901 -0.441487 -0.311501 68 1 84
-0.321967 0.105780 -0.173203 68 1 84
-0.050815 -0.253636 -0.350640 68 1 84
-0.191773 -0.249341 -0.167990 68 1 84
-0.114894 -0.274857 -0.207071 68 1 84
0.107015 -0.249497 -0.204516 68 1 84
0.399562 0.452976 0.111507 46 109 142
0.333518 -0.174309 -0.158046 54 90 140
0.618442 -0.345141 0.237470 94 201 97
-0.219638 0.450222 -0.133862 68 1 84
-0.580395 -0.266223 0.027852 75 194 108
-0.562896 -0.445059 -0.003323 59 186 117
-0.041840 -0.424867 -0.324884 68 1 84
-0.368105 -0.195066 -0.145302 67 58 131
-0.228034 -0.282944 -0.165356 68 1 84
0.540503 0.249445 0.421820 98 202 95
0.057230 0.367702 -0.212346 68 1 84
-0.042449 0.139237 -0.284333 68 1 84
-0.110317 0.416715 -0.196755 68 1 84
0.559099 0.102056 0.506609 105 204 91
-0.295999 0.489265 -0.024948 66 64 133
-0.656339 -0.202442 0.235508 170 219 50
0.579486 0.099995 0.368370 124 210 79
0.359647 -0.121550 -0.154103 38 129 142
-0.309282 0.220751 -0.155552 68 1 84
-0.110430 0.064912 -0.239583 68 1 84
0.001397 -0.050436 -0.471720 68 1 84
-0.197084 -0.412336 -0.244134 68 1 84
0.000218 -0.351503 -0.326194 68 1 84
-0.658752 -0.236147 0.335566 73 193 109
0.183678 0.574171 -0.097941 65 65 134
-0.666308 -0.308252 0.386580 64 189 114
0.200193 0.528927 -0.117472 70 48 125
0.622090 -0.281648 0.265683 170 219 50
-0.637452 -0.235452 0.463613 31 146 140
0.184402 0.397961 -0.167528 68 1 84
0.125480 -0.441812 -0.308827 68 1 84
0.496314 0.185568 0.050108 30 155 137
-0.081569 -0.004265 -0.394855 68 1 84
-0.092521 -0.229097 -0.294956 68 1 84
-0.582439 0.133662 0.484552 36 132 141
0.336839 0.384319 -0.064191 66 64 133
0.588439 -0.107359 0.096650 253 231 36
0.374481 0.052806 -0.141047 69 53 128
-0.598920 0.054845 0.379891 30 156 137
-0.334577 0.520397 0.124457 34 139 141
-0.141897 0.472111 -0.185660 68 1 84
-0.366141 -0.222723 -0.140566 69 50 127
0.235127 0.518764 -0.087987 71 24 106
-0.091973 0.574783 -0.168287 68 1 84
0.594078 -0.591739 0.236405 59 81 138
0.607892 -0.473029 0.263510 44 177 125
0.180275 -0.476262 -0.313660 68 1 84
0.414019 -0.496188 -0.201345 69 54 129
0.549596 0.240462 0.337030 141 214 68
0.510033 -0.501815 0.006842 49 100 141
0.514090 -0.071075 -0.045914 167 219 51
-0.642204 -0.207386 0.146251 57 185 118
0.610560 -0.136622 0.292374 173 220 48
0.616726 -0.229465 0.323405 181 221 43
-0.419254 0.374364 0.047546 30 156 137
-0.300366 0.440849 -0.063095 72 25 107
-0.585932 0.107562 0.238747 83 197 103
0.178347 -0.197412 -0.185484 68 1 84
-0.639783 -0.126363 0.240848 129 211 76
0.352417 0.406539 -0.029292 63 69 135
0.424417 -0.517613 -0.181677 72 33 114
-0.560623 0.150208 0.166597 109 206 88
-0.397612 0.317900 -0.027166 46 109 142
-0.347617 0.165749 -0.144493 70 47 124
-0.081895 0.003656 -0.302824 68 1 84
-0.653835 -0.371564 0.192111 253 231 36
0.051359 0.510719 -0.213614 68 1 84
0.293925 -0.137755 -0.172757 65 65 134
0.074052 0.192904 -0.264883 68 1 84
0.500386 0.321806 0.165594 30 153 138
-0.084455 0.483624 -0.213390 68 1 84
0.548556 -0.004255 0.045910 191 223 36
-0.214712 0.566525 -0.060251 65 65 134
-0.142020 0.381348 -0.185556 68 1 84
-0.242293 -0.175938 -0.176969 68 1 84
0.559256 0.141253 0.488501 175 220 46
0.515068 0.298624 0.464110 57 185 118
-0.553179 0.206168 0.192508 81 196 104
-0.568584 -0.168412 0.000830 119 208 82
-0.461303 0.217315 0.003266 66 190 113
-0.300154 0.419561 -0.076306 68 1 84
-0.460499 -0.390407 -0.166332 38 127 142
0.092036 0.038088 -0.276087 68 1 84
-0.515720 -0.155572 -0.064033 47 179 123
0.584628 -0.554454 0.198320 42 119 142
-0.540592 -0.004093 -0.000841 109 206 88
-0.011753 0.534598 -0.194798 68 1 84
-0.137472 0.546920 -0.163836 68 1 84
0.054083 -0.198406 -0.359205 68 1 84
-0.009960 -0.465503 -0.334915 68 1 84
-0.662892 -0.256205 0.243950 126 210 78
0.582448 -0.489484 0.172423 37 171 129
0.533278 -0.448227 0.034868 31 148 139
0.365507 -0.275244 -0.120222 49 100 141
0.618613 -0.313678 0.198499 116 208 84
0.609242 -0.437015 0.242190 61 187 116
-0.571005 0.191645 0.430748 35 137 141
0.521123 -0.020622 -0.017951 116 208 84
0.524075 0.175757 0.106917 30 156 137
0.523573 0.037369 0.015757 165 218 53
0.617274 -0.201313 0.211730 114 207 85
0.346235 0.328771 -0.083453 72 34 115
-0.127245 0.020371 -0.304059 68 1 84
0.391658 -0.100971 -0.140828 45 111 142
0.447179 -0.457879 -0.146859 47 105 141
0.179145 0.520266 -0.144077 71 17 99
0.493468 0.025406 -0.036091 57 185 118
0.373238 0.496019 0.167872 41 121 142
0.613418 -0.361698 0.443089 66 190 113
-0.043190 -0.416082 -0.323265 68 1 84
0.349575 0.510713 0.135394 54 91 140
-0.506698 -0.343176 -0.070181 100 203 93
0.635952 -0.476712 0.453344 64 189 114
0.610158 -0.228020 0.367146 129 211 76
0.374042 0.404138 0.001078 59 81 138
-0.476235 -0.374835 -0.135534 31 150 139
-0.102389 -0.196456 -0.296689 68 1 84
0.117702 -0.127147 -0.281602 68 1 84
0.096920 0.573539 -0.169649 70 47 124
0.051112 0.008981 -0.301588 68 1 84
0.039027 0.619027 -0.111311 69 52 127
-0.600676 0.034204 0.402345 33 166 133
0.365625 -0.205229 -0.140765 33 141 140
0.108077 -0.335577 -0.155078 68 1 84
-0.624082 -0.102117 0.152668 220 226 24
0.542429 -0.543827 0.095739 59 80 138
0.563713 0.185624 0.343198 139 213 70
-0.112169 0.031982 -0.272520 68 1 84
-0.012646 0.111591 -0.295498 68 1 84
0.532821 -0.345334 0.013713 57 185 118
0.046977 0.127640 -0.286257 68 1 84
-0.574656 0.089383 0.174175 87 198 101
0.487685 0.247263 0.070901 33 141 140
0.437722 -0.504062 -0.162436 52 95 141
0.421774 0.100117 -0.092827 37 130 142
0.063965 -0.350930 -0.216433 68 1 84
-0.008057 0.242472 -0.237589 68 1 84
0.285450 -0.154441 -0.172041 71 39 119
-0.640783 -0.192084 0.409823 44 177 125
-0.038600 0.027156 -0.400904 68 1 84
-0.618333 -0.030003 0.305091 66 190 113
0.621449 -0.377152 0.373286 94 201 97
-0.659409 -0.240584 0.334738 79 195 105
-0.469039 0.036350 -0.071954 39 173 128
0.600129 -0.110311 0.387586 173 220 48
-0.105867 0.257770 -0.218486 68 1 84
-0.473060 0.124158 -0.033109 75 194 108
0.061839 -0.095309 -0.424880 68 1 84
-0.147523 0.252566 -0.185425 68 1 84
0.164244 -0.254426 -0.167872 68 1 84
-0.065054 -0.300702 -0.313204 68 1 84
-0.629694 -0.204329 0.480328 31 147 139
0.073699 -0.389029 -0.264185 68 1 84
-0.413900 -0.331075 -0.122480 32 144 140
0.397170 0.460517 0.123745 44 114 142
-0.482715 -0.427497 -0.168213 42 118 142
-0.547965 0.071699 0.068503 77 194 107
0.216277 0.370315 -0.155702 68 1 84
0.615255 -0.180155 0.263178 173 220 48
0.237346 0.313448 -0.155693 68 1 84
0.594771 -0.048615 0.389096 197 223 33
0.503742 -0.486637 -0.009175 39 124 142
0.592476 -0.047699 0.217629 134 212 73
0.413150 0.329616 0.002152 51 96 141
0.578704 -0.026333 0.155868 162 218 55
-0.296279 0.506132 0.001212 55 89 140
-0.515168 0.341651 0.443394 37 130 142
-0.510569 -0.310410 -0.046023 114 207 85
0.162139 -0.332669 -0.152647 68 1 84
-0.298238 0.247757 -0.153094 68 1 84
-0.493375 0.216542 0.058992 62 188 115
0.110407 0.172324 -0.254625 68 1 84
0.218139 0.264671 -0.165679 68 1 84
-0.657512 -0.218266 0.319920 151 216 62
0.600649 -0.124918 0.390242 136 213 71
-0.580952 0.144919 0.259248 56 185 118
-0.448542 0.440311 0.310600 73 193 109
0.192513 -0.257755 -0.168519 68 1 84
0.445137 0.198403 -0.021276 32 144 140
-0.606860 -0.421241 0.090351 119 208 82
-0.048750 0.017211 -0.380700 68 1 84
0.572998 0.058065 0.194595 109 206 88
-0.141072 -0.059870 -0.291452 68 1 84
-0.565655 -0.000293 0.048718 170 219 50
-0.416922 -0.021105 -0.133706 50 99 141
-0.050221 0.147512 -0.283706 68 1 84
0.086496 -0.146998 -0.332593 68 1 84
0.464705 -0.424664 -0.092637 35 137 141
-0.581966 -0.420553 0.033817 107 205 89
0.411274 -0.414170 -0.167760 49 100 141
-0.092436 0.338071 -0.217024 68 1 84
-0.297276 -0.478665 -0.303555 68 1 84
0.144293 -0.457739 -0.319215 68 1 84
-0.046069 -0.207162 -0.374360 68 1 84
0.117946 -0.076879 -0.307717 68 1 84
-0.654761 -0.270046 0.414080 42 176 126
0.615389 -0.183521 0.306721 109 206 88
-0.530193 0.134670 0.076844 103 204 92
-0.403955 0.331786 -0.010161 32 143 140
0.008787 0.558460 -0.180752 68 1 84
-0.423325 -0.039828 -0.131183 56 87 140
-0.070613 0.339426 -0.222519 68 1 84
-0.631197 -0.536155 0.154394 81 196 104
-0.251334 -0.132609 -0.193549 68 1 84
-0.338565 -0.345750 -0.200587 71 38 118
0.239203 0.300798 -0.157657 68 1 84
-0.450782 0.161535 -0.044750 31 147 139
0.477716 -0.099349 -0.086281 64 189 114
-0.152802 0.251838 -0.180913 68 1 84
-0.649468 -0.218953 0.171630 146 215 65
0.589984 -0.110146 0.101825 253 231 36
0.128902 -0.455977 -0.323954 68 1 84
-0.539033 0.295146 0.381174 41 175 127
0.098448 0.312524 -0.227710 68 1 84
-0.447904 -0.086806 -0.118133 31 146 140
0.268755 0.323062 -0.146344 68 1 84
-0.526051 -0.408687 -0.080934 44 177 125
0.134521 0.056379 -0.228637 68 1 84
0.162541 0.324393 -0.186719 68 1 84
-0.079902 -0.067590 -0.427214 68 1 84
-0.587078 0.099029 0.482754 40 122 142
0.120664 0.327733 -0.211047 68 1 84
0.531463 0.268883 0.226881 43 177 125
-0.491003 -0.263831 -0.052870 100 203 93
-0.039836 -0.487577 -0.336239 68 1 84
0.617657 -0.198723 0.286783 131 211 75
-0.481126 0.249652 0.057685 71 192 110
-0.126952 -0.086408 -0.299583 68 1 84
-0.025181 -0.032073 -0.470138 68 1 84
-0.080425 -0.133996 -0.374941 68 1 84
-0.387252 0.471578 0.123941 31 162 134
0.498589 -0.269904 -0.035114 47 179 123
-0.192463 0.193390 -0.200741 68 1 84
-0.510889 0.289994 0.159421 81 196 104
-0.611618 -0.035891 0.213416 134 212 73
0.567928 -0.503149 0.141739 35 135 141
0.126849 0.019384 -0.320267 68 1 84
-0.598684 -0.442143 0.076732 109 206 88
0.567389 -0.013401 0.107870 73 193 109
-0.083559 0.616105 -0.096835 71 44 123
0.104505 -0.445504 -0.319918 68 1 84
-0.602253 -0.326208 0.058985 59 186 117
-0.624974 -0.056734 0.323500 44 177 125
0.591993 -0.153171 0.436200 59 186 117
0.266918 0.534840 -0.029865 69 52 127
-0.450268 0.389759 0.125669 48 180 122
-0.244551 0.543829 -0.043243 70 48 125
0.556739 0.214135 0.311324 119 208 82
-0.671984 -0.356460 0.346842 71 192 110
-0.059172 -0.229594 -0.350042 68 1 84
0.518435 0.315010 0.386936 105 204 91
0.580634 0.093619 0.357225 79 195 105
0.110079 -0.444542 -0.317908 68 1 84
0.174127 0.222033 -0.193623 68 1 84
0.338003 0.078109 -0.161714 47 106 141
0.388113 0.318364 -0.041009 47 106 141
-0.114095 0.040988 -0.252196 68 1 84
-0.001921 0.053636 -0.386027 68 1 84
-0.664265 -0.345986 0.250766 197 223 33
0.611417 -0.153586 0.338315 207 225 28
0.487754 0.376758 0.296421 40 174 127
-0.080780 -0.088388 -0.415149 68 1 84
-0.670213 -0.332964 0.331169 61 187 116
0.373074 0.213638 -0.102241 57 84 139
0.500379 0.224518 0.081801 32 144 140
0.002241 0.056950 -0.366856 68 1 84
-0.487928 -0.003025 -0.069028 34 167 132
0.418454 -0.219502 -0.109670 31 162 134
0.257251 -0.167649 -0.174382 71 38 118
0.545302 0.121942 0.135099 62 188 115
0.000888 0.038502 -0.421600 68 1 84
-0.178506 -0.162067 -0.220056 68 1 84
-0.263632 0.416319 -0.111271 68 1 84
0.150338 -0.495675 -0.327675 68 1 84
0.593547 -0.178363 0.455446 91 200 98
0.602598 -0.224379 0.410302 116 208 84
0.429616 -0.436622 -0.166689 43 115 142
-0.074995 0.502946 -0.211493 68 1 84
-0.414502 0.472917 0.264695 100 203 93
-0.503734 0.248176 0.101317 64 189 114
-0.466453 0.413441 0.402135 35 135 141
-0.428599 0.458120 0.255036 66 190 113
-0.041123 0.073043 -0.315075 68 1 84
0.132286 -0.491059 -0.330317 68 1 84
0.148783 0.115659 -0.228365 68 1 84
0.607140 -0.304360 0.416940 85 198 102
-0.662376 -0.247357 0.305272 151 216 62
0.601872 -0.075407 0.274256 191 223 36
-0.117680 0.471630 -0.200449 68 1 84
-0.335519 0.392840 -0.057746 67 59 131
-0.543662 0.214156 0.171078 64 189 114
0.536174 0.213296 0.513812 61 187 116
0.054408 0.577310 -0.174021 71 24 106
0.409980 -0.538753 -0.196888 68 1 84
-0.283141 0.437784 -0.082336 71 37 117
-0.649267 -0.197953 0.373935 83 197 103
-0.619853 -0.061703 0.227930 129 211 76
0.234016 -0.324615 -0.162931 68 1 84
0.299307 0.209556 -0.166560 71 22 105
0.229925 0.482135 -0.115563 72 35 116
-0.112153 -0.119069 -0.313425 68 1 84
-0.144786 -0.162212 -0.250943 68 1 84
0.431554 0.094292 -0.084272 40 122 142
-0.040234 0.336243 -0.227493 68 1 84
0.038910 0.151688 -0.285534 68 1 84
-0.188863 0.504116 -0.143492 68 1 84
0.631036 -0.497200 0.384269 33 166 133
0.332206 -0.268199 -0.139695 60 78 138
-0.429127 0.149171 -0.078380 32 144 140
0.020126 0.063120 -0.325416 68 1 84
0.618238 -0.304449 0.332668 98 202 95
0.617108 -0.334534 0.365002 119 208 82
0.469161 -0.344205 -0.048325 30 154 137
-0.225615 -0.016347 -0.218033 68 1 84
-0.070417 -0.178665 -0.357024 68 1 84
-0.424656 0.217910 -0.047172 37 171 129
0.080801 -0.343413 -0.178128 68 1 84
-0.463822 0.416771 0.298206 46 178 124
0.104229 -0.488124 -0.333206 68 1 84
0.540290 -0.530483 0.086157 56 86 139
0.606163 -0.102914 0.349192 167 219 51
-0.069199 -0.331284 -0.299083 68 1 84
-0.569293 0.202281 0.418589 33 141 140
-0.376787 0.239935 -0.094655 50 99 141
-0.157202 0.562460 -0.137498 71 21 103
0.433569 0.444728 0.234423 31 146 140
-0.691750 -0.398808 0.431355 50 181 122
-0.467529 0.418418 0.328738 46 178 124
0.624522 -0.407694 0.454419 87 198 101
0.136236 0.119492 -0.234603 68 1 84
0.405345 0.054831 -0.118819 45 111 142
-0.366863 -0.155190 -0.155443 65 65 134
0.443448 0.436552 0.286952 30 159 136
-0.564262 0.217720 0.434461 32 145 140
0.172601 0.064094 -0.216879 68 1 84
-0.604899 -0.091689 0.089673 199 224 31
0.463611 -0.221836 -0.077159 47 179 123
0.400131 -0.009373 -0.133441 30 154 137
0.597498 -0.242807 0.468273 68 190 112
0.057378 -0.406898 -0.301824 68 1 84
-0.627577 -0.113989 0.156063 162 218 55
0.135439 -0.320219 -0.146062 68 1 84
-0.650769 -0.403017 0.194377 183 221 41
0.591855 -0.108437 0.414905 109 206 88
0.397994 0.431089 0.069715 49 102 141
-0.421351 0.132582 -0.092848 40 122 142
0.276723 0.453506 -0.087119 71 21 103
-0.614417 -0.143752 0.513874 32 145 140
-0.279700 0.135902 -0.185640 68 1 84
-0.613575 -0.059070 0.183244 165 218 53
0.409255 0.360728 0.017470 50 98 141
0.602268 -0.452787 0.219743 51 182 121
-0.509144 0.202882 0.078695 62 188 115
0.194853 -0.409340 -0.212385 68 1 84
0.607757 -0.405088 0.209215 79 195 105
0.092855 -0.186462 -0.299504 68 1 84
-0.372529 -0.354623 -0.187612 64 67 135
-0.558333 0.208522 0.501558 46 109 142
-0.350075 -0.208060 -0.148716 69 50 127
-0.223964 -0.223727 -0.168667 68 1 84
0.027747 0.553404 -0.187333 68 1 84
-0.473172 0.374890 0.166184 34 137 141
0.569619 -0.168270 0.028826 175 220 46
-0.064583 0.124701 -0.285930 68 1 84
0.561398 0.122505 0.490389 136 213 71
-0.658402 -0.312468 0.197481 157 217 58
0.247801 -0.263911 -0.166275 68 1 84
0.521008 0.129449 0.077434 30 158 136
0.611801 -0.446871 0.269031 64 189 114
0.624973 -0.537912 0.354605 38 172 129
0.536711 -0.041316 -0.001643 57 185 118
-0.317890 0.096356 -0.177113 68 1 84
0.032339 0.285312 -0.252721 68 1 84
-0.203451 0.426142 -0.150492 68 1 84
0.271785 0.530745 -0.026397 66 64 133
-0.607807 -0.433820 0.097026 129 211 76
0.441796 -0.533731 -0.140832 70 47 124
-0.140478 0.574451 -0.139250 70 14 97
-0.595598 -0.292599 0.047422 66 190 113
0.414389 0.046280 -0.113776 40 122 142
-0.646943 -0.151206 0.251499 129 211 76
0.563771 0.121962 0.481893 124 210 79
0.379224 -0.017743 -0.146844 34 139 141
-0.241760 0.044416 -0.205609 68 1 84
-0.117770 0.403880 -0.192636 68 1 84
0.614799 -0.183909 0.316647 124 210 79
0.534849 0.278684 0.280348 87 198 101
-0.170502 0.534155 -0.146038 68 1 84
-0.492840 0.178183 0.035929 107 205 89
-0.439004 0.452335 0.309642 53 183 120
-0.027161 0.038732 -0.384776 68 1 84
-0.653498 -0.349773 0.181893 173 220 48
0.131130 -0.228314 -0.194975 68 1 84
-0.469198 0.283504 0.057297 75 194 108
0.181148 0.457445 -0.159302 68 1 84
-0.493636 -0.289657 -0.050308 112 206 86
0.269765 0.165687 -0.190250 70 9 92
-0.286455 0.514791 -0.004513 62 72 136
-0.490999 0.208762 0.050014 79 195 105
-0.441167 0.345642 0.059571 33 166 133
-0.664407 -0.269219 0.257861 165 218 53
0.242293 0.296118 -0.158634 68 1 84
-0.509019 0.310115 0.178777 81 196 104
0.587881 -0.027603 0.414526 139 213 70
0.155424 -0.316420 -0.151230 68 1 84
0.606682 -0.129584 0.364313 178 221 44
0.351586 0.075631 -0.153878 71 43 122
0.582104 -0.022762 0.177529 141 214 68
-0.260560 0.300208 -0.149404 68 1 84
-0.562541 0.218379 0.456233 36 133 141
-0.111911 0.196690 -0.243017 68 1 84
0.300576 -0.038456 -0.186183 61 76 137
0.189262 -0.374124 -0.171527 68 1 84
0.613134 -0.513266 0.305340 40 174 127
-0.143685 -0.192829 -0.236090 68 1 84
-0.638387 -0.131515 0.368906 59 186 117
0.584842 -0.053937 0.444920 116 208 84
-0.403388 0.440628 0.098729 33 142 140
0.591171 -0.168249 0.080231 121 209 81
0.272076 -0.252743 -0.162557 68 1 84
0.558184 0.187697 0.431793 131 211 75
0.563053 0.186160 0.299690 126 210 78
-0.530880 -0.161248 -0.047711 75 194 108
-0.647606 -0.181839 0.363505 105 204 91
0.463522 0.392977 0.180125 33 166 133
-0.248557 -0.203951 -0.167156 68 1 84
-0.575190 0.123712 0.511526 56 87 140
-0.328941 0.200744 -0.148490 68 1 84
-0.517191 0.114604 0.034819 53 183 120
0.630038 -0.474946 0.388215 40 174 127
-0.137036 0.527662 -0.174705 68 1 84
0.374931 -0.443163 -0.213466 72 25 107
-0.323683 0.536845 0.177233 30 159 136
0.347733 0.507511 0.107752 51 96 141
-0.361697 0.309524 -0.081087 71 44 123
0.555778 0.029232 0.105056 141 214 68
0.616848 -0.226865 0.178330 126 210 78
-0.025269 0.431730 -0.221436 68 1 84
-0.628557 -0.135701 0.423724 32 143 140
0.517325 -0.527453 0.029175 70 47 124
-0.571697 -0.131368 0.005120 98 202 95
-0.100658 -0.366484 -0.247580 68 1 84
0.308848 0.369732 -0.102398 61 76 137
-0.355502 0.361131 -0.056247 60 77 138
0.210429 0.583091 -0.045785 61 74 137
-0.342647 0.093031 -0.165175 68 1 84
0.012188 0.299903 -0.252966 68 1 84
0.534505 -0.430467 0.032085 30 153 138
-0.584934 0.083826 0.491915 47 105 141
-0.489838 -0.191671 -0.080447 50 181 122
-0.400501 -0.493730 -0.255400 68 1 84
-0.407836 0.479156 0.241096 68 190 112
-0.410766 -0.263989 -0.107317 35 169 130
-0.269312 0.364149 -0.126298 68 1 84
-0.502743 -0.354450 -0.083078 73 193 109
0.324433 0.532218 0.158656 58 82 139
0.350787 0.052355 -0.156977 71 37 117
0.350296 -0.230218 -0.140286 41 121 142
-0.321766 0.071060 -0.180659 68 1 84
0.248498 -0.289206 -0.165386 68 1 84
0.115051 0.587632 -0.143160 71 39 119
-0.531900 0.288653 0.251116 68 190 112
0.492102 0.367045 0.240274 30 157 136
0.634325 -0.466483 0.425312 47 179 123
-0.266157 -0.356606 -0.211134 68 1 84
-0.126829 0.550518 -0.168960 68 1 84
0.238438 0.122089 -0.204270 68 1 84
0.042718 -0.145559 -0.403626 68 1 84
0.122778 -0.373018 -0.174619 68 1 84
-0.671747 -0.332758 0.401603 30 160 135
-0.339256 -0.444500 -0.271473 68 1 84
0.502601 0.351221 0.260756 40 174 127
-0.503992 -0.379884 -0.105655 33 167 132
0.476359 0.392593 0.261888 33 140 141
0.100312 0.259118 -0.215612 68 1 84
-0.284735 0.552673 0.102033 33 140 141
0.610138 -0.150436 0.218817 215 226 25
0.489694 -0.094893 -0.075638 35 169 130
0.486425 -0.396709 -0.046033 37 171 129
-0.060325 0.214068 -0.247992 68 1 84
-0.219282 0.373296 -0.152767 68 1 84
-0.123425 0.029568 -0.280732 68 1 84
0.145438 0.278060 -0.196525 68 1 84
0.205694 0.333697 -0.163221 68 1 84
-0.544997 0.278547 0.377893 50 181 122
0.336355 -0.308688 -0.130649 72 35 116
-0.146113 0.564462 -0.144455 68 1 84
-0.251448 0.321865 -0.146353 68 1 84
0.099379 0.545348 -0.188605 68 1 84
-0.128344 -0.315931 -0.168758 68 1 84
0.154180 0.603542 -0.085932 65 66 134
0.257066 -0.011191 -0.204009 68 1 84
-0.606400 -0.470367 0.102719 144 214 67
0.569045 0.089518 0.472074 151 216 62
-0.581017 -0.045751 0.052441 178 221 44
-0.624501 -0.175718 0.101115 98 202 95
-0.466335 0.322297 0.083247 39 173 128
-0.633586 -0.204730 0.445657 32 164 133
-0.495803 0.350691 0.203096 41 175 127
0.502946 0.074849 0.003324 50 181 122
-0.344392 0.412675 -0.029898 54 90 140
-0.074086 0.613896 -0.112334 70 12 95
0.122825 -0.260345 -0.176385 68 1 84
0.587267 -0.021113 0.414646 121 209 81
0.610703 -0.157515 0.348111 159 217 56
0.617522 -0.267819 0.330238 134 212 73
-0.024921 0.082883 -0.315931 68 1 84
0.094412 -0.381307 -0.193956 68 1 84
-0.434981 -0.368005 -0.165780 42 119 142
-0.644614 -0.171859 0.372427 109 206 88
-0.601475 -0.074467 0.475023 33 140 141
0.481996 0.141346 0.005049 30 155 137
0.131015 -0.317960 -0.147084 68 1 84
-0.591782 -0.412197 0.052822 141 214 68
-0.492524 -0.416594 -0.152282 42 119 142
0.610879 -0.346173 0.471504 91 200 98
-0.613605 -0.101628 0.450268 30 153 138
0.380764 0.034495 -0.139914 65 65 134
-0.585157 0.121647 0.252142 75 194 108
0.449921 0.177073 -0.026520 40 122 142
0.563492 -0.177386 0.017905 154 216 60
-0.256059 0.012135 -0.209399 68 1 84
0.517710 0.094765 0.046190 31 163 134
0.584241 -0.130573 0.065161 186 222 39
0.161760 0.603729 -0.075757 63 71 136
0.602139 -0.225761 0.120845 144 214 67
-0.099558 0.000307 -0.363196 68 1 84
0.505793 0.346696 0.283965 40 174 127
-0.122830 0.205080 -0.226658 68 1 84
-0.587901 0.068769 0.484471 38 127 142
0.527646 -0.194143 -0.028903 89 199 100
0.079830 0.471006 -0.214009 68 1 84
-0.635789 -0.100040 0.315385 107 205 89
-0.587585 0.071715 0.484783 38 128 142
-0.384468 0.250784 -0.080936 50 98 141
-0.579551 0.161894 0.297623 54 184 119
0.632708 -0.504723 0.391009 40 174 127
0.276645 0.271485 -0.161040 68 1 84
-0.591254 0.118270 0.336427 44 177 125
0.368759 -0.316223 -0.109168 51 96 141
-0.041853 0.564111 -0.176452 68 1 84
-0.338202 0.510438 0.104315 36 132 141
-0.484524 -0.330335 -0.081395 43 177 125
0.263976 0.023038 -0.200805 68 1 84
0.156345 -0.460293 -0.315418 68 1 84
0.535071 0.237954 0.190262 47 179 123
0.052349 0.001039 -0.424888 68 1 84
-0.661092 -0.311461 0.217184 199 224 31
0.003053 0.243946 -0.236021 68 1 84
0.472760 -0.465288 -0.080159 30 154 137
0.476655 0.067816 -0.039184 46 178 124
0.545892 0.244622 0.358537 83 197 103
-0.586323 0.069161 0.491296 36 134 141
0.545249 0.218705 0.206216 107 205 89
-0.592290 -0.011475 0.538170 63 69 135
0.621284 -0.369713 0.360892 96 201 96
-0.659715 -0.443138 0.249084 109 206 88
0.356562 -0.004614 -0.159204 68 57 130
0.034476 0.286396 -0.252836 68 1 84
-0.025006 0.435949 -0.222122 68 1 84
-0.310373 0.544494 0.161624 31 150 139
-0.164753 0.175045 -0.223680 68 1 84
0.022401 0.038903 -0.392825 68 1 84
0.536646 -0.321936 0.015073 71 192 110
-0.490077 0.350557 0.177829 61 187 116
0.304602 -0.370573 -0.172417 68 1 84
-0.274672 0.231415 -0.166922 68 1 84
-0.646560 -0.150022 0.311064 121 209 81
-0.349622 0.487995 0.078084 44 114 142
-0.427441 -0.446718 -0.231506 72 34 115
-0.163595 -0.004901 -0.228021 68 1 84
0.115284 -0.176515 -0.265169 68 1 84
0.068051 -0.259888 -0.289621 68 1 84
-0.161597 0.262823 -0.179523 68 1 84
0.642652 -0.555388 0.426056 59 186 117
0.133083 -0.136512 -0.256920 68 1 84
0.058996 0.568306 -0.181944 68 1 84
-0.272670 -0.059701 -0.205532 68 1 84
-0.282819 0.371335 -0.114842 68 1 84
-0.604242 -0.075500 0.465408 33 140 141
0.003126 0.212372 -0.266013 68 1 84
0.323808 -0.314835 -0.136832 70 45 124
-0.610118 0.020041 0.349235 43 177 125
0.356296 0.452379 0.023591 60 77 138
-0.515357 -0.376991 -0.083995 38 172 129
-0.348547 -0.348740 -0.203031 72 26 108
0.431167 -0.496960 -0.179523 59 80 138
0.572908 -0.000330 0.467335 83 197 103
0.580296 0.083069 0.431160 96 201 96
-0.009214 0.545435 -0.187976 68 1 84
-0.036321 0.028853 -0.376893 68 1 84
0.052341 0.059119 -0.287424 68 1 84
-0.653517 -0.226113 0.379481 79 195 105
0.088043 0.606199 -0.130355 67 59 131
0.226133 0.548500 -0.073765 70 49 126
-0.283346 0.505444 -0.025346 69 54 129
0.325132 -0.139844 -0.164157 47 105 141
0.532609 0.279733 0.367172 81 196 104
-0.579257 0.159966 0.391088 41 175 127
0.428625 -0.106721 -0.120491 30 157 136
-0.040973 0.059807 -0.323563 68 1 84
0.463338 -0.235114 -0.072653 43 177 125
0.559332 0.108828 0.173161 151 216 62
0.392135 -0.119791 -0.140290 32 164 133
0.139206 0.570610 -0.144675 67 60 132
0.172711 0.295052 -0.181180 68 1 84
0.595039 -0.192713 0.094379 157 217 58
-0.076031 -0.392127 -0.303624 68 1 84
0.177992 0.392849 -0.170524 68 1 84
0.437220 0.267624 0.002235 44 112 142
0.614779 -0.301896 0.175788 149 215 63
0.261638 -0.494791 -0.293808 68 1 84
0.308070 -0.241650 -0.153069 71 21 103
-0.594390 0.085746 0.378548 40 174 127
0.418010 0.451003 0.176558 38 129 142
-0.130495 0.464133 -0.193141 68 1 84
-0.568108 0.208238 0.409850 34 167 132
0.564318 -0.509574 0.136068 38 128 142
0.003537 0.045448 -0.410162 68 1 84
0.575708 -0.034980 0.122042 151 216 62
-0.380714 0.178234 -0.115394 71 40 120
0.607190 -0.190481 0.134659 139 213 70
-0.246027 -0.430889 -0.267929 68 1 84
-0.691931 -0.431559 0.400483 43 177 125
-0.406445 -0.421040 -0.230368 68 1 84
-0.139287 -0.177568 -0.249618 68 1 84
-0.230513 -0.471794 -0.316754 68 1 84
0.408697 0.395886 0.047380 41 121 142
0.236793 0.323554 -0.154274 68 1 84
0.613362 -0.262338 0.359805 144 214 67
-0.563621 0.194634 0.231652 53 183 120
-0.468553 0.343235 0.108944 37 171 129
-0.200734 -0.303851 -0.154127 68 1 84
0.328541 0.042286 -0.171634 63 71 136
-0.137324 0.610249 -0.059399 64 68 135
0.041392 0.620128 -0.106091 71 37 117
0.450799 0.428249 0.280964 31 149 139
-0.457580 -0.190839 -0.103892 31 149 139
0.447395 0.102000 -0.062339 31 163 134
0.562492 0.187330 0.373468 112 206 86
-0.542172 0.188371 0.145448 81 196 104
0.609312 -0.211899 0.143607 189 222 38
0.290578 -0.403019 -0.216243 68 1 84
0.526727 0.095629 0.068420 61 187 116
0.622620 -0.405880 0.361035 71 192 110
-0.235869 0.573713 0.048370 45 110 142
-0.610352 -0.512843 0.108139 59 186 117
0.619112 -0.267613 0.317209 144 214 67
0.609734 -0.128850 0.327548 170 219 50
0.512057 -0.382146 -0.009878 30 155 137
-0.059243 0.132873 -0.285555 68 1 84
-0.255581 0.509078 -0.065513 72 30 112
-0.144222 -0.245786 -0.190097 68 1 84
0.598483 -0.054169 0.268879 167 219 51
0.154376 0.398432 -0.179480 68 1 84
0.485456 0.288727 0.094775 35 136 141
-0.603303 -0.054072 0.123114 149 215 63
0.095952 -0.430934 -0.307160 68 1 84
-0.321473 0.245884 -0.140374 68 1 84
-0.604098 -0.092593 0.086773 186 222 39
0.186515 0.378964 -0.167923 68 1 84
0.229113 -0.431082 -0.246645 68 1 84
0.152679 0.230954 -0.183622 68 1 84
0.546309 0.000183 0.043596 194 223 34
0.395812 0.112051 -0.115339 37 130 142
-0.225620 -0.025942 -0.219006 68 1 84
0.606011 -0.095943 0.322395 175 220 46
0.421648 -0.201919 -0.113264 30 160 135
-0.540995 -0.165425 -0.036225 79 195 105
-0.059767 0.464865 -0.219770 68 1 84
0.379789 -0.314675 -0.102901 42 119 142
-0.590231 0.114345 0.461379 30 155 137
-0.670414 -0.353502 0.314961 53 183 120
-0.682432 -0.416388 0.372806 91 200 98
-0.662680 -0.239919 0.282008 136 213 71
0.596507 -0.238079 0.497994 37 171 129
-0.662828 -0.394384 0.255936 124 210 79
0.607751 -0.444947 0.239558 44 177 125
-0.506824 -0.174770 -0.069575 46 178 124
-0.595607 0.046836 0.229444 105 204 91
0.600593 -0.042241 0.355749 175 220 46
0.581399 -0.091242 0.078494 243 229 30
-0.564991 0.199343 0.251256 59 186 117
-0.540352 -0.179854 -0.034741 79 195 105
0.602531 -0.356914 0.159688 136 213 71
-0.593541 0.009372 0.175972 98 202 95
-0.140457 -0.385831 -0.214769 68 1 84
0.641352 -0.537670 0.427874 71 192 110
0.486081 -0.384770 -0.044306 30 153 138
0.475901 0.163715 0.006029 36 132 141
-0.225520 0.177616 -0.196111 68 1 84
0.108909 -0.334421 -0.154145 68 1 84
-0.202276 0.581375 -0.042683 68 57 130
0.552067 0.040800 0.102124 126 210 78
-0.583645 -0.011324 0.093524 181 221 43
0.627818 -0.432095 0.406891 62 188 115
0.361848 0.303677 -0.080607 60 78 138
-0.454119 -0.352127 -0.133654 31 150 139
0.631799 -0.452615 0.461080 75 194 108
-0.519215 0.202541 0.099444 47 179 123
-0.243211 0.209316 -0.182197 68 1 84
-0.381585 0.274389 -0.073531 60 77 138
-0.055371 0.609246 -0.125723 71 21 103
0.189580 0.398605 -0.165164 68 1 84
-0.625498 -0.128676 0.125500 157 217 58
-0.121299 -0.464849 -0.330830 68 1 84
0.080489 -0.433032 -0.312942 68 1 84
0.581472 0.041006 0.227353 75 194 108
-0.303887 -0.349616 -0.214167 71 38 118
0.458250 0.412825 0.354443 38 129 142
-0.525513 -0.446156 -0.081371 30 152 138
-0.189569 0.592704 -0.005975 63 69 135
-0.166116 -0.463952 -0.330452 68 1 84
0.575944 0.122882 0.422504 129 211 76
0.423879 0.419786 0.109301 44 113 142
0.580783 0.048378 0.232730 89 199 100
0.584459 -0.025391 0.432147 202 224 30
-0.504975 -0.487792 -0.124779 40 122 142
-0.618844 -0.043305 0.393784 36 132 141
0.530522 0.266594 0.217228 32 164 133
0.138859 -0.063090 -0.268668 68 1 84
-0.073239 0.484383 -0.215574 68 1 84
0.523980 -0.194200 -0.033073 79 195 105
-0.596535 -0.128739 0.051582 212 225 26
0.128803 0.154520 -0.244544 68 1 84
-0.343056 0.263034 -0.118197 68 1 84
0.608360 -0.213763 0.374595 154 216 60
-0.488239 -0.092529 -0.088931 32 144 140
0.045766 -0.001011 -0.435895 68 1 84
-0.507011 0.010389 -0.039241 40 174 127
0.279542 0.460347 -0.080847 72 25 107
0.543680 0.243184 0.383805 112 206 86
-0.120693 0.529422 -0.185014 68 1 84
0.427887 -0.231241 -0.099367 30 160 135
0.607017 -0.268537 0.143731 94 201 97
0.507491 -0.217550 -0.043256 54 184 119
0.172382 0.524355 -0.148145 72 34 115
0.619973 -0.413307 0.335514 41 175 127
-0.526948 0.309567 0.297464 41 175 127
0.393848 0.444098 0.079658 47 105 141
-0.519480 -0.467805 -0.090442 35 137 141
-0.431174 -0.493043 -0.229685 71 37 117
0.473380 0.205891 0.021972 33 142 140
-0.269271 0.416399 -0.105562 68 1 84
-0.403728 0.448777 0.113358 31 148 139
-0.097895 0.277891 -0.231470 68 1 84
0.586779 -0.057920 0.163589 178 221 44
0.530410 -0.562240 0.059447 71 40 120
0.546449 -0.263481 0.012110 131 211 75
-0.693249 -0.476381 0.379979 109 206 88
-0.270199 0.549369 0.044950 42 119 142
-0.574707 0.180880 0.300374 43 177 125
0.584792 -0.016982 0.196114 186 222 39
-0.605254 -0.312456 0.063410 139 213 70
0.128369 0.241577 -0.189320 68 1 84
-0.624749 -0.059560 0.285475 96 201 96
0.539565 0.119373 0.117006 39 173 128
-0.589858 -0.123408 0.039284 175 220 46
-0.563169 0.040963 0.082007 87 198 101
0.503761 -0.024216 -0.043612 94 201 97
0.506128 -0.500100 -0.001130 59 81 138
-0.245638 -0.370922 -0.210601 68 1 84
0.377610 0.024698 -0.143956 67 59 131
-0.238661 0.556720 -0.029444 56 86 139
-0.648998 -0.162431 0.241844 107 205 89
-0.651091 -0.190329 0.210572 178 221 44
0.302057 0.197180 -0.166608 69 5 88
0.334407 -0.361463 -0.148436 71 20 102
0.542085 0.245732 0.393350 81 196 104
-0.626253 -0.170022 0.452419 30 156 137
0.369891 -0.423760 -0.205155 71 40 120
0.464108 0.024607 -0.070847 33 166 133
0.273562 0.155596 -0.189484 68 1 84
-0.132336 0.212937 -0.207050 68 1 84
0.554060 0.135095 0.176615 79 195 105
-0.097731 -0.420477 -0.308971 68 1 84
-0.194650 0.286770 -0.165890 68 1 84
-0.165523 -0.343984 -0.160506 68 1 84
-0.158399 0.602388 -0.065509 66 62 133
-0.081996 -0.334556 -0.271827 68 1 84
-0.679612 -0.517031 0.309689 114 207 85
0.572608 0.059872 0.194144 112 206 86
-0.244508 0.161424 -0.194338 68 1 84
-0.335142 0.072545 -0.173624 68 1 84
-0.648288 -0.436252 0.198798 126 210 78
-0.304553 0.249168 -0.149640 68 1 84
-0.109322 0.012798 -0.312508 68 1 84
-0.030148 0.559037 -0.177709 68 1 84
0.202148 -0.499426 -0.316206 68 1 84
0.080507 0.595392 -0.150978 69 53 128
0.428661 0.344272 0.034024 45 111 142
0.080886 -0.391377 -0.253158 68 1 84
0.597845 -0.056272 0.256879 183 221 41
0.298015 0.286515 -0.144964 68 1 84
0.587880 -0.004613 0.224323 107 205 89
-0.118363 0.358803 -0.197590 68 1 84
0.609822 -0.555234 0.292883 39 125 142
-0.016197 0.085137 -0.317141 68 1 84
-0.550596 0.059590 0.064473 85 198 102
0.611166 -0.418787 0.238935 73 193 109
0.078664 -0.362077 -0.189288 68 1 84
0.566380 -0.351982 0.067528 79 195 105
-0.313606 -0.345041 -0.203890 70 14 97
0.584910 0.022013 0.225424 79 195 105
-0.290607 -0.190914 -0.162807 68 1 84
-0.036340 0.390723 -0.211250 68 1 84
-0.439083 0.450111 0.338768 66 190 113
0.252084 -0.084666 -0.198473 68 1 84
0.608707 -0.349341 0.175739 109 206 88
0.553782 -0.150137 0.001087 141 214 68
0.450320 0.214242 -0.005324 40 123 142
0.503336 -0.217657 -0.046920 36 170 130
-0.077474 0.477457 -0.215590 68 1 84
-0.496395 0.341558 0.185238 54 184 119
-0.667370 -0.389325 0.285973 146 215 65
-0.014756 0.219898 -0.254523 68 1 84
0.577774 0.110238 0.373026 131 211 75
-0.259204 -0.319097 -0.162469 68 3 87
-0.661751 -0.361634 0.234835 210 225 27
-0.353433 0.447524 0.021646 43 116 142
-0.288948 0.340708 -0.124252 68 1 84
0.427056 0.127879 -0.074882 31 163 134
0.605402 -0.156336 0.378818 205 224 29
0.541213 -0.361475 0.028042 31 163 134
0.000066 -0.069702 -0.467089 68 1 84
-0.108868 -0.206533 -0.279557 68 1 84
0.283736 0.354410 -0.128326 70 49 126
-0.444853 0.333682 0.054696 31 161 135
-0.638510 -0.118562 0.255841 183 221 41
0.618269 -0.383211 0.297660 62 188 115
0.188302 0.386988 -0.166718 68 1 84
-0.514968 0.120657 0.034752 62 188 115
-0.658894 -0.216753 0.239053 189 222 38
0.566680 0.105854 0.205869 40 174 127
0.212934 0.317880 -0.161358 68 1 84
-0.295046 -0.025280 -0.199930 68 1 84
0.611712 -0.171644 0.345504 149 215 63
-0.370239 0.401266 -0.002777 41 121 142
0.589448 -0.532616 0.209524 31 163 134
0.621308 -0.552532 0.340433 30 159 136
0.298878 0.545359 0.085384 53 93 140
-0.565071 -0.472669 0.002595 32 165 133
-0.505254 -0.341674 -0.070813 107 205 89
0.537395 0.275349 0.295326 96 201 96
-0.657214 -0.549051 0.231982 33 167 132
0.010901 0.214839 -0.259789 68 1 84
0.377743 0.493395 0.198754 50 99 141
0.594967 -0.085605 0.179800 139 213 70
0.535644 -0.483993 0.054453 44 113 142
-0.592655 0.032278 0.198405 71 192 110
0.415271 -0.258580 -0.097220 31 147 139
-0.212560 0.323673 -0.158390 68 1 84
0.140660 0.599353 -0.107617 71 38 118
-0.376722 0.504813 0.235425 69 191 111
0.455968 0.343282 0.082426 37 130 142
-0.542330 0.252935 0.215282 54 184 119
0.304308 -0.150457 -0.168124 61 74 137
0.618634 -0.454418 0.326653 56 185 118
-0.055701 0.368522 -0.209936 68 1 84
-0.606030 -0.527046 0.093380 71 192 110
-0.311195 -0.289473 -0.159697 58 82 139
0.483527 0.138902 0.006388 30 151 138
-0.471632 0.356129 0.132172 62 188 115
-0.189548 -0.419430 -0.266859 68 1 84
-0.095744 0.418299 -0.201561 68 1 84
0.264984 0.419800 -0.112204 72 29 111
-0.182006 0.332244 -0.171726 68 1 84
-0.075331 0.054360 -0.277329 68 1 84
-0.691600 -0.408004 0.418451 44 177 125
0.120135 0.595477 -0.129061 69 50 127
0.611364 -0.464267 0.277380 66 190 113
-0.520075 0.272971 0.165797 48 180 122
-0.223951 0.387952 -0.148709 68 1 84
-0.085566 -0.056425 -0.421891 68 1 84
0.587689 -0.521461 0.200915 44 177 125
0.414298 0.412263 0.074401 49 102 141
-0.668201 -0.315426 0.299183 181 221 43
0.343262 0.081475 -0.158416 59 80 138
0.613574 -0.255345 0.355190 126 210 78
-0.376572 0.079286 -0.145124 68 57 130
-0.185447 -0.086142 -0.234915 68 1 84
-0.152264 0.440665 -0.180464 68 1 84
0.211022 -0.178722 -0.182425 68 1 84
0.396382 -0.372709 -0.132336 46 108 142
-0.540420 -0.132227 -0.039327 59 186 117
0.457736 -0.044925 -0.099025 62 188 115
0.143518 0.014859 -0.270683 68 1 84
0.106184 -0.071708 -0.352757 68 1 84
-0.317051 0.045487 -0.186379 68 1 84
-0.033998 -0.086882 -0.453710 68 1 84
-0.112820 0.387876 -0.193322 68 1 84
-0.061468 -0.003397 -0.422900 68 1 84
0.520255 0.193901 0.107192 30 155 137
0.125954 -0.412781 -0.241084 68 1 84
0.470981 0.394402 0.382891 36 134 141
0.582659 -0.182559 0.058028 131 211 75
0.468141 0.405247 0.298274 31 162 134
0.105998 0.009025 -0.343453 68 1 84
0.167646 0.151303 -0.226768 68 1 84
-0.338716 -0.162767 -0.160804 68 1 84
-0.623697 -0.053653 0.294708 59 186 117
0.483356 -0.492458 -0.048578 45 110 142
0.450278 0.428787 0.299394 31 148 139
-0.301148 -0.291590 -0.160421 64 68 135
-0.423908 0.465263 0.290461 81 196 104
-0.426904 -0.420640 -0.218064 71 37 117
0.484617 0.114556 -0.004080 31 150 139
-0.281102 -0.356229 -0.216194 68 1 84
0.597877 -0.020169 0.296465 114 207 85
0.467657 0.345379 0.109328 35 136 141
0.151028 0.605015 -0.085460 70 49 126
0.328379 0.221626 -0.142327 72 33 114
0.194993 -0.200021 -0.177916 68 1 84
0.567035 -0.049486 0.060679 178 221 44
-0.405945 0.405325 0.056340 35 136 141
0.452911 0.195086 -0.011946 40 123 142
0.163655 -0.188839 -0.200743 68 1 84
0.391139 0.061162 -0.128202 45 111 142
0.380907 0.374156 -0.013285 53 92 140
0.110064 -0.262783 -0.185909 68 1 84
0.252234 0.535012 -0.056096 71 40 120
0.545392 0.056182 0.093825 144 214 67
-0.605138 -0.064996 0.115749 199 224 31
-0.635248 -0.098294 0.331443 83 197 103
0.592595 -0.180844 0.496652 59 186 117
-0.421156 0.183095 -0.070745 40 122 142
-0.127842 -0.414651 -0.292386 68 1 84
-0.291229 0.553474 0.146615 32 143 140
-0.646201 -0.238195 0.426081 37 171 129
-0.028272 -0.305311 -0.344796 68 1 84
-0.579388 0.160215 0.402871 48 180 122
-0.108494 -0.202804 -0.282824 68 1 84
0.575322 0.135294 0.295514 87 198 101
0.388123 0.469438 0.119324 49 102 141
0.367534 0.343239 -0.051895 67 59 131
0.643073 -0.561939 0.455899 30 153 138
0.542793 0.200715 0.501799 139 213 70
0.341549 0.299698 -0.103996 67 60 132
-0.554278 0.126179 0.136908 68 190 112
-0.609007 -0.469839 0.109318 170 219 50
-0.083802 -0.314075 -0.262695 68 1 84
0.513345 0.055913 0.008838 89 199 100
0.580930 -0.030977 0.455775 91 200 98
-0.710806 -0.532308 0.442855 112 206 86
-0.364047 -0.484737 -0.277366 68 1 84
-0.659501 -0.541236 0.241082 59 186 117
-0.575857 -0.058413 0.033322 146 215 65
-0.118650 -0.243642 -0.231771 68 1 84
0.062061 -0.250360 -0.315715 68 1 84
0.348967 0.421393 -0.022989 56 87 140
0.108619 -0.113517 -0.301744 68 1 84
-0.464191 0.185101 -0.010062 66 190 113
-0.597081 -0.520119 0.074172 83 197 103
0.347975 -0.514549 -0.253943 68 1 84
-0.515366 -0.463967 -0.100288 30 153 138
0.213574 -0.306168 -0.165136 68 1 84
0.497301 0.120620 0.020264 32 164 133
0.435177 -0.157493 -0.113688 37 171 129
0.236749 -0.485897 -0.306172 68 1 84
-0.614790 -0.076042 0.143983 170 219 50
0.096764 -0.173747 -0.299492 68 1 84
-0.310639 -0.428008 -0.254604 68 1 84
-0.516462 -0.482220 -0.100322 36 132 141
0.087930 0.033760 -0.279265 68 1 84
0.110622 -0.251884 -0.196129 68 1 84
-0.529487 0.006820 -0.011610 124 210 79
0.323109 -0.253215 -0.146381 62 72 136
-0.597225 -0.052964 0.100576 183 221 41
0.125427 0.394957 -0.189997 68 1 84
-0.328338 0.052176 -0.180223 68 1 84
-0.155908 -0.006486 -0.274976 68 1 84
0.564332 0.092587 0.489476 141 214 68
0.324031 -0.344028 -0.134994 70 14 97
-0.346314 0.103060 -0.161271 68 1 84
0.337665 -0.308500 -0.129938 66 64 133
0.376675 0.490471 0.152385 46 109 142
0.526759 0.287881 0.432543 40 174 127
0.557373 0.204691 0.289289 98 202 95
-0.302227 -0.251926 -0.161679 68 1 84
-0.234455 -0.165688 -0.185138 68 1 84
0.280925 0.355882 -0.129481 72 33 114
-0.201928 -0.375802 -0.191220 68 1 84
0.477511 0.391172 0.268080 31 146 140
0.515967 0.293877 0.470407 61 187 116
-0.627100 -0.472634 0.151449 134 212 73
-0.546409 0.224847 0.523737 59 81 138
0.555786 0.021525 0.097605 100 203 93
0.186719 0.290331 -0.172237 68 1 84
-0.369265 0.471871 0.087889 37 130 142
-0.411406 -0.404770 -0.213768 72 34 115
0.567443 0.137488 0.235340 89 199 100
0.590977 0.018631 0.267254 119 208 82
-0.207869 -0.082359 -0.225289 68 1 84
0.094392 0.513134 -0.202926 70 11 94
0.409988 -0.528656 -0.198530 68 1 84
0.424274 -0.093392 -0.122929 32 165 133
0.610506 -0.142871 0.338853 162 218 55
0.020374 0.528057 -0.202292 68 1 84
-0.093888 0.554906 -0.183350 68 1 84
-0.523636 -0.053297 -0.046884 81 196 104
-0.345908 -0.010126 -0.176747 68 1 84
-0.168670 0.599319 -0.051797 65 66 134
0.084545 0.245063 -0.215827 68 1 84
0.426650 0.235305 -0.027505 50 99 141
-0.320021 0.483463 0.010660 62 73 137
0.383220 -0.278600 -0.109223 44 113 142
-0.205963 -0.041877 -0.224634 68 1 84
-0.615003 -0.330607 0.085510 79 195 105
0.488748 -0.254159 -0.047821 48 180 122
0.524195 0.291940 0.440746 81 196 104
0.573823 -0.538502 0.168832 44 112 142
0.068476 0.023532 -0.284339 68 1 84
0.474259 -0.450673 -0.077659 33 141 140
0.260353 -0.328933 -0.162387 68 1 84
-0.154911 0.247219 -0.176795 68 1 84
-0.604628 0.046940 0.350498 47 179 123
-0.414556 0.413045 0.081798 31 150 139
0.299738 0.300257 -0.138784 68 1 84
0.615238 -0.420507 0.285977 54 184 119
0.031807 -0.086286 -0.453656 68 1 84
0.480595 -0.022262 -0.069973 66 190 113
-0.671938 -0.499989 0.285467 129 211 76
0.288902 0.273638 -0.154790 68 1 84
0.057312 -0.027238 -0.440836 68 1 84
-0.032673 -0.390778 -0.322578 68 1 84
0.501455 0.167604 0.052040 30 159 136
0.365289 -0.232916 -0.133457 37 130 142
0.264792 0.428489 -0.109051 72 26 108
-0.025840 0.140841 -0.281992 68 1 84
-0.083853 -0.131055 -0.371402 68 1 84
0.142003 -0.004905 -0.304938 68 1 84
-0.241938 0.288516 -0.154962 68 1 84
-0.097421 0.212221 -0.226387 68 1 84
-0.277078 -0.436651 -0.269460 68 1 84
0.352551 -0.171543 -0.153517 42 119 142
0.464380 -0.426587 -0.094297 34 139 141
-0.081498 -0.438371 -0.322443 68 1 84
0.023963 0.619298 -0.107035 70 12 95
-0.492427 0.016120 -0.054303 30 154 137
-0.113608 -0.145652 -0.299979 68 1 84
0.610841 -0.262822 0.154962 131 211 75
-0.442288 -0.358967 -0.151051 35 137 141
-0.484142 0.122538 -0.016765 62 188 115
-0.059617 0.411277 -0.209934 68 1 84
0.401176 0.188951 -0.080574 53 92 140
-0.414644 0.472827 0.267290 100 203 93
-0.543806 0.281065 0.409051 32 165 133
-0.445478 -0.272627 -0.082415 41 175 127
-0.652405 -0.188982 0.221151 173 220 48
-0.653968 -0.183118 0.291880 139 213 70
0.396557 0.381835 0.016048 56 87 140
0.595544 -0.023164 0.270519 183 221 41
0.531363 -0.363618 0.014034 35 168 131
-0.206122 0.582182 -0.023981 67 59 131
-0.564726 0.218464 0.394922 43 177 125
-0.375748 0.480357 0.117931 32 144 140
0.254278 0.213439 -0.189258 68 1 84
-0.247772 -0.251655 -0.166701 68 1 84
-0.518079 0.322422 0.278632 43 177 125
0.483138 0.194493 0.031090 36 133 141
-0.287187 0.318412 -0.133639 68 1 84
-0.263890 0.036691 -0.203903 68 1 84
-0.132396 -0.285657 -0.176558 68 1 84
-0.013838 -0.397044 -0.324547 68 1 84
-0.276893 -0.310730 -0.159292 69 53 128
-0.693121 -0.409861 0.424176 64 189 114
-0.601814 0.016969 0.227699 81 196 104
-0.664834 -0.264142 0.277914 144 214 67
-0.641351 -0.248825 0.470388 36 134 141
0.240952 0.510796 -0.087982 72 30 112
-0.704475 -0.474588 0.416536 83 197 103
0.042182 -0.168360 -0.388582 68 1 84
-0.709978 -0.550733 0.426875 103 204 92
0.576515 0.111395 0.262822 56 185 118
0.364674 0.415085 -0.002823 60 78 138
-0.606348 0.044083 0.328814 69 191 111
0.264574 0.405837 -0.118562 68 1 84
-0.415477 -0.362130 -0.169050 53 92 140
0.603359 -0.150700 0.386487 186 222 39
-0.333529 0.531035 0.180558 31 162 134
-0.273454 0.391323 -0.112387 68 1 84
0.223042 -0.326321 -0.162106 68 1 84
-0.259306 0.557852 0.048941 39 124 142
0.529936 0.018688 0.016279 173 220 48
-0.463886 0.169256 -0.020105 42 176 126
-0.039807 0.041217 -0.338174 68 1 84
-0.335419 0.189836 -0.146745 68 1 84
0.272872 -0.030944 -0.197766 68 1 84
0.495446 0.179186 0.045623 34 137 141
-0.598934 0.085527 0.339024 30 158 136
-0.564830 -0.363780 -0.000277 103 204 92
0.550672 0.140460 0.517770 126 210 78
0.537865 -0.029310 0.004900 94 201 97
0.092001 0.312293 -0.230642 68 1 84
-0.090276 -0.419710 -0.311120 68 1 84
0.588151 -0.211723 0.076615 197 223 33
0.521729 0.272252 0.188232 59 186 117
