ply
format ascii 1.0
element vertex 1251
property float x
property float y
property float z
property uchar red
property uchar green
property uchar blue
end_header
-0.670853 -0.182784 0.328170 70 9 92
0.573505 -0.450372 0.072417 165 218 53
0.620974 0.135884 0.309511 60 77 138
0.394060 0.406550 -0.088665 60 77 138
0.584669 0.372620 0.342986 48 103 141
0.376934 -0.419577 -0.119383 47 179 123
0.607364 -0.082808 0.171371 42 118 142
-0.666479 -0.327266 0.355764 68 57 130
0.592712 -0.523338 0.224122 107 205 89
-0.357401 0.465950 -0.086295 71 40 120
0.632552 -0.016777 0.323769 63 69 135
0.571661 -0.142157 0.044472 33 140 141
0.298728 0.593367 -0.094111 45 110 142
0.202774 0.662005 -0.152463 48 103 141
-0.470796 -0.471642 -0.101006 42 176 126
0.416651 -0.261206 -0.108107 39 125 142
0.324242 -0.241804 -0.166112 62 73 137
-0.181126 0.478706 -0.212565 68 2 85
-0.229438 0.108265 -0.250579 68 1 84
-0.632767 -0.402441 0.303997 46 107 142
0.128332 0.424170 -0.252563 71 18 101
-0.243181 0.660754 -0.067928 63 69 135
0.667742 -0.183158 0.573895 72 25 107
-0.621833 0.199491 0.521272 68 1 84
0.503510 0.518970 0.354341 71 39 119
-0.596061 0.309753 0.348627 68 1 84
0.561996 -0.516448 0.021219 233 228 25
-0.502805 0.041890 -0.046323 72 34 115
0.663556 -0.127612 0.590248 68 1 84
0.278571 -0.439604 -0.125346 30 153 138
0.674073 -0.313252 0.379923 39 126 142
0.173634 -0.406555 -0.141650 43 116 142
-0.458866 0.134430 -0.094272 68 1 84
-0.204436 0.245135 -0.244833 68 1 84
-0.389333 0.606182 0.110891 59 80 138
-0.533315 0.090841 0.016005 71 43 122
0.685149 -0.247078 0.452475 49 100 141
0.508861 -0.273741 -0.018780 32 165 133
0.574332 -0.504972 0.109940 136 213 71
0.302080 -0.637785 -0.255872 42 176 126
0.261136 0.222074 -0.194626 68 1 84
0.460094 -0.520874 -0.134966 131 211 75
-0.566988 0.431443 0.359762 68 1 84
-0.148007 -0.079285 -0.365772 68 1 84
0.369963 0.529408 -0.034441 41 120 142
0.245940 -0.563342 -0.253061 41 175 127
-0.603836 0.277956 0.532507 68 1 84
0.606723 0.073586 0.227671 53 92 140
0.405468 -0.064158 -0.171041 59 81 138
-0.550793 -0.164832 0.006998 57 85 139
-0.180525 0.584918 -0.199198 68 1 84
0.314537 0.248855 -0.185266 68 1 84
0.122349 0.052229 -0.305581 68 1 84
-0.015184 0.001434 -0.496590 68 1 84
0.317559 0.539575 -0.100347 43 116 142
-0.323996 -0.559184 -0.237328 40 122 142
0.671863 -0.203432 0.543268 56 86 139
-0.557769 0.440583 0.321781 70 12 95
0.600222 0.186199 0.214289 61 76 137
-0.044308 0.172724 -0.367976 68 1 84
-0.391862 -0.373050 -0.119908 33 140 141
0.598223 -0.072875 0.133112 42 119 142
-0.369034 -0.005791 -0.189960 68 1 84
-0.498562 0.043773 -0.052190 71 44 123
0.010538 0.037538 -0.439343 68 1 84
0.667763 -0.433473 0.535224 69 53 128
0.256129 -0.396359 -0.148590 36 132 141
0.661328 -0.051800 0.594970 72 30 112
-0.343428 -0.425078 -0.115411 30 152 138
-0.654554 -0.028425 0.363220 68 1 84
-0.471618 0.465362 0.093309 60 77 138
0.621274 0.184588 0.334886 59 80 138
0.470813 0.540912 0.226814 64 67 135
0.493594 -0.175996 -0.073918 35 137 141
0.525164 0.051961 -0.008354 67 59 131
-0.566462 0.295307 0.182449 72 25 107
0.600923 0.322373 0.336572 41 121 142
-0.308942 0.636460 0.007057 51 96 141
-0.421203 0.057985 -0.146178 68 1 84
-0.392189 0.562816 0.052417 61 76 137
-0.287533 -0.049968 -0.228100 68 1 84
-0.027160 0.634999 -0.269232 60 78 138
-0.646386 -0.175363 0.251426 72 32 113
-0.009929 -0.336900 -0.394015 68 1 84
0.640157 -0.241588 0.243325 31 148 139
-0.271498 -0.480850 -0.181468 30 159 136
-0.590958 0.373401 0.462692 68 1 84
0.360431 0.359151 -0.141884 52 95 141
0.444262 0.464591 0.028581 46 107 142
0.376132 -0.323658 -0.117568 35 135 141
-0.133146 -0.233400 -0.281585 68 1 84
0.126410 -0.138702 -0.362115 71 24 106
-0.593489 -0.397685 0.141944 36 132 141
-0.089419 -0.423198 -0.250593 35 137 141
0.203001 0.378747 -0.233698 71 20 102
0.249332 -0.557134 -0.241094 30 158 136
0.620055 0.084546 0.295485 64 67 135
0.606578 0.299497 0.475527 62 72 136
0.638589 -0.420768 0.355632 30 152 138
-0.695230 -0.259475 0.489095 68 1 84
-0.235365 0.176839 -0.260896 68 1 84
-0.579887 0.285091 0.229855 68 1 84
-0.079487 0.168485 -0.355670 68 1 84
0.331735 0.197111 -0.197688 72 35 116
-0.086353 -0.161655 -0.423303 68 1 84
0.379655 0.374934 -0.121271 62 73 137
0.160717 -0.270273 -0.239967 72 32 113
0.622570 0.158217 0.326313 56 87 140
-0.600689 0.284195 0.345361 68 1 84
-0.473736 -0.206104 -0.061858 41 121 142
0.493824 -0.324348 -0.016340 33 166 133
0.515780 -0.171541 -0.049703 41 120 142
0.067453 0.405299 -0.284410 71 21 103
0.619036 0.177351 0.544158 71 18 101
0.269621 -0.317993 -0.157088 59 81 138
-0.066097 0.644532 -0.255625 69 53 128
0.628003 0.187130 0.404660 60 77 138
-0.693756 -0.324698 0.469875 72 29 111
0.039291 -0.443326 -0.308170 71 42 121
0.373348 0.195531 -0.175623 69 52 127
0.407875 -0.082215 -0.166536 57 85 139
-0.113971 -0.071182 -0.447798 68 1 84
-0.219629 0.436122 -0.209065 70 14 97
0.571538 0.081347 0.092162 49 100 141
-0.485696 0.223847 -0.034796 68 1 84
-0.607851 0.220118 0.326462 68 1 84
-0.608032 0.192020 0.304954 69 5 88
-0.061211 0.554161 -0.282262 70 11 94
-0.484858 -0.402741 -0.034407 44 177 125
0.579272 -0.441265 0.100711 112 206 86
-0.472416 -0.530133 -0.150045 38 172 129
-0.436922 0.392779 -0.033234 71 18 101
-0.699736 -0.451189 0.512211 58 82 139
-0.135817 -0.560640 -0.308261 42 119 142
-0.541988 0.050685 0.023172 71 40 120
0.238594 0.217321 -0.219016 68 3 87
-0.272577 -0.031533 -0.235271 68 1 84
-0.362386 -0.455338 -0.130323 54 184 119
-0.053542 -0.392504 -0.323008 51 97 141
-0.542801 0.498779 0.356659 72 33 114
-0.375617 0.621152 0.109120 60 78 138
-0.026247 -0.036506 -0.527488 68 1 84
0.498849 0.310425 0.011047 44 113 142
-0.667762 -0.115198 0.547016 68 1 84
0.591561 0.029224 0.141338 45 111 142
-0.657320 -0.258486 0.286217 68 57 130
-0.315687 -0.489760 -0.196679 51 182 121
-0.542915 0.146369 0.047941 72 28 110
0.658118 -0.015167 0.542728 71 38 118
0.287378 -0.510474 -0.199637 42 176 126
-0.591014 -0.523396 0.182597 39 173 128
-0.580867 0.283504 0.232829 70 12 95
-0.437546 -0.291497 -0.069953 46 178 124
-0.480139 -0.620565 -0.144246 129 211 76
0.500809 0.461307 0.159730 57 84 139
-0.035451 -0.072869 -0.534093 68 1 84
0.005387 -0.014343 -0.520106 68 1 84
0.613041 0.273045 0.366563 63 69 135
-0.524376 0.335078 0.088359 67 58 131
-0.679120 -0.202178 0.542894 68 1 84
0.500291 0.227816 -0.018106 41 121 142
-0.651781 -0.326310 0.298626 61 75 137
-0.514022 -0.034267 -0.040932 72 26 108
-0.664499 -0.447504 0.426743 49 102 141
0.202082 0.277934 -0.245329 68 1 84
-0.421664 0.123774 -0.138596 68 1 84
-0.227246 -0.006066 -0.240034 68 1 84
-0.616732 0.198586 0.359630 68 1 84
-0.670362 -0.069361 0.550585 68 1 84
0.394266 0.107277 -0.176486 60 77 138
-0.427639 0.581635 0.154356 64 68 135
0.580008 0.153433 0.135844 46 107 142
-0.000850 -0.271593 -0.437770 68 1 84
0.397305 -0.653733 -0.202808 35 135 141
-0.692292 -0.242209 0.485860 68 1 84
0.606315 0.202120 0.246184 58 82 139
0.604614 0.012296 0.202257 44 113 142
-0.707556 -0.409047 0.538473 71 38 118
0.272923 0.532937 -0.154767 44 113 142
0.111855 -0.449756 -0.226184 34 137 141
-0.509744 -0.421547 -0.031237 38 172 129
0.209202 0.262059 -0.226760 68 1 84
-0.312287 0.385561 -0.173231 68 1 84
0.611051 -0.489503 0.328460 35 137 141
0.674449 -0.211670 0.588836 72 28 110
-0.129450 -0.449011 -0.209309 34 137 141
0.268493 -0.457908 -0.125069 32 164 133
-0.442831 -0.526362 -0.163822 42 176 126
0.078104 0.173066 -0.364564 68 1 84
0.375245 0.573602 0.018855 50 98 141
-0.298150 0.377830 -0.184233 68 1 84
-0.293968 0.589438 -0.067365 61 76 137
-0.482190 0.264812 -0.026464 71 24 106
-0.687216 -0.422534 0.460504 61 76 137
-0.575523 -0.353258 0.088270 30 154 137
-0.186072 0.472968 -0.212280 68 1 84
-0.520549 0.519431 0.288490 67 59 131
-0.549361 -0.178540 0.008076 49 100 141
0.253124 0.621715 -0.141075 47 105 141
0.649025 0.036787 0.536094 71 18 101
0.491777 -0.364853 -0.009514 47 179 123
-0.446231 0.372650 -0.031348 72 29 111
0.283392 0.233920 -0.185845 68 1 84
0.061358 0.270092 -0.337402 68 1 84
-0.645481 0.012325 0.352392 68 1 84
-0.640385 -0.225894 0.219939 62 73 137
0.607244 -0.314463 0.157920 32 164 133
-0.568625 0.390727 0.293690 71 21 103
0.429384 0.035453 -0.153114 54 91 140
0.045975 0.218029 -0.352924 68 1 84
-0.584112 0.066035 0.132428 70 14 97
-0.448661 0.188685 -0.097456 69 6 90
0.494356 -0.195294 -0.068350 32 144 140
0.561194 0.259834 0.120477 45 111 142
-0.384722 0.189670 -0.162703 68 1 84
0.553185 0.340703 0.154526 59 81 138
0.092204 -0.563155 -0.318317 31 147 139
0.332926 0.379147 -0.151251 61 74 137
0.669593 -0.161394 0.527124 68 57 130
-0.652936 0.054138 0.436034 68 1 84
-0.338323 0.172665 -0.200087 68 1 84
0.553352 -0.064550 0.019821 40 122 142
-0.263905 -0.318682 -0.148712 35 136 141
0.410395 0.006262 -0.171874 61 76 137
0.312443 -0.526748 -0.211507 66 190 113
-0.641423 0.080909 0.384159 68 1 84
0.400289 -0.295840 -0.107436 39 125 142
-0.415575 -0.229404 -0.098585 33 142 140
0.167269 -0.566436 -0.302278 30 153 138
-0.510863 0.528145 0.269904 68 55 129
0.561767 -0.363411 0.071786 71 192 110
0.631228 0.113178 0.563358 72 28 110
-0.213315 0.169552 -0.271996 68 1 84
0.347477 -0.012773 -0.215745 71 38 118
0.179026 -0.439943 -0.143627 42 118 142
0.620332 0.216198 0.360045 56 87 140
0.670090 -0.464961 0.525103 58 82 139
0.437710 0.020694 -0.144391 51 97 141
-0.662773 -0.094802 0.352666 68 1 84
0.613054 -0.491985 0.340875 42 119 142
-0.560494 0.437533 0.332969 70 11 94
0.313743 -0.443256 -0.122402 51 182 121
0.598832 -0.332764 0.140264 34 167 132
-0.653272 -0.021281 0.362310 68 1 84
-0.238761 0.401751 -0.210674 70 11 94
0.585306 0.256209 0.187019 62 73 137
0.009664 0.416175 -0.285879 68 1 84
0.424549 0.115441 -0.150132 65 65 134
-0.116865 0.220783 -0.326029 68 1 84
0.196037 -0.207835 -0.236867 56 86 139
-0.610112 -0.204584 0.129894 56 86 139
-0.569190 0.405835 0.323401 71 17 99
0.493313 0.494081 0.198162 60 78 138
0.129693 0.249429 -0.307805 68 1 84
-0.652131 0.057605 0.485325 68 1 84
-0.147903 -0.127840 -0.288114 68 1 84
0.085160 0.429150 -0.262524 69 6 90
0.066112 -0.148888 -0.484904 68 1 84
-0.052743 0.559273 -0.286756 70 11 94
0.494699 0.157614 -0.042896 57 84 139
0.132911 -0.132406 -0.355648 68 1 84
0.297010 0.360503 -0.176770 68 57 130
0.012321 -0.289917 -0.424353 68 1 84
0.194511 0.092429 -0.273383 68 1 84
-0.613942 -0.437717 0.254800 35 136 141
0.366805 -0.227153 -0.150050 55 89 140
0.245768 -0.578395 -0.271796 35 168 131
0.282325 0.643410 -0.059289 46 107 142
-0.528648 0.488568 0.271793 68 55 129
-0.492188 -0.200929 -0.048039 40 123 142
0.554855 -0.006677 0.034675 45 110 142
-0.604812 -0.481901 0.243541 30 154 137
0.370554 0.621971 0.118126 54 91 140
-0.162816 -0.041736 -0.359767 68 1 84
0.593233 -0.491810 0.215861 98 202 95
0.550935 0.418063 0.233577 57 84 139
-0.311232 -0.094498 -0.205378 68 1 84
-0.341716 -0.475304 -0.187784 47 179 123
0.029252 0.012103 -0.487497 68 1 84
0.612780 0.278460 0.396658 57 85 139
-0.389981 0.494349 -0.020961 60 78 138
0.617584 0.251996 0.387248 59 80 138
0.602938 0.182340 0.226259 67 58 131
-0.083452 -0.007739 -0.397070 68 1 84
-0.158260 -0.055311 -0.364323 68 1 84
-0.160956 -0.034702 -0.367863 68 1 84
-0.049270 -0.390583 -0.328562 61 76 137
-0.268330 -0.587892 -0.274694 30 160 135
-0.173535 0.255803 -0.254006 68 1 84
0.196226 0.000508 -0.246625 68 1 84
-0.260207 0.418329 -0.191353 72 29 111
0.523532 -0.610865 -0.054185 181 221 43
-0.500195 0.272684 0.007744 72 26 108
-0.579626 0.413265 0.432795 68 1 84
0.075175 -0.134174 -0.490099 68 1 84
0.153002 -0.575087 -0.306077 32 144 140
-0.066547 -0.189712 -0.439663 68 1 84
-0.641921 0.030871 0.350325 68 1 84
-0.511103 -0.171174 -0.041750 54 91 140
0.533814 0.328994 0.096008 68 57 130
-0.617950 0.220871 0.515217 68 1 84
-0.315011 0.195975 -0.216012 68 1 84
-0.487222 0.046096 -0.068195 69 52 127
-0.330912 0.649188 0.084660 59 80 138
0.370091 -0.199013 -0.158532 41 121 142
0.517781 0.132898 -0.007144 59 80 138
-0.706346 -0.396872 0.522231 72 28 110
-0.669208 -0.083735 0.542525 68 1 84
-0.156950 0.188157 -0.312829 68 1 84
-0.267806 -0.310913 -0.148696 36 132 141
0.344647 -0.284887 -0.139492 45 111 142
0.471595 0.230696 -0.066520 48 103 141
0.480335 -0.140272 -0.091792 52 95 141
0.200007 0.664264 -0.151493 52 95 141
0.542835 0.461262 0.435076 71 44 123
0.607945 0.261815 0.291972 52 94 141
-0.631838 0.157208 0.413015 68 1 84
-0.355267 0.411849 -0.126276 69 5 88
-0.073249 -0.296969 -0.361614 71 21 103
0.357631 0.453322 -0.098665 48 104 141
-0.534171 0.507174 0.324634 72 34 115
0.258653 -0.506983 -0.197581 43 177 125
0.338130 0.295511 -0.173109 72 33 114
0.489090 0.096390 -0.063418 63 69 135
-0.525184 -0.133472 -0.032718 58 82 139
-0.558400 0.017216 0.046418 70 45 124
-0.050426 0.302736 -0.344405 68 1 84
0.205296 0.635066 -0.184122 51 97 141
0.474473 0.090268 -0.087302 69 50 127
0.542074 0.415430 0.201835 55 88 140
-0.544603 -0.587645 -0.038717 100 203 93
-0.314745 0.238199 -0.211307 68 1 84
-0.327929 0.535376 -0.066397 66 64 133
0.182419 -0.034522 -0.262272 71 38 118
0.158009 -0.219988 -0.267635 70 49 126
-0.300686 -0.021372 -0.226804 68 1 84
0.620531 0.201571 0.343916 55 88 140
-0.565172 0.262110 0.157729 71 37 117
0.241918 0.502372 -0.185806 58 82 139
-0.509935 -0.217192 -0.023409 50 99 141
-0.164299 -0.177423 -0.267074 68 1 84
0.185430 -0.476642 -0.185071 31 161 135
-0.549119 -0.204372 0.016637 40 123 142
-0.533991 0.441368 0.221117 71 43 122
-0.440974 0.124555 -0.117819 68 2 85
-0.151354 -0.583729 -0.306944 35 137 141
0.184020 -0.026544 -0.335773 68 1 84
0.664532 -0.128627 0.383086 41 121 142
0.177145 -0.032934 -0.364183 68 1 84
-0.437301 0.458787 0.021099 65 66 134
0.668393 -0.089013 0.461417 57 84 139
-0.441820 -0.343576 -0.072779 43 177 125
-0.712049 -0.367630 0.560305 68 1 84
-0.253252 0.052697 -0.235607 68 1 84
0.606051 -0.139906 0.146463 46 109 142
0.623419 0.221084 0.448114 61 75 137
0.123303 0.428959 -0.252242 72 26 108
0.445769 0.508984 0.085870 52 94 141
-0.709197 -0.386668 0.536936 71 15 98
0.695076 -0.316797 0.525725 61 74 137
0.513183 -0.297956 -0.002731 33 141 140
0.018887 0.501762 -0.286583 70 9 92
-0.695379 -0.269730 0.485092 68 1 84
-0.631024 -0.147200 0.203905 66 64 133
0.557864 -0.179731 0.015537 35 168 131
-0.059300 0.707510 -0.183779 70 45 124
0.376036 0.582806 0.032613 47 105 141
-0.086470 0.212577 -0.345377 68 1 84
0.671111 -0.178302 0.396211 51 96 141
-0.166847 -0.021453 -0.345871 68 1 84
-0.583625 -0.435319 0.106403 30 151 138
-0.500072 0.493336 0.191272 65 66 134
-0.058617 0.153344 -0.359219 68 1 84
0.440178 0.527266 0.101282 58 82 139
-0.208477 0.258337 -0.224500 68 1 84
0.619213 0.241343 0.461426 65 65 134
-0.148764 -0.526194 -0.289929 35 137 141
-0.123528 0.055868 -0.287905 68 1 84
0.243190 0.643668 -0.129021 48 103 141
-0.641090 -0.053969 0.296908 70 9 92
0.507850 0.513573 0.304992 67 59 131
0.238889 -0.455177 -0.127169 32 164 133
0.134485 -0.149691 -0.320536 70 9 92
-0.322047 0.463683 -0.123145 71 37 117
-0.342092 0.489754 -0.085641 71 39 119
0.669772 -0.236159 0.351916 42 119 142
-0.625640 -0.044620 0.240367 68 3 87
-0.449267 0.231653 -0.087423 71 15 98
-0.425334 -0.596527 -0.201511 77 194 107
0.262670 -0.338358 -0.155398 67 59 131
0.345252 -0.589219 -0.223794 30 153 138
0.418161 -0.347570 -0.092888 30 156 137
0.673223 -0.130195 0.475943 69 50 127
-0.008997 0.491902 -0.279776 68 1 84
0.491588 0.455169 0.128430 55 89 140
-0.101904 -0.071907 -0.470423 68 1 84
0.022303 0.118223 -0.349225 68 1 84
-0.606629 0.297201 0.512873 68 1 84
0.360920 0.616733 0.055285 53 93 140
-0.470589 -0.457660 -0.089572 64 189 114
-0.469992 0.290547 -0.035951 70 14 97
-0.659440 -0.342424 0.343973 66 61 132
-0.290330 0.093690 -0.226616 68 1 84
-0.486165 0.485162 0.148094 64 68 135
0.275875 0.078139 -0.231282 68 1 84
-0.092897 -0.088427 -0.482875 68 1 84
0.575975 0.159347 0.125666 48 104 141
-0.354704 -0.473047 -0.188182 50 181 122
0.571773 -0.342172 0.084892 30 159 136
-0.575941 0.390671 0.339868 68 1 84
0.202024 0.620398 -0.198857 43 115 142
0.521927 -0.311768 0.013393 30 158 136
-0.545706 0.403347 0.214067 72 28 110
0.504677 0.314382 0.023928 52 94 141
-0.160192 -0.417702 -0.157441 33 141 140
-0.643461 -0.076920 0.291353 70 14 97
0.232114 0.018491 -0.239650 68 1 84
0.310492 -0.562026 -0.221590 30 153 138
-0.656619 -0.046777 0.360455 68 1 84
-0.594542 -0.401224 0.149206 37 130 142
0.602923 0.265943 0.261885 51 97 141
0.525545 0.193286 0.019918 42 118 142
0.045502 0.208913 -0.361988 68 1 84
0.670932 -0.198479 0.383685 44 114 142
0.624312 -0.392305 0.272485 31 162 134
-0.315455 -0.450428 -0.122867 31 163 134
0.549697 -0.530796 -0.027579 253 231 36
-0.034238 0.587462 -0.288603 72 35 116
0.492393 -0.340201 -0.013206 33 167 132
-0.545395 0.285605 0.111307 71 24 106
0.435654 0.291127 -0.097593 47 106 141
0.571876 -0.327553 0.080478 30 158 136
0.692197 -0.286978 0.488454 49 100 141
0.346772 0.259552 -0.178372 70 47 124
-0.663514 -0.098625 0.352761 68 1 84
0.062519 0.508828 -0.282775 71 40 120
-0.424533 -0.593865 -0.201923 83 197 103
-0.078819 0.233703 -0.328516 68 1 84
-0.355269 0.466494 -0.088387 71 44 123
-0.668378 -0.028804 0.519108 68 1 84
-0.613218 -0.400355 0.220758 41 121 142
0.581219 -0.204243 0.067096 43 177 125
0.498524 0.449009 0.137466 49 101 141
0.079923 0.295414 -0.341277 68 1 84
-0.495341 0.001489 -0.062480 69 53 128
-0.682498 -0.141396 0.447200 68 1 84
-0.344256 0.289822 -0.180314 69 5 88
0.052988 -0.417749 -0.308295 59 81 138
0.269449 -0.580992 -0.257419 31 161 135
-0.594757 -0.430163 0.168738 30 153 138
0.283141 0.100280 -0.229101 68 1 84
-0.159723 0.132638 -0.296301 68 1 84
-0.353099 -0.283605 -0.124322 30 160 135
-0.655678 -0.012580 0.378527 68 1 84
-0.500223 0.409903 0.097570 57 85 139
0.493143 -0.164108 -0.076567 51 97 141
0.537502 0.413638 0.188467 58 82 139
-0.688366 -0.270918 0.462814 68 1 84
0.637808 -0.264572 0.236629 31 147 139
0.535160 0.283530 0.070714 62 73 137
0.513056 -0.443134 -0.028001 170 219 50
0.627410 0.198692 0.447610 56 86 139
-0.411578 -0.322247 -0.100104 30 158 136
0.570753 0.141322 0.106393 45 111 142
-0.243616 0.154277 -0.255429 68 1 84
0.614501 -0.076938 0.211633 47 105 141
-0.513121 0.452841 0.174958 67 59 131
0.016358 0.037596 -0.430409 68 1 84
-0.479438 -0.350834 -0.020541 40 174 127
-0.532939 0.392289 0.162220 69 54 129
0.087292 -0.552285 -0.317170 31 146 140
0.521383 0.498238 0.313242 65 65 134
-0.563493 0.059692 0.069910 72 25 107
0.240785 -0.307148 -0.169788 66 64 133
0.303083 -0.580224 -0.235674 32 145 140
-0.489029 0.446397 0.110021 62 72 136
0.506613 0.059424 -0.039708 64 67 135
-0.516723 0.543932 0.372817 69 54 129
0.291554 0.068205 -0.227341 68 1 84
-0.196402 0.342984 -0.245950 68 1 84
-0.282336 -0.138444 -0.206787 68 1 84
0.497076 0.435508 0.116460 56 87 140
0.596517 0.128170 0.187879 59 80 138
0.116729 -0.397364 -0.205797 47 106 141
0.007628 -0.087686 -0.538744 68 1 84
0.440231 -0.349676 -0.072604 39 173 128
0.691863 -0.313754 0.469738 42 117 142
0.531537 -0.447336 -0.013209 202 224 30
-0.414131 0.610127 0.197881 71 42 121
-0.325895 -0.107202 -0.194254 68 1 84
-0.312153 0.458168 -0.135165 72 29 111
0.346571 0.033366 -0.215038 71 24 106
-0.311288 -0.353024 -0.149170 34 138 141
-0.120585 -0.181485 -0.317837 68 1 84
0.512453 0.381778 0.091535 52 94 141
-0.006121 -0.463806 -0.316893 55 88 140
-0.463211 0.469970 0.080550 58 82 139
0.207954 0.215463 -0.255640 68 1 84
0.169655 0.208181 -0.298081 70 9 92
-0.403759 0.015209 -0.163309 68 1 84
-0.051773 -0.200729 -0.452532 68 1 84
-0.420399 0.352097 -0.081669 71 18 101
0.618980 0.228175 0.361208 61 76 137
0.577133 0.041514 0.097424 52 94 141
-0.445944 0.046205 -0.120802 68 1 84
0.547986 -0.467882 -0.012596 186 222 39
-0.641675 -0.089013 0.277637 71 20 102
-0.145700 0.438513 -0.246244 68 1 84
0.181607 0.679933 -0.135534 61 75 137
-0.676556 -0.138835 0.386795 68 1 84
-0.133802 0.018184 -0.339587 68 1 84
-0.674756 -0.225613 0.350336 71 18 101
0.079555 -0.357588 -0.307370 68 1 84
0.122765 -0.016918 -0.415466 68 1 84
0.199332 0.083986 -0.267481 68 1 84
-0.534874 0.443525 0.226556 70 49 126
-0.652178 -0.346597 0.321485 60 78 138
0.655237 -0.006983 0.481321 63 69 135
-0.389411 0.273490 -0.142518 68 1 84
0.589028 0.121288 0.155675 49 101 141
0.294084 0.414727 -0.164741 59 80 138
-0.669738 -0.033191 0.562382 68 1 84
0.626588 0.147358 0.350458 53 92 140
-0.095496 0.031665 -0.325163 68 1 84
-0.677609 -0.207939 0.364614 70 14 97
0.635634 -0.310120 0.246762 31 149 139
-0.650957 -0.295782 0.276335 61 75 137
0.612899 0.261761 0.498293 68 55 129
0.627888 -0.246123 0.202872 33 167 132
0.029525 0.021172 -0.470360 68 1 84
0.190741 0.378364 -0.241851 71 24 106
0.497749 -0.107750 -0.073960 50 98 141
-0.613755 -0.140754 0.146117 59 81 138
0.089751 0.475999 -0.261224 68 2 85
0.304675 0.658940 0.048653 63 71 136
-0.410616 -0.513340 -0.174563 30 154 137
-0.131326 -0.551879 -0.308221 33 140 141
-0.254746 0.170863 -0.251233 68 1 84
-0.528822 0.294544 0.074599 71 44 123
0.581484 0.383005 0.370547 46 107 142
-0.607068 0.142887 0.268776 68 1 84
0.286690 -0.326600 -0.150344 60 78 138
0.296836 -0.491385 -0.154452 50 181 122
0.176192 -0.367289 -0.163858 56 86 139
-0.298625 0.200368 -0.227606 68 1 84
-0.208224 0.264647 -0.221436 68 1 84
0.582020 -0.438712 0.115037 170 219 50
0.361364 -0.469137 -0.132993 51 182 121
-0.661396 0.037906 0.566995 68 1 84
0.667413 -0.228372 0.338278 37 130 142
-0.644216 -0.251409 0.237615 64 67 135
0.667096 -0.112481 0.518223 67 59 131
-0.619288 0.230016 0.425273 68 1 84
-0.608285 0.073256 0.241359 68 1 84
0.580642 -0.460742 0.118550 157 217 58
-0.560647 0.006144 0.048806 67 59 131
-0.369863 0.208498 -0.171823 68 1 84
-0.024404 -0.316128 -0.404471 68 1 84
-0.004777 0.073660 -0.355462 68 1 84
0.125358 -0.022786 -0.426981 68 1 84
-0.568743 0.431735 0.375069 68 1 84
0.364717 0.234946 -0.174864 68 55 129
0.419666 0.140873 -0.149255 58 83 139
-0.306912 0.031151 -0.226941 68 1 84
-0.197898 0.353103 -0.243989 68 1 84
0.199938 -0.531536 -0.239287 31 161 135
0.417777 0.141816 -0.150719 54 90 140
0.524440 0.361988 0.101436 55 89 140
0.388791 0.271148 -0.147610 66 61 132
-0.690860 -0.384257 0.435084 66 62 133
-0.188679 0.518937 -0.196834 71 20 102
0.585072 -0.478936 0.174945 94 201 97
-0.172302 -0.158900 -0.263615 68 1 84
0.609540 0.137412 0.248952 59 80 138
-0.381947 0.618912 0.120011 63 71 136
0.510950 -0.425507 -0.014779 162 218 55
-0.214812 -0.217088 -0.212092 68 2 85
-0.029400 0.327607 -0.344548 68 1 84
-0.002141 -0.047756 -0.537211 68 1 84
-0.661015 0.013522 0.498217 68 1 84
0.616259 0.212577 0.313239 56 87 140
-0.055816 0.158221 -0.361792 68 1 84
-0.563257 -0.434104 0.027461 62 188 115
-0.105701 0.039534 -0.313281 68 1 84
-0.252815 0.032219 -0.236170 68 1 84
0.658366 -0.008347 0.558130 70 12 95
-0.651451 0.052831 0.414472 68 1 84
0.256417 0.247097 -0.184550 68 1 84
-0.641000 -0.201922 0.223978 70 48 125
0.629325 -0.435032 0.334954 35 136 141
-0.424193 0.289213 -0.102592 69 5 88
-0.091456 -0.090049 -0.484878 68 1 84
0.130670 -0.530532 -0.294283 42 176 126
0.193046 0.551510 -0.226344 63 71 136
0.048909 -0.555016 -0.318292 44 112 142
-0.695984 -0.251093 0.533654 68 1 84
-0.168224 -0.057990 -0.316145 68 1 84
0.606371 -0.072524 0.170450 41 121 142
-0.359450 -0.407331 -0.116503 31 148 139
0.144431 -0.008609 -0.380138 68 1 84
0.606387 -0.512404 0.289977 35 169 130
0.563372 -0.007400 0.052259 36 132 141
0.627786 0.179266 0.491361 68 57 130
0.135313 -0.037381 -0.433500 68 1 84
-0.491754 0.307851 0.008714 71 44 123
-0.548405 -0.444480 -0.011031 48 180 122
0.452699 0.363054 -0.039288 57 84 139
-0.136705 0.026078 -0.316144 68 1 84
-0.582470 -0.498244 0.149567 44 177 125
-0.465164 0.314106 -0.033204 72 34 115
0.193964 0.332209 -0.252746 67 59 131
0.651340 0.024907 0.468142 69 54 129
0.601689 0.320767 0.343266 42 118 142
-0.626296 0.120012 0.343334 68 1 84
-0.255683 -0.209756 -0.193987 58 83 139
0.637188 0.112062 0.408258 60 77 138
-0.229291 -0.382430 -0.134952 37 131 141
0.579400 -0.192221 0.062018 41 175 127
0.062274 0.336712 -0.334155 72 30 112
-0.412912 0.587523 0.130667 65 66 134
-0.635228 0.156267 0.504552 68 1 84
0.014691 0.634823 -0.267683 51 96 141
0.110337 -0.316824 -0.282156 68 1 84
0.624825 0.142020 0.335301 56 87 140
-0.511528 -0.131535 -0.049023 49 100 141
0.057564 0.679428 -0.218169 52 94 141
-0.333745 0.547756 -0.050117 64 68 135
-0.646435 -0.137194 0.268931 71 20 102
0.631541 0.168753 0.420084 64 68 135
-0.212371 0.456819 -0.204415 72 30 112
-0.281938 0.515232 -0.126301 71 24 106
0.463943 0.059785 -0.107202 60 77 138
-0.618301 -0.088242 0.183501 69 53 128
0.579857 0.212057 0.152853 55 88 140
-0.173056 -0.044616 -0.269053 68 1 84
-0.644251 0.098934 0.430989 68 1 84
-0.266486 -0.036768 -0.236222 68 1 84
-0.670629 -0.214000 0.327649 72 26 108
0.016769 0.559355 -0.294151 72 33 114
-0.565628 0.307227 0.188591 72 32 113
0.382871 0.349083 -0.130299 61 75 137
-0.275129 0.291391 -0.206818 68 1 84
-0.231583 -0.535751 -0.256363 30 160 135
-0.579693 0.302064 0.242190 70 9 92
-0.371773 0.387552 -0.122496 68 2 85
-0.119006 -0.204878 -0.313571 68 1 84
0.665965 -0.287204 0.327315 39 126 142
-0.408457 0.242528 -0.131160 69 5 88
0.560439 0.388838 0.225282 56 87 140
0.435140 0.136809 -0.134843 61 75 137
-0.619812 -0.482733 0.304723 31 146 140
-0.667581 -0.018807 0.518116 68 1 84
-0.508802 0.006681 -0.042924 63 71 136
0.066353 -0.286618 -0.382368 68 1 84
-0.126062 0.604729 -0.238050 71 22 105
0.108712 -0.435152 -0.220854 48 104 141
0.608785 0.269250 0.308223 62 72 136
0.112415 -0.319211 -0.275595 70 14 97
0.610963 0.237252 0.530035 68 1 84
0.433676 0.569667 0.184353 52 94 141
-0.564634 0.214825 0.130776 72 26 108
-0.175908 0.522720 -0.205163 68 1 84
-0.333370 -0.477068 -0.188699 51 182 121
0.643747 -0.363449 0.318884 32 145 140
0.404708 0.510349 0.001456 44 114 142
0.455468 -0.519923 -0.136367 151 216 62
-0.628773 0.178635 0.424270 68 1 84
0.206707 -0.272944 -0.205296 68 55 129
-0.584545 0.364497 0.526343 68 1 84
-0.511228 0.554154 0.344915 71 37 117
0.368583 -0.286060 -0.128104 36 133 141
-0.081395 -0.558289 -0.316340 36 134 141
-0.339017 0.306074 -0.181031 68 1 84
0.666511 -0.420853 0.479018 45 111 142
-0.626927 -0.015472 0.264188 71 20 102
-0.126250 -0.315563 -0.235641 33 140 141
-0.288836 0.503390 -0.127154 69 50 127
-0.675389 -0.478593 0.454869 48 104 141
0.621721 -0.125394 0.215454 40 122 142
0.410650 0.309701 -0.118512 54 90 140
-0.035251 -0.452352 -0.310861 45 110 142
-0.680495 -0.145315 0.475762 68 1 84
-0.635260 -0.038711 0.283379 68 1 84
0.062925 0.231827 -0.337412 68 1 84
0.457798 0.087902 -0.113077 61 76 137
0.604991 0.105409 0.222622 56 87 140
-0.469300 0.394765 0.022414 66 64 133
-0.334386 -0.496213 -0.204926 53 183 120
-0.246987 -0.347222 -0.149196 36 132 141
0.496929 0.121551 -0.046457 56 87 140
-0.216051 0.087010 -0.250418 68 1 84
0.610297 0.189989 0.264364 55 89 140
0.671458 -0.179741 0.399603 50 99 141
-0.022294 0.419647 -0.282681 71 20 102
-0.651803 -0.029240 0.351648 68 1 84
-0.706387 -0.291456 0.520215 68 1 84
-0.636125 0.100193 0.374273 68 1 84
-0.451523 -0.038464 -0.115364 69 53 128
0.179955 -0.073104 -0.297068 68 1 84
-0.429750 0.446484 -0.002811 62 73 137
-0.170493 -0.044719 -0.317393 68 1 84
0.535948 -0.151399 -0.023503 32 144 140
0.082656 -0.006938 -0.366636 68 1 84
-0.181960 -0.175314 -0.252678 68 1 84
0.446115 -0.573857 -0.167304 116 208 84
0.642779 -0.045989 0.352673 56 86 139
0.448213 -0.635760 -0.158913 68 190 112
0.041587 -0.249828 -0.433255 68 1 84
-0.197336 0.610241 -0.178283 72 26 108
0.653250 0.007338 0.516632 69 52 127
-0.563972 0.037905 0.064011 70 49 126
0.597011 0.132342 0.191516 54 91 140
0.614289 -0.450159 0.291486 33 142 140
-0.233894 0.653157 -0.094667 66 64 133
-0.670623 -0.099785 0.517736 68 1 84
0.586554 -0.472926 0.178912 91 200 98
0.537938 -0.133572 -0.020155 35 136 141
-0.627924 -0.191074 0.181426 56 86 139
0.573783 0.043901 0.089109 57 85 139
0.122011 0.405079 -0.267020 72 30 112
-0.418404 0.585006 0.138777 62 73 137
-0.711575 -0.363463 0.545560 68 1 84
-0.291750 0.136995 -0.227795 68 1 84
0.564365 -0.549130 0.060369 189 222 38
0.003288 -0.013304 -0.518891 68 1 84
0.243907 0.226809 -0.199706 68 1 84
-0.426265 0.523011 0.067807 59 80 138
0.446571 0.059416 -0.132078 65 65 134
-0.651512 0.034110 0.395603 68 1 84
-0.403252 0.393320 -0.081328 68 1 84
0.495031 -0.468348 -0.066082 154 216 60
-0.363980 0.041676 -0.195028 68 1 84
0.287833 0.623413 -0.080601 42 119 142
0.487312 0.350964 0.013722 50 99 141
0.540790 0.474440 0.363916 71 43 122
0.108238 -0.456898 -0.236463 37 131 141
-0.373205 -0.008254 -0.186411 68 1 84
0.688197 -0.300870 0.452620 44 113 142
0.066475 -0.573961 -0.317468 44 113 142
-0.551703 0.462162 0.331052 71 15 98
-0.679943 -0.285423 0.436332 69 8 91
0.521623 -0.578205 -0.069265 191 223 36
-0.005670 -0.079803 -0.539785 68 1 84
0.478676 -0.366047 -0.025529 32 165 133
0.539931 -0.584591 -0.026937 231 228 25
0.629320 0.099068 0.348168 66 64 133
-0.649051 0.074677 0.455761 68 1 84
-0.621287 0.063898 0.287784 68 1 84
-0.554865 0.407001 0.251650 71 42 121
-0.541074 0.260677 0.086153 70 49 126
0.242960 -0.317913 -0.163129 69 52 127
0.468675 0.410122 0.024461 53 93 140
-0.167354 -0.249814 -0.234313 71 24 106
-0.667335 -0.000280 0.587372 68 1 84
0.609087 0.294327 0.419959 61 74 137
-0.293228 -0.038294 -0.227832 68 1 84
0.555319 -0.339494 0.061253 32 165 133
-0.648176 -0.153511 0.267133 72 26 108
0.379157 -0.047196 -0.192745 72 35 116
-0.624550 -0.223997 0.171061 56 87 140
0.480855 -0.102616 -0.094897 56 87 140
-0.277557 0.627347 -0.054210 52 94 141
0.477505 0.016541 -0.093293 51 97 141
-0.057685 -0.005986 -0.395549 68 1 84
-0.035856 -0.007017 -0.491898 68 1 84
0.123209 -0.579371 -0.311492 31 162 134
-0.170972 -0.048062 -0.287300 68 1 84
-0.511581 0.488971 0.214390 65 66 134
-0.194399 0.004666 -0.242471 68 1 84
-0.024095 0.378465 -0.314262 68 1 84
-0.097012 -0.003776 -0.383624 68 1 84
0.490391 0.327121 0.004875 47 105 141
-0.511894 0.064778 -0.027219 70 49 126
0.101405 -0.298751 -0.311721 68 1 84
0.617748 0.109050 0.286030 61 76 137
-0.544971 0.294518 0.115310 71 38 118
0.687312 -0.258260 0.464065 49 101 141
0.267918 0.483993 -0.166783 56 87 140
0.627826 -0.192319 0.208324 31 162 134
-0.323896 0.567264 -0.046210 62 73 137
-0.596719 0.331238 0.403568 68 1 84
-0.699539 -0.467573 0.518773 53 92 140
0.670807 -0.280828 0.347277 42 117 142
0.402097 0.010512 -0.178772 67 58 131
0.238511 0.067717 -0.242895 68 1 84
-0.482025 0.228152 -0.039699 68 1 84
0.607203 -0.445183 0.246378 32 165 133
-0.415626 -0.468213 -0.152264 48 180 122
0.212438 0.551211 -0.209576 57 85 139
-0.611443 0.037192 0.233984 71 15 98
0.657956 -0.394886 0.400929 30 157 136
0.468467 0.422773 0.035255 49 100 141
-0.213742 0.125184 -0.263830 68 1 84
-0.539859 -0.187963 -0.001185 41 121 142
0.176109 0.159381 -0.309765 68 1 84
-0.595679 -0.248767 0.104276 37 130 142
0.512855 -0.137055 -0.055394 49 101 141
0.683636 -0.229974 0.464200 50 98 141
0.586241 0.234535 0.180737 57 84 139
-0.195371 0.458123 -0.213754 71 21 103
-0.644102 0.102796 0.504767 68 1 84
-0.080598 -0.011560 -0.426068 68 1 84
0.627962 -0.439204 0.334748 34 137 141
-0.357172 0.160400 -0.187672 68 1 84
-0.011596 0.028300 -0.437124 68 1 84
-0.416775 0.263065 -0.117823 69 8 91
0.093162 -0.014177 -0.390994 68 1 84
-0.467932 0.247513 -0.056410 69 5 88
0.022112 -0.525308 -0.313617 50 98 141
0.192566 0.170869 -0.295752 68 1 84
0.197447 0.450957 -0.218404 69 53 128
0.614252 0.254847 0.343458 60 78 138
0.060266 0.376771 -0.307606 69 52 127
0.539210 0.140960 0.034833 49 100 141
-0.383608 0.188205 -0.163896 68 1 84
0.367355 -0.450103 -0.118977 64 189 114
0.090532 -0.328537 -0.310455 72 30 112
0.279858 -0.281230 -0.168627 62 72 136
0.555255 0.445638 0.370739 69 52 127
0.467851 -0.591033 -0.149209 162 218 55
0.624515 0.215532 0.422304 63 71 136
-0.010867 0.708369 -0.180143 65 66 134
-0.320390 -0.124304 -0.192477 68 2 85
-0.664563 -0.017058 0.458321 68 1 84
-0.137173 -0.455293 -0.207468 30 154 137
-0.461390 0.404927 0.016686 69 54 129
-0.660249 0.012554 0.442451 68 1 84
-0.546005 -0.531015 -0.055990 121 209 81
0.565779 -0.522202 0.062335 191 223 36
-0.618427 -0.179820 0.152860 56 87 140
0.666760 -0.150447 0.539583 68 55 129
0.665075 -0.121537 0.538979 68 55 129
-0.588897 0.365925 0.411303 68 1 84
-0.647063 -0.498868 0.396767 35 137 141
-0.611371 -0.026521 0.189007 72 28 110
0.459157 -0.143980 -0.112093 45 110 142
-0.631210 -0.046386 0.261813 69 6 90
0.362523 -0.610216 -0.228183 30 156 137
0.544364 -0.202132 -0.004305 33 167 132
0.435578 0.568711 0.199471 51 96 141
-0.444264 -0.267527 -0.066064 31 149 139
-0.555358 -0.092696 0.014320 67 58 131
-0.414371 0.028394 -0.153911 68 1 84
-0.630804 -0.470124 0.351386 39 124 142
-0.087262 -0.010564 -0.417762 68 1 84
0.649863 -0.184126 0.291823 42 117 142
0.354036 0.494137 -0.078861 47 106 141
0.622484 0.174019 0.336382 58 83 139
0.461769 0.485369 0.092817 57 84 139
-0.598886 0.312218 0.526090 68 1 84
0.495110 -0.523663 -0.118269 141 214 68
0.514495 0.334052 0.055075 50 98 141
0.138706 -0.495335 -0.244213 31 163 134
0.263505 -0.570227 -0.248657 30 157 136
-0.265375 -0.493179 -0.192578 35 168 131
-0.614128 0.064598 0.260182 71 15 98
-0.533571 0.501144 0.311375 70 48 125
-0.610014 0.029079 0.222966 69 6 90
0.443717 0.260626 -0.097429 47 106 141
-0.518659 0.423568 0.156313 67 60 132
0.486346 0.370054 0.025554 54 91 140
0.585230 0.364376 0.308112 54 91 140
-0.095286 0.402281 -0.286197 69 8 91
-0.022882 0.426199 -0.279335 68 1 84
0.638178 -0.359783 0.297583 34 138 141
0.657265 -0.021377 0.466133 67 60 132
-0.375375 0.335827 -0.140274 68 1 84
-0.263290 0.389116 -0.199336 68 1 84
0.367311 -0.142814 -0.179231 55 88 140
-0.118202 0.068646 -0.294837 68 1 84
0.501914 -0.606438 -0.093550 202 224 30
-0.396669 -0.042009 -0.163618 68 1 84
-0.565486 -0.328066 0.073813 30 152 138
-0.381474 0.036970 -0.181598 68 1 84
0.662749 -0.057528 0.510060 57 85 139
0.590761 0.030648 0.138719 44 112 142
-0.286596 0.604855 -0.064040 65 66 134
0.285207 0.655409 -0.013714 45 111 142
-0.581416 0.051174 0.115444 72 25 107
-0.559779 0.465519 0.389023 68 3 87
-0.179025 0.291514 -0.256669 68 1 84
-0.680580 -0.395459 0.416624 58 83 139
0.081197 0.447545 -0.257968 68 1 84
-0.386065 -0.574079 -0.224508 30 157 136
0.645920 0.063395 0.584657 72 25 107
-0.480175 0.028993 -0.079705 71 22 105
0.440953 0.566743 0.219941 69 50 127
-0.246754 0.119591 -0.245645 68 1 84
0.543326 0.455736 0.287518 62 73 137
-0.633334 -0.416195 0.319610 44 112 142
-0.589375 0.381356 0.462210 68 1 84
0.366933 -0.510190 -0.198331 98 202 95
0.586044 -0.174123 0.077654 32 165 133
0.383384 -0.446219 -0.112718 57 185 118
-0.607678 -0.144558 0.126939 60 78 138
0.670638 -0.419654 0.542457 59 81 138
0.034794 -0.468916 -0.306030 49 101 141
0.556242 0.109085 0.061858 45 110 142
-0.352635 -0.561553 -0.231908 30 159 136
0.122524 0.495109 -0.258613 72 35 116
0.095771 0.022585 -0.336261 68 1 84
0.492304 0.514812 0.234979 60 78 138
-0.205848 -0.548419 -0.286491 30 155 137
-0.274122 0.582972 -0.098809 66 62 133
0.392100 -0.497599 -0.175033 126 210 78
0.030978 0.190222 -0.373676 68 1 84
0.004411 -0.105666 -0.535930 68 1 84
-0.582207 -0.176661 0.063705 46 107 142
-0.678572 -0.128646 0.482508 68 1 84
0.412719 -0.330617 -0.095213 32 144 140
-0.630733 -0.158139 0.198338 64 67 135
-0.473716 -0.159573 -0.078865 37 130 142
0.153093 0.159294 -0.326799 68 1 84
0.209243 -0.157137 -0.245087 72 35 116
0.364157 0.288059 -0.162089 63 69 135
-0.573245 -0.462476 0.041030 57 185 118
-0.670689 -0.081343 0.512848 68 1 84
0.480434 0.133080 -0.070880 63 69 135
-0.168449 0.098602 -0.277589 68 1 84
-0.619548 -0.502732 0.300932 31 150 139
-0.545148 0.503426 0.386702 70 14 97
0.614563 -0.022568 0.240205 52 94 141
0.145104 0.487578 -0.244516 71 39 119
0.605970 0.293736 0.318192 50 98 141
0.534184 0.348090 0.113201 61 76 137
-0.272249 0.023335 -0.234813 68 1 84
-0.141009 -0.430899 -0.183673 30 152 138
-0.570012 -0.505120 0.043604 61 187 116
-0.041383 0.507128 -0.277550 68 1 84
-0.311260 -0.291096 -0.140557 36 134 141
-0.258972 -0.402033 -0.135550 37 131 141
-0.530379 -0.036110 -0.016891 71 42 121
0.591156 0.360008 0.463163 66 64 133
0.601748 -0.333659 0.150187 33 166 133
-0.131494 -0.101780 -0.370555 68 1 84
-0.356322 -0.470236 -0.169239 61 187 116
0.337019 -0.357634 -0.145008 38 128 142
0.122923 -0.082152 -0.457331 68 1 84
0.113945 -0.307957 -0.282698 68 1 84
0.016006 0.295874 -0.346400 68 1 84
0.615736 0.258315 0.373994 64 68 135
-0.582143 -0.356408 0.100351 34 137 141
-0.219964 0.201368 -0.265790 68 1 84
-0.094011 0.030032 -0.326666 68 1 84
-0.458825 0.184331 -0.085090 71 17 99
-0.400904 0.403632 -0.078049 71 20 102
-0.587827 -0.395255 0.117318 34 139 141
0.675382 -0.307466 0.398302 41 120 142
-0.335605 -0.470526 -0.149647 47 179 123
-0.579509 -0.479375 0.100992 46 178 124
-0.636395 0.138176 0.452278 68 1 84
-0.033321 -0.367909 -0.359973 68 57 130
-0.274127 -0.396403 -0.140436 35 136 141
-0.164154 0.528372 -0.212011 68 1 84
-0.493322 -0.325485 -0.005732 40 174 127
0.487859 -0.441063 -0.044040 121 209 81
0.290855 0.552301 -0.129309 41 121 142
-0.657230 -0.279989 0.292135 68 57 130
0.118291 -0.273758 -0.298493 68 1 84
0.057887 -0.517911 -0.306285 35 135 141
0.619878 0.209791 0.510923 72 30 112
0.669910 -0.193092 0.546433 62 73 137
0.256988 0.180405 -0.231675 69 6 90
0.685824 -0.244247 0.480957 42 117 142
0.206490 0.141535 -0.279692 68 1 84
-0.534716 0.384386 0.158955 68 55 129
-0.628877 -0.378045 0.263910 46 107 142
-0.621032 -0.133948 0.172222 62 73 137
-0.132121 0.012465 -0.356175 68 1 84
0.012773 0.462195 -0.273020 68 1 84
-0.583777 0.036201 0.117025 71 24 106
0.655368 -0.266407 0.292317 44 113 142
0.639565 -0.311903 0.261310 36 133 141
0.193437 -0.455282 -0.150060 33 140 141
-0.053811 0.709187 -0.179504 72 34 115
-0.367070 0.418662 -0.109088 71 17 99
0.195815 0.387320 -0.236387 72 32 113
0.117330 -0.411985 -0.203967 49 100 141
0.291270 0.655782 0.002686 47 105 141
0.046388 -0.557464 -0.318843 46 109 142
0.644521 -0.012987 0.377600 64 67 135
-0.288310 -0.454653 -0.135460 36 170 130
-0.112026 0.586664 -0.251190 71 20 102
-0.473760 -0.420180 -0.054413 61 187 116
0.468867 0.066702 -0.098927 63 71 136
0.054908 0.461488 -0.266553 68 1 84
-0.001279 0.651511 -0.256379 58 83 139
0.608173 -0.542736 0.302638 30 157 136
-0.349620 -0.427367 -0.114860 33 167 132
-0.619176 0.226692 0.413604 68 1 84
-0.147097 0.007195 -0.361792 68 1 84
-0.671685 -0.097695 0.509510 68 1 84
0.369502 0.113096 -0.191082 70 48 125
-0.041462 0.546656 -0.289331 70 9 92
0.211802 0.447144 -0.211745 61 75 137
0.624872 -0.324222 0.219739 30 155 137
-0.584938 -0.233008 0.078598 36 134 141
-0.227227 0.036952 -0.237989 68 1 84
0.408707 -0.512107 -0.161748 157 217 58
-0.127265 -0.190847 -0.305598 68 1 84
0.535317 0.298725 0.079925 62 72 136
-0.112191 -0.276599 -0.290502 71 15 98
0.308976 -0.001307 -0.230957 69 6 90
0.061520 -0.338803 -0.356655 68 1 84
-0.134087 -0.204763 -0.293262 68 1 84
-0.690840 -0.470627 0.486953 51 96 141
0.307038 -0.011101 -0.231777 68 3 87
-0.163902 -0.177333 -0.267494 68 1 84
-0.609559 -0.360701 0.181891 42 119 142
-0.255737 0.594194 -0.114346 69 52 127
-0.573910 -0.377935 0.081533 30 151 138
0.337314 -0.347152 -0.141281 40 122 142
0.262809 -0.230872 -0.197425 52 95 141
-0.286893 0.167112 -0.234203 68 1 84
0.458273 -0.599211 -0.157445 165 218 53
-0.071081 0.548141 -0.276196 68 1 84
-0.541497 0.440016 0.245178 71 44 123
0.295262 -0.077785 -0.231657 70 11 94
0.319143 0.626781 -0.014054 46 107 142
-0.660496 -0.026638 0.392285 68 1 84
-0.214734 -0.209438 -0.215366 70 11 94
0.603173 0.228297 0.240743 53 93 140
0.673269 -0.162069 0.432716 50 98 141
-0.376293 0.585068 0.053264 57 84 139
-0.582580 0.293558 0.248471 68 1 84
0.252718 -0.145813 -0.229040 51 97 141
-0.279511 0.573369 -0.098190 68 57 130
-0.167097 -0.004158 -0.279458 68 1 84
-0.621854 -0.085509 0.199162 71 40 120
-0.023743 0.275526 -0.340803 68 1 84
-0.163727 0.680878 -0.159011 59 80 138
0.110426 -0.474868 -0.250147 32 144 140
0.153813 0.187895 -0.325360 68 1 84
0.398064 -0.066512 -0.176578 61 74 137
0.172832 0.679876 -0.146397 59 80 138
-0.222816 -0.398148 -0.124037 32 144 140
-0.165598 -0.043268 -0.349370 68 1 84
0.171772 0.129332 -0.302924 68 1 84
-0.643084 -0.153418 0.248847 72 26 108
0.162317 -0.082610 -0.379116 68 1 84
0.186972 0.165585 -0.300345 68 1 84
-0.611263 -0.444379 0.247977 33 141 140
-0.460608 0.254391 -0.065168 68 1 84
-0.321445 -0.017327 -0.217674 68 1 84
-0.587668 -0.190067 0.076029 48 103 141
-0.481325 0.564107 0.243796 59 80 138
-0.306247 -0.346680 -0.150115 38 129 142
0.329716 -0.434850 -0.125124 33 166 133
0.286188 0.434796 -0.163627 50 98 141
0.692795 -0.328996 0.491297 43 116 142
-0.117700 -0.152770 -0.335629 68 1 84
-0.469594 -0.444745 -0.079123 91 200 98
-0.581953 0.155779 0.167863 68 1 84
-0.298055 0.077327 -0.225066 68 1 84
0.669535 -0.191004 0.370456 44 114 142
-0.111768 -0.165462 -0.341370 68 1 84
-0.395450 -0.210093 -0.119608 40 122 142
0.220112 -0.498369 -0.197407 48 180 122
-0.593100 0.271200 0.283954 68 1 84
-0.578291 -0.240194 0.069757 32 144 140
-0.073075 0.065555 -0.333830 68 1 84
0.601609 0.322260 0.451825 65 65 134
0.562921 0.018111 0.056800 44 112 142
-0.513984 -0.251178 -0.004474 32 143 140
0.598134 0.335935 0.460419 65 66 134
0.680122 -0.207542 0.484559 53 93 140
0.127364 0.279755 -0.321260 69 6 90
-0.148399 -0.085897 -0.354706 68 1 84
-0.336419 0.173998 -0.201364 68 1 84
0.624619 0.035742 0.308214 61 76 137
-0.561072 -0.527771 0.007825 94 201 97
0.075957 -0.379130 -0.297965 59 80 138
0.075427 -0.164556 -0.455759 68 1 84
-0.163546 -0.062741 -0.335515 68 1 84
0.552407 -0.505533 -0.025956 173 220 48
0.195721 0.103547 -0.276582 68 1 84
0.544235 0.460149 0.314628 71 44 123
-0.356094 0.352271 -0.152776 68 1 84
0.470311 0.230651 -0.068550 48 104 141
0.561548 -0.218241 0.028765 48 180 122
0.475873 -0.376944 -0.028542 40 174 127
0.611007 0.279441 0.351894 60 78 138
0.655217 -0.002267 0.528070 71 43 122
-0.523303 -0.484407 -0.075108 33 167 132
-0.128891 0.150294 -0.323194 68 1 84
-0.268782 -0.078904 -0.230123 68 1 84
-0.125868 0.708051 -0.142386 69 53 128
0.523198 -0.150675 -0.042010 39 125 142
0.558714 -0.516490 0.001755 220 226 24
-0.626777 0.055616 0.304274 68 1 84
0.568843 -0.556267 0.107755 131 211 75
0.107642 0.469337 -0.252936 68 1 84
-0.594081 -0.435442 0.169220 30 154 137
0.069541 -0.088569 -0.518698 68 1 84
0.261441 0.016288 -0.236387 68 1 84
0.571825 0.254803 0.146575 49 102 141
-0.146530 0.026872 -0.279320 68 1 84
0.486478 -0.512615 -0.116120 202 224 30
0.493858 0.510509 0.231192 60 78 138
0.351999 -0.121134 -0.194489 62 72 136
0.130618 0.645208 -0.230204 53 92 140
0.442522 0.560170 0.186604 56 87 140
-0.151898 -0.433939 -0.175840 30 153 138
0.275143 0.065426 -0.231523 68 1 84
-0.675723 -0.174043 0.358499 70 14 97
0.653917 -0.331807 0.319760 36 134 141
-0.538281 -0.132710 -0.015330 66 61 132
-0.657237 -0.000056 0.396074 68 1 84
0.094120 -0.146971 -0.443042 68 1 84
-0.196378 -0.157530 -0.246388 68 1 84
0.260469 -0.283340 -0.175911 63 69 135
-0.098175 0.687261 -0.202227 56 86 139
0.447130 0.557678 0.204755 60 77 138
0.633809 -0.121956 0.271795 39 124 142
-0.454167 -0.491248 -0.128960 62 188 115
0.366319 -0.350218 -0.130389 35 136 141
-0.479799 -0.578781 -0.155667 62 188 115
0.475724 0.072308 -0.088139 61 74 137
0.591802 -0.277109 0.102827 35 168 131
0.149424 0.653132 -0.210790 49 102 141
-0.535832 -0.515808 -0.078950 66 190 113
-0.240577 -0.051684 -0.241179 68 1 84
0.591738 -0.305165 0.111532 30 160 135
0.246929 0.420982 -0.196351 64 67 135
-0.711605 -0.312662 0.524073 68 1 84
-0.690110 -0.351148 0.423260 69 53 128
-0.267703 -0.506489 -0.203473 30 160 135
0.151722 0.250329 -0.290790 68 1 84
-0.513729 -0.106097 -0.047316 58 83 139
-0.020017 0.304686 -0.347019 68 1 84
0.582024 0.327237 0.228619 59 81 138
-0.419763 0.394618 -0.057880 71 40 120
0.558655 -0.417696 0.049235 91 200 98
-0.151382 -0.162021 -0.281783 68 1 84
0.672718 -0.169915 0.421441 58 82 139
0.628810 0.030890 0.325471 67 59 131
0.310387 0.422181 -0.149586 61 74 137
-0.098387 0.563256 -0.260870 68 1 84
0.444367 0.354932 -0.057558 49 102 141
0.081849 0.513549 -0.280657 70 45 124
-0.106602 -0.055421 -0.461724 68 1 84
-0.469463 -0.273766 -0.041477 30 153 138
-0.422282 0.370270 -0.069083 72 26 108
0.049360 -0.333540 -0.375604 68 1 84
0.186007 -0.040040 -0.326847 68 1 84
0.646378 0.062878 0.581081 72 29 111
0.685384 -0.241944 0.466274 44 114 142
0.417216 0.444218 -0.032349 54 90 140
-0.656553 0.045118 0.517121 68 1 84
-0.405490 -0.268369 -0.095236 37 130 142
0.645616 -0.270718 0.263260 35 137 141
-0.062279 -0.011730 -0.449624 68 1 84
0.252212 0.254334 -0.185603 68 1 84
0.441390 -0.539007 -0.155275 154 216 60
-0.108676 0.542771 -0.251169 68 1 84
0.518375 -0.085927 -0.044953 40 122 142
-0.407325 0.209183 -0.138706 68 1 84
0.432315 0.337735 -0.083483 50 99 141
0.354648 -0.346464 -0.135432 31 149 139
0.262919 0.623692 -0.124179 50 99 141
-0.445304 -0.566877 -0.183115 89 199 100
-0.083532 0.051165 -0.327965 68 1 84
-0.411868 -0.162333 -0.123114 48 104 141
-0.578736 -0.198334 0.060806 42 117 142
-0.640957 -0.173296 0.231824 72 35 116
-0.106949 -0.147032 -0.371142 68 1 84
0.655619 0.007496 0.598251 68 1 84
-0.240443 -0.377162 -0.141079 42 119 142
-0.581586 -0.077791 0.073410 60 78 138
0.391822 -0.547345 -0.184666 68 190 112
0.609129 0.203336 0.259918 50 99 141
0.312548 -0.317838 -0.144985 55 88 140
0.624685 0.193553 0.376385 65 66 134
0.526407 0.317851 0.070991 66 62 133
0.588874 0.100022 0.150676 60 77 138
0.628699 -0.512808 0.389984 39 124 142
0.573698 -0.315971 0.079669 32 165 133
-0.581321 -0.504511 0.145029 42 176 126
-0.650951 -0.310771 0.284623 62 73 137
-0.076103 -0.007982 -0.394623 68 1 84
-0.570694 0.421202 0.365847 68 1 84
0.282360 -0.399448 -0.147515 37 131 141
-0.564454 -0.420615 0.041102 59 186 117
-0.607281 0.081039 0.241557 68 1 84
-0.505098 0.455452 0.157906 66 61 132
0.636094 0.089151 0.383519 63 71 136
-0.624286 0.216898 0.474600 68 1 84
0.404509 -0.169907 -0.147691 45 111 142
0.113865 0.431533 -0.254087 70 12 95
0.018919 0.512804 -0.289848 71 18 101
0.185698 0.460763 -0.223105 69 52 127
-0.337825 -0.457864 -0.125350 39 173 128
-0.430409 0.550994 0.114678 65 66 134
0.569815 0.412616 0.458247 66 62 133
0.670317 -0.257902 0.347055 43 116 142
-0.241351 -0.288118 -0.159077 38 127 142
0.579495 -0.481270 0.128060 175 220 46
-0.320330 -0.373932 -0.141993 35 135 141
0.673198 -0.232105 0.386267 44 114 142
0.368842 0.531854 -0.034146 41 121 142
0.664510 -0.073919 0.512410 65 66 134
0.650984 -0.234162 0.278456 45 111 142
-0.293660 0.082607 -0.226007 68 1 84
0.097889 -0.342854 -0.280097 69 53 128
0.496672 -0.168156 -0.072211 56 86 139
0.422187 0.111772 -0.152884 72 33 114
-0.426973 -0.006262 -0.141143 68 1 84
-0.140025 -0.151811 -0.295514 68 1 84
-0.639044 0.066770 0.363759 68 1 84
-0.703678 -0.335931 0.484262 71 17 99
-0.037269 0.409158 -0.289959 69 5 88
-0.628886 -0.339746 0.233698 51 97 141
0.119815 0.227536 -0.314039 68 1 84
-0.250142 0.247398 -0.226871 68 1 84
0.221112 0.529920 -0.202019 59 81 138
0.429334 -0.144590 -0.136448 45 110 142
0.274841 0.549474 -0.149231 44 112 142
-0.587232 0.314759 0.298385 68 1 84
0.011936 0.385964 -0.307930 69 5 88
0.163793 -0.007728 -0.364938 68 1 84
0.202329 0.366620 -0.236946 70 48 125
-0.384644 0.605205 0.098833 63 71 136
0.662241 -0.220393 0.316968 37 130 142
0.668755 -0.401037 0.510036 57 85 139
0.588088 -0.424351 0.143991 100 203 93
-0.117872 -0.527124 -0.299909 38 127 142
0.554080 0.445922 0.355217 69 53 128
-0.393876 0.615536 0.140373 67 58 131
0.329578 0.543301 -0.082358 44 113 142
-0.668485 -0.118076 0.568236 68 1 84
-0.553746 0.206234 0.094760 69 6 90
0.579655 0.118352 0.125088 58 82 139
-0.561281 -0.507887 -0.007100 96 201 96
-0.367770 0.002676 -0.191542 68 1 84
-0.601692 -0.429438 0.197781 34 139 141
-0.610517 -0.128915 0.139540 63 69 135
-0.139833 0.701834 -0.145555 57 84 139
-0.403198 0.424100 -0.060883 71 24 106
0.687599 -0.381539 0.557665 61 76 137
0.092503 0.446554 -0.254566 68 1 84
-0.693687 -0.412430 0.475502 63 71 136
0.654682 -0.299467 0.300733 43 116 142
-0.189138 0.071308 -0.257325 68 1 84
0.623553 -0.033415 0.277730 59 80 138
-0.312846 0.526691 -0.090535 70 47 124
0.396677 0.397082 -0.091692 59 80 138
-0.107773 -0.335805 -0.252355 35 137 141
0.152873 0.220997 -0.293158 68 1 84
-0.583427 0.337785 0.303645 68 2 85
0.146969 -0.182460 -0.290032 69 5 88
-0.515782 -0.310679 0.017530 30 151 138
