ply
format ascii 1.0
element vertex 1262
property float x
property float y
property float z
property uchar red
property uchar green
property uchar blue
end_header
0.264816 0.295961 -0.096472 68 1 84
-0.639262 -0.510220 0.151195 62 73 137
-0.017616 0.554167 -0.238334 141 214 68
-0.603043 0.077721 0.351620 68 1 84
-0.408252 -0.490767 -0.245803 30 159 136
0.213757 0.158218 -0.183442 68 1 84
-0.483746 0.383570 0.103186 68 1 84
0.486653 0.376431 0.402157 43 115 142
0.115690 0.064557 -0.276881 68 1 84
0.551794 0.094793 0.015053 68 1 84
-0.622426 -0.039220 0.396587 68 1 84
0.114843 0.383531 -0.206515 61 75 137
0.026800 0.285011 -0.264256 61 75 137
-0.614370 -0.221411 0.091504 68 1 84
0.566444 -0.388378 -0.079481 58 83 139
0.203079 -0.410281 -0.246037 56 87 140
-0.682627 -0.444531 0.398377 64 68 135
0.267810 0.303654 -0.094983 68 1 84
-0.614057 -0.011653 0.352913 68 1 84
0.669526 -0.494439 0.114450 46 109 142
0.680588 -0.286354 0.229598 70 49 126
-0.501294 0.245082 0.022259 68 1 84
0.275941 -0.320772 -0.189186 68 1 84
-0.198405 -0.293139 -0.194508 68 1 84
0.696685 -0.374737 0.305009 44 112 142
0.575718 0.178343 0.404377 49 100 141
-0.562853 -0.285857 0.009334 68 1 84
-0.599667 -0.006321 0.203334 68 1 84
-0.243157 -0.367688 -0.245300 48 103 141
-0.524980 0.147249 0.003537 68 1 84
-0.558560 -0.345149 -0.006191 69 52 127
-0.494386 0.264488 0.021250 68 1 84
-0.460012 0.428152 0.102108 66 62 133
-0.454139 0.024156 -0.148911 68 1 84
0.311431 0.491662 -0.004210 36 134 141
0.190616 0.025056 -0.190763 68 1 84
0.237408 0.571377 -0.036073 30 154 137
-0.311712 -0.424317 -0.264105 45 111 142
0.572452 0.191364 0.359629 67 59 131
0.523989 0.081989 -0.053308 68 1 84
-0.640233 -0.168964 0.463289 71 37 117
-0.638279 -0.349276 0.164611 68 1 84
0.477817 -0.062130 -0.122296 68 1 84
-0.206029 0.301751 -0.168844 47 105 141
0.108355 0.298731 -0.244115 72 25 107
0.734625 -0.467314 0.465821 33 167 132
-0.584802 0.018726 0.101691 68 1 84
-0.319546 0.097663 -0.206234 68 1 84
0.454693 0.416088 0.394608 40 122 142
0.585572 0.139300 0.389854 69 54 129
-0.680104 -0.539985 0.331628 72 26 108
0.335708 0.238714 -0.117231 68 1 84
0.127940 -0.466889 -0.331318 49 100 141
0.140489 -0.069837 -0.298068 68 1 84
0.415499 0.399885 0.026123 68 1 84
-0.320915 -0.216268 -0.207180 72 34 115
-0.025443 0.059536 -0.335374 72 30 112
0.573958 0.167657 0.285518 72 28 110
-0.257465 0.183846 -0.180738 68 1 84
0.696993 -0.292107 0.451991 35 168 131
0.418790 -0.477237 -0.243768 42 118 142
-0.616904 -0.037692 0.354514 68 1 84
0.583006 0.120036 0.491867 41 120 142
0.005673 0.347654 -0.264786 50 99 141
0.574102 0.105713 0.130578 68 1 84
-0.369537 0.527945 0.120545 32 165 133
0.732976 -0.451025 0.419097 38 172 129
0.306414 0.537444 0.057716 30 154 137
-0.636464 -0.141973 0.469684 70 12 95
0.461430 0.421569 0.340065 48 103 141
0.689924 -0.296095 0.348738 59 81 138
0.670951 -0.185113 0.238206 72 33 114
0.349389 -0.422430 -0.249509 39 124 142
0.278892 0.572456 0.115914 66 190 113
-0.196594 0.297059 -0.176038 56 87 140
0.576885 0.099830 0.146190 68 1 84
-0.512640 0.384085 0.259280 68 1 84
0.350924 0.420074 -0.024284 71 15 98
0.440464 -0.272887 -0.116548 68 1 84
-0.322555 0.192612 -0.164099 68 1 84
-0.499214 0.157713 -0.044618 68 1 84
0.275928 0.260177 -0.112014 68 1 84
-0.421436 -0.333928 -0.158637 61 76 137
0.166660 0.080227 -0.195522 68 1 84
-0.514175 0.146644 -0.021781 68 1 84
0.067959 0.616475 -0.191638 126 210 78
-0.650614 -0.583008 0.197105 67 58 131
-0.641301 -0.194832 0.506445 66 64 133
0.207509 -0.423616 -0.260384 50 99 141
0.318489 0.224526 -0.128396 68 1 84
-0.094639 0.492939 -0.223789 154 216 60
-0.505471 -0.367954 -0.096162 66 62 133
0.337079 -0.057409 -0.179927 68 1 84
0.095376 -0.468499 -0.336738 30 154 137
-0.609318 0.015916 0.340681 68 1 84
0.427491 -0.165004 -0.133344 68 1 84
0.661080 -0.139656 0.369902 58 83 139
0.525258 -0.247913 -0.036826 67 59 131
0.247411 0.197313 -0.162020 68 1 84
0.581505 0.020989 0.039396 68 1 84
-0.570417 0.015378 0.037020 68 1 84
0.161191 0.319681 -0.208675 71 24 106
0.560558 0.231260 0.384371 68 55 129
0.266775 0.519756 -0.049355 50 99 141
-0.666956 -0.431018 0.307009 69 50 127
-0.544094 0.301562 0.450379 69 6 90
0.074958 0.354127 -0.242162 61 75 137
-0.443888 -0.286745 -0.107289 68 1 84
0.308328 0.559584 0.146209 40 174 127
-0.374445 0.292280 -0.104430 68 1 84
0.109037 0.481236 -0.207786 59 186 117
0.193912 0.586621 -0.108059 81 196 104
-0.464422 0.137607 -0.111685 68 1 84
-0.656181 -0.390608 0.262409 69 6 90
0.683530 -0.443428 0.192365 32 144 140
0.220983 -0.460202 -0.295194 65 65 134
-0.591882 0.169761 0.355666 68 1 84
0.614364 0.028328 0.418487 42 118 142
0.125357 0.419043 -0.192203 44 114 142
-0.515754 0.353488 0.168351 68 1 84
-0.659262 -0.266651 0.301062 68 2 85
-0.652860 -0.228152 0.450769 70 48 125
-0.482949 0.413103 0.147012 70 9 92
-0.179228 -0.504115 -0.314942 44 114 142
-0.617803 -0.252232 0.097421 68 1 84
0.649873 -0.268500 0.125953 69 6 90
-0.471431 0.365730 0.052631 72 30 112
0.085986 0.629725 -0.161730 129 211 76
-0.058845 -0.024375 -0.443901 71 40 120
-0.677005 -0.408933 0.333089 72 34 115
0.562659 0.149593 0.142274 68 1 84
0.163217 -0.469347 -0.322610 69 50 127
-0.399794 -0.354945 -0.201735 61 76 137
-0.597092 -0.337855 0.056106 68 1 84
-0.546477 0.276559 0.493125 71 22 105
0.485957 -0.084645 -0.112420 68 1 84
-0.543138 0.300385 0.457933 68 1 84
-0.357399 0.207353 -0.147710 68 1 84
-0.543175 0.328017 0.282834 68 1 84
-0.465959 0.440594 0.304801 57 84 139
0.573047 0.185003 0.338516 72 26 108
0.621864 -0.129081 0.079336 68 1 84
-0.147957 0.065439 -0.276655 68 1 84
-0.655014 -0.280238 0.444573 71 38 118
-0.412600 -0.277898 -0.139000 68 1 84
-0.265423 0.185073 -0.178583 68 1 84
0.109725 -0.077391 -0.388030 68 1 84
0.351160 0.173108 -0.153418 68 1 84
0.285713 0.250242 -0.119319 68 1 84
0.688373 -0.253013 0.508132 71 192 110
0.331747 0.544952 0.142939 42 176 126
0.215740 -0.199992 -0.184071 68 1 84
-0.527070 -0.524282 -0.105302 41 120 142
-0.684246 -0.612006 0.367121 45 111 142
-0.440008 -0.454381 -0.215246 34 139 141
0.362149 0.213101 -0.128538 68 1 84
-0.638305 -0.441160 0.160242 69 8 91
0.160120 -0.335578 -0.198348 70 9 92
0.696060 -0.377743 0.296195 47 105 141
0.544458 0.251438 0.195162 68 1 84
-0.472149 -0.014762 -0.131681 68 1 84
-0.374656 -0.219649 -0.180273 71 24 106
-0.277351 0.385887 -0.117559 32 164 133
0.197440 -0.398563 -0.235642 57 85 139
0.351528 0.187395 -0.145873 68 1 84
0.091282 -0.011306 -0.456421 69 53 128
-0.109332 -0.164614 -0.271778 67 59 131
-0.067623 -0.007380 -0.445017 71 15 98
-0.529588 0.241549 0.100061 68 1 84
0.642825 -0.460037 0.053708 41 121 142
0.628682 -0.472206 0.018048 55 89 140
-0.152160 0.036898 -0.311527 67 60 132
0.675438 -0.513037 0.127683 32 145 140
-0.639164 -0.231297 0.162953 68 1 84
0.491304 0.382781 0.346199 68 55 129
-0.532307 0.350346 0.305980 68 1 84
-0.564198 -0.472479 -0.036614 60 77 138
0.502089 0.365791 0.355544 69 53 128
-0.692841 -0.577638 0.423844 71 38 118
-0.088477 0.429170 -0.211146 139 213 70
-0.413743 0.263257 -0.088067 68 1 84
-0.137014 0.365556 -0.210384 31 149 139
0.616343 -0.252284 0.062711 68 1 84
0.285120 -0.454108 -0.262556 39 124 142
0.562350 0.208141 0.446095 44 113 142
-0.561591 0.284862 0.335992 68 1 84
0.340858 0.522867 0.088841 51 97 141
-0.050156 0.613757 -0.204692 241 229 28
-0.597816 -0.449253 0.035960 67 60 132
-0.061187 0.126691 -0.273777 68 1 84
0.677778 -0.240945 0.228131 63 71 136
0.146586 -0.271904 -0.186470 60 78 138
0.113685 -0.116123 -0.332635 70 12 95
0.572666 -0.060577 -0.012756 68 1 84
-0.664968 -0.330672 0.478096 57 85 139
0.357330 0.092345 -0.181927 68 1 84
0.627632 -0.360913 0.061696 67 58 131
-0.472407 -0.067638 -0.124249 68 1 84
-0.675534 -0.388402 0.386625 72 34 115
-0.593398 -0.038616 0.081089 68 1 84
0.462499 0.301816 0.006427 68 1 84
-0.457006 0.447126 0.330157 49 100 141
0.449385 0.316721 0.000724 68 1 84
-0.631477 -0.334979 0.136761 68 1 84
0.057157 0.042334 -0.466433 64 68 135
-0.117456 0.074659 -0.282263 68 1 84
-0.371835 -0.239241 -0.186622 68 1 84
-0.509077 0.385362 0.221129 68 1 84
-0.543032 0.191646 0.102340 68 1 84
0.050281 0.020585 -0.470203 60 77 138
-0.421326 -0.480267 -0.235174 32 144 140
0.519506 0.222740 0.049386 68 1 84
-0.501171 0.326670 0.090889 68 1 84
-0.133681 -0.026634 -0.283090 69 52 127
0.612385 -0.444526 -0.007564 71 15 98
-0.320647 0.062759 -0.212435 68 1 84
0.033764 0.656710 -0.103802 194 223 34
0.260484 -0.325601 -0.187854 68 1 84
0.681721 -0.230059 0.371287 52 94 141
-0.546630 0.298926 0.220495 68 1 84
-0.520835 0.343581 0.173796 68 1 84
0.232878 0.577805 -0.031044 30 160 135
-0.626625 -0.100383 0.333533 68 1 84
-0.660158 -0.250134 0.336559 68 1 84
-0.334320 -0.512791 -0.283823 75 194 108
0.447613 -0.380196 -0.177517 70 9 92
0.677351 -0.232893 0.231078 66 62 133
0.251391 -0.062015 -0.196799 68 1 84
0.559292 -0.437046 -0.111869 60 77 138
-0.051918 0.621713 -0.197008 248 230 33
0.350444 0.223682 -0.123538 68 1 84
-0.622968 -0.086432 0.215090 68 1 84
0.663321 -0.210833 0.176563 68 1 84
-0.387333 0.509397 0.097705 40 174 127
0.678286 -0.336400 0.210232 69 50 127
-0.509726 0.341183 0.132060 68 1 84
-0.548339 -0.417242 -0.056665 65 66 134
-0.536911 0.293709 0.170270 68 1 84
-0.346488 0.126720 -0.192549 68 1 84
-0.183052 0.616905 -0.089966 146 215 65
0.017161 0.274916 -0.270327 61 75 137
-0.566626 0.264833 0.387085 69 5 88
0.618001 -0.223307 0.066780 68 1 84
-0.656952 -0.391531 0.267489 68 1 84
0.428816 0.369656 0.016256 68 1 84
-0.571893 0.209933 0.502625 71 42 121
0.638000 -0.066949 0.398982 58 82 139
0.673870 -0.176338 0.311533 63 71 136
-0.548270 -0.530770 -0.067234 47 105 141
0.538055 -0.366049 -0.104797 61 74 137
-0.010292 0.633844 -0.187615 212 225 26
-0.607724 -0.458220 0.057912 72 29 111
0.534984 0.067225 -0.040748 68 1 84
0.010463 0.646292 -0.161426 241 229 28
-0.487449 0.200946 -0.035798 68 1 84
-0.682535 -0.614701 0.355220 51 96 141
0.275382 0.485426 -0.058719 56 87 140
0.249021 0.317812 -0.110473 68 1 84
0.736384 -0.479294 0.468735 30 160 135
0.530138 -0.479724 -0.161272 52 95 141
0.498506 0.016065 -0.106493 68 1 84
-0.615319 0.042193 0.438679 71 17 99
0.365119 -0.515443 -0.279349 40 122 142
0.004017 -0.407860 -0.318279 36 134 141
0.320591 -0.065654 -0.181340 68 1 84
-0.273159 0.240081 -0.151936 71 44 123
0.238740 0.405727 -0.116598 49 102 141
0.329686 0.013266 -0.194537 68 1 84
0.636676 -0.067270 0.202061 68 1 84
0.375875 0.340318 -0.059182 68 1 84
-0.192960 0.299083 -0.179972 52 94 141
0.583541 -0.060196 0.007798 68 1 84
-0.333436 -0.509807 -0.283160 68 190 112
-0.266393 0.411079 -0.122694 43 177 125
-0.413907 -0.084214 -0.159297 68 1 84
-0.472834 0.353986 0.045590 68 1 84
-0.527739 0.075877 -0.035595 68 1 84
0.088669 0.444771 -0.207991 31 149 139
0.198572 0.107211 -0.185894 68 1 84
0.072780 0.112094 -0.278359 68 1 84
-0.146783 0.055821 -0.229572 68 1 84
-0.144789 -0.257351 -0.189297 68 1 84
-0.470843 -0.084614 -0.122234 68 1 84
0.177293 0.556148 -0.156677 50 181 122
0.609722 0.014558 0.292779 66 62 133
-0.407365 -0.230939 -0.154561 72 25 107
0.552825 0.259373 0.365251 71 24 106
-0.253312 0.130358 -0.193662 68 1 84
-0.132414 -0.134609 -0.252442 68 1 84
-0.556410 -0.082741 -0.019800 68 1 84
-0.605617 0.060268 0.356481 68 1 84
0.525335 0.177845 0.018618 68 1 84
0.163895 0.001493 -0.337366 68 1 84
-0.327347 0.539321 0.041164 109 206 88
0.606712 0.019456 0.230658 68 1 84
0.253061 0.050259 -0.193780 68 1 84
0.477960 0.021599 -0.125794 68 1 84
0.108627 0.597802 -0.187049 87 198 101
-0.189642 -0.075233 -0.217646 71 38 118
0.458000 0.138343 -0.112346 68 1 84
-0.226249 -0.482543 -0.288673 30 159 136
0.331938 -0.362085 -0.225625 49 102 141
-0.579168 0.060757 0.157051 68 1 84
0.530645 0.319055 0.293190 71 37 117
-0.426554 -0.278391 -0.124354 68 1 84
-0.400515 0.404823 -0.022277 46 109 142
0.550517 0.070647 -0.005730 68 1 84
0.504228 0.129311 -0.061195 68 1 84
-0.533154 0.152569 0.030350 68 1 84
0.054999 -0.239361 -0.333234 65 66 134
0.614633 0.006665 0.349295 56 87 140
-0.148570 -0.236802 -0.195427 68 1 84
0.394481 0.354954 -0.036640 68 1 84
-0.679815 -0.405333 0.461796 65 65 134
0.562265 0.227924 0.310389 69 5 88
-0.268581 0.526083 -0.081968 165 218 53
-0.059454 -0.189107 -0.322856 62 72 136
0.659379 -0.127092 0.306191 69 52 127
0.606988 0.038125 0.356078 49 102 141
0.608919 0.037130 0.379297 58 82 139
0.603967 0.028062 0.538436 75 194 108
0.271060 -0.034451 -0.198804 68 1 84
0.143384 -0.117860 -0.274342 68 1 84
0.357320 -0.155987 -0.162305 68 1 84
-0.198482 0.615428 -0.026988 112 206 86
-0.632133 -0.096481 0.397580 68 1 84
-0.531527 -0.330911 -0.035769 68 3 87
0.681398 -0.206264 0.317806 58 83 139
-0.208810 -0.146313 -0.198128 68 1 84
-0.611726 0.021219 0.514923 69 5 88
0.053556 0.091232 -0.406697 71 38 118
-0.653680 -0.195645 0.377475 68 1 84
-0.236548 0.005000 -0.218621 68 1 84
0.490263 0.389410 0.214468 72 32 113
0.616543 -0.006822 0.222598 68 1 84
-0.220867 0.088216 -0.200403 68 1 84
-0.036151 -0.096234 -0.396737 66 61 132
0.001088 0.339373 -0.271354 55 89 140
0.053394 -0.161351 -0.374008 60 77 138
0.120623 -0.285367 -0.215767 72 35 116
-0.635880 -0.149160 0.541760 63 69 135
0.385142 -0.298233 -0.168946 68 1 84
-0.571803 -0.041026 0.017078 68 1 84
-0.365154 0.250518 -0.123038 68 1 84
0.412179 0.481000 0.287991 36 132 141
-0.555982 0.102922 0.060582 68 1 84
-0.167138 0.105514 -0.208435 68 1 84
-0.279235 0.164490 -0.182678 68 1 84
0.354567 0.152114 -0.163286 68 1 84
0.300408 -0.110284 -0.173366 68 1 84
0.640285 -0.074163 0.392521 64 68 135
-0.529063 0.348281 0.227509 68 1 84
-0.650333 -0.445733 0.211963 72 35 116
0.509811 0.333865 0.429205 47 105 141
-0.448168 -0.356811 -0.152972 59 80 138
0.561898 0.227917 0.379685 70 45 124
0.079234 -0.094844 -0.399619 71 22 105
-0.490130 0.301847 0.038937 68 1 84
0.174874 -0.304040 -0.175651 71 24 106
-0.123706 0.200803 -0.251151 49 101 141
-0.616839 -0.151555 0.110573 68 1 84
0.148695 0.621890 -0.109263 126 210 78
-0.295789 0.566918 0.058496 183 221 41
0.466559 0.002793 -0.135969 68 1 84
0.597504 -0.082617 0.032155 68 1 84
0.441668 0.445401 0.330053 43 116 142
0.185830 0.365727 -0.167981 72 29 111
0.540175 0.266416 0.197005 68 1 84
-0.669376 -0.419643 0.313485 62 73 137
0.170267 -0.018098 -0.220340 68 1 84
0.473561 0.381134 0.443912 37 171 129
-0.168534 -0.269002 -0.186620 68 1 84
-0.481771 0.425849 0.280852 69 54 129
-0.100001 -0.242977 -0.227343 60 78 138
-0.595048 -0.087163 0.062171 68 1 84
0.707388 -0.531065 0.250386 36 132 141
-0.591632 0.049356 0.246649 68 1 84
0.428232 -0.347750 -0.170639 71 15 98
0.286363 -0.391384 -0.235508 65 66 134
0.564111 0.204714 0.261281 68 1 84
-0.542070 0.026955 -0.028458 68 1 84
-0.416612 -0.483718 -0.239042 30 158 136
0.410836 -0.185406 -0.148341 68 1 84
0.295484 -0.283917 -0.189243 68 1 84
-0.457547 0.456776 0.229358 66 61 132
0.160379 0.582441 -0.156048 103 204 92
-0.037913 0.472723 -0.234170 100 203 93
0.672441 -0.172272 0.333287 57 84 139
-0.660818 -0.312409 0.504291 52 95 141
-0.125981 0.073301 -0.292788 68 1 84
0.615596 -0.415578 0.011098 61 74 137
-0.612441 -0.002260 0.534507 68 1 84
-0.620497 -0.086813 0.182211 68 1 84
0.002841 -0.199121 -0.362340 47 105 141
-0.661597 -0.475828 0.264467 71 18 101
0.354237 -0.189098 -0.175855 68 1 84
-0.513758 0.322362 0.124497 68 1 84
0.711730 -0.484912 0.276091 33 140 141
0.183748 -0.280016 -0.168889 72 30 112
-0.160642 0.096546 -0.207939 68 1 84
-0.310805 0.338285 -0.112236 44 114 142
0.131268 0.430412 -0.189319 39 125 142
0.184184 -0.277184 -0.169529 72 25 107
0.421313 0.278983 -0.057322 68 1 84
0.139497 -0.052934 -0.330448 68 1 84
-0.029625 -0.152129 -0.369389 55 89 140
-0.171302 0.568092 -0.172979 210 225 27
0.240664 0.298596 -0.115417 68 1 84
-0.560795 -0.419680 -0.032388 72 33 114
0.672058 -0.170827 0.298810 67 58 131
0.346550 0.536030 0.155401 31 163 134
0.245283 0.206285 -0.160027 68 1 84
-0.469931 0.434335 0.146417 72 35 116
-0.477220 0.333890 0.036995 68 1 84
-0.152349 0.016762 -0.247188 68 1 84
-0.087248 -0.023044 -0.417512 72 33 114
0.128919 -0.049283 -0.397463 68 1 84
-0.011771 0.183505 -0.279961 63 71 136
-0.525503 -0.182664 -0.043814 68 1 84
-0.524600 0.040323 -0.057047 68 1 84
-0.117160 0.097525 -0.232519 68 1 84
0.201521 -0.286698 -0.166852 68 1 84
-0.659203 -0.287849 0.377638 69 8 91
0.013487 0.648486 -0.154318 238 229 27
-0.079406 -0.107069 -0.332698 72 35 116
0.369726 0.360466 -0.052323 68 1 84
-0.361308 0.273876 -0.116766 68 1 84
-0.567174 0.263101 0.387209 68 3 87
0.552020 0.070683 -0.002250 68 1 84
0.102840 0.643184 -0.101645 189 222 38
0.179217 0.041319 -0.230490 68 1 84
-0.511401 0.344941 0.140885 68 1 84
-0.265890 0.471879 -0.112310 154 216 60
0.072392 0.120309 -0.274313 68 1 84
-0.196136 0.180158 -0.205563 70 14 97
0.538229 0.290381 0.241050 68 1 84
0.685502 -0.545516 0.151585 36 134 141
0.508225 0.357027 0.352976 69 53 128
0.195382 -0.299921 -0.168991 68 1 84
0.102225 -0.000991 -0.454443 71 15 98
-0.617455 -0.039723 0.357093 68 1 84
-0.415973 -0.310655 -0.141814 71 17 99
0.531696 0.272298 0.472297 36 132 141
-0.331643 -0.370617 -0.246255 47 106 141
-0.380911 -0.254120 -0.177454 71 22 105
-0.141983 0.198004 -0.239608 36 134 141
0.174120 0.045530 -0.207033 68 1 84
0.589154 0.083539 0.274175 70 11 94
0.585191 -0.392108 -0.043749 70 48 125
-0.657045 -0.398816 0.269279 72 29 111
-0.592703 -0.544976 0.014662 56 87 140
0.610234 0.009829 0.249534 71 18 101
-0.480707 0.238583 -0.020535 68 1 84
0.630767 -0.241889 0.087483 68 1 84
0.180941 0.090974 -0.188464 68 1 84
-0.537073 0.139591 0.031058 68 1 84
-0.513828 -0.075067 -0.082171 68 1 84
-0.663028 -0.319674 0.332626 72 30 112
0.160453 -0.019763 -0.310680 68 1 84
0.705412 -0.454556 0.271539 31 149 139
-0.250212 0.464432 -0.129681 151 216 62
0.147749 0.496950 -0.189641 38 172 129
-0.551964 0.290704 0.236950 68 1 84
-0.173803 0.518939 -0.188144 134 212 73
0.510641 0.351457 0.216193 70 12 95
-0.631778 -0.531294 0.120454 69 50 127
-0.304339 0.349428 -0.110943 44 113 142
0.615474 -0.002601 0.294399 71 43 122
-0.349312 0.513217 0.027625 42 176 126
0.666091 -0.326571 0.164880 70 49 126
-0.299580 0.449545 -0.086624 96 201 96
-0.663292 -0.591982 0.250773 64 68 135
-0.154687 0.052510 -0.290780 71 20 102
-0.310778 0.315794 -0.117433 65 65 134
-0.027131 0.097562 -0.306479 68 1 84
-0.622001 -0.051871 0.553173 72 35 116
0.588558 0.002125 0.045353 68 1 84
-0.624401 -0.057663 0.510742 68 1 84
-0.391553 0.157372 -0.163518 68 1 84
-0.677964 -0.596358 0.321577 56 87 140
-0.543480 0.288376 0.481884 71 38 118
-0.075867 0.063065 -0.287906 68 1 84
0.550229 0.120963 0.033227 68 1 84
-0.618560 -0.025690 0.376141 68 1 84
0.319681 0.485095 -0.000265 43 115 142
0.488639 0.383434 0.361711 67 60 132
-0.598893 -0.183793 0.060752 68 1 84
-0.642430 -0.172868 0.452194 70 11 94
-0.627550 -0.154840 0.148064 68 1 84
0.490566 0.214508 -0.021990 68 1 84
-0.587128 -0.073668 0.046071 68 1 84
0.573040 0.190234 0.386526 64 68 135
0.481140 -0.291425 -0.083418 68 1 84
0.402361 0.491927 0.158274 57 84 139
0.624800 -0.407811 0.035170 58 82 139
0.467458 0.378479 0.472425 103 204 92
-0.240515 0.304369 -0.138554 48 104 141
-0.127060 0.475860 -0.209039 186 222 39
-0.102211 -0.243338 -0.223397 71 38 118
0.572431 0.121930 0.172074 68 1 84
0.550406 0.179485 0.108378 68 1 84
0.333754 -0.353960 -0.206395 64 67 135
0.006305 -0.394762 -0.313904 35 137 141
0.419342 0.476227 0.276664 36 133 141
-0.480560 0.422542 0.325805 61 76 137
-0.515127 0.352375 0.459040 71 39 119
0.073642 -0.122195 -0.383574 71 43 122
-0.217059 0.273485 -0.149662 67 58 131
-0.524145 0.363316 0.322074 72 34 115
0.058458 0.355909 -0.244505 64 68 135
-0.602808 0.092858 0.368325 68 1 84
-0.575682 0.186173 0.236945 68 1 84
-0.508230 -0.530264 -0.136918 61 74 137
-0.476104 0.109838 -0.108425 68 1 84
0.535769 0.281259 0.198532 68 1 84
0.509962 -0.220727 -0.058921 68 1 84
-0.657351 -0.278648 0.266350 68 1 84
-0.429002 0.463971 0.089265 42 119 142
-0.510050 -0.425500 -0.129147 70 45 124
0.652708 -0.166064 0.159781 68 1 84
0.328041 -0.455522 -0.257493 39 125 142
0.358367 -0.517583 -0.283166 44 114 142
-0.519480 0.248466 0.073299 68 1 84
-0.471720 0.323392 0.019488 68 1 84
-0.598077 -0.005536 0.182497 68 1 84
0.641386 -0.443266 0.057284 47 106 141
-0.456799 0.213517 -0.074521 68 1 84
0.694610 -0.455804 0.236139 35 136 141
0.056944 0.038437 -0.467187 62 72 136
-0.630202 -0.109699 0.261458 68 1 84
-0.061995 -0.303911 -0.248425 61 74 137
-0.129265 0.306962 -0.235851 39 125 142
-0.327482 -0.284348 -0.201132 70 11 94
-0.180227 0.186118 -0.214872 68 57 130
0.625862 -0.323046 0.068824 68 1 84
-0.237610 0.266453 -0.137262 63 71 136
-0.223927 0.291941 -0.150372 49 102 141
0.485345 -0.255239 -0.075492 68 1 84
0.308652 0.444045 -0.040947 67 60 132
-0.559181 -0.417593 -0.034984 71 40 120
0.529925 -0.525356 -0.159308 61 74 137
0.623414 -0.065478 0.121044 68 1 84
0.680006 -0.490940 0.146600 31 149 139
0.249544 0.242497 -0.138030 68 1 84
-0.384936 0.212416 -0.134193 68 1 84
0.493117 0.196695 -0.031862 68 1 84
-0.007714 0.387171 -0.222133 38 129 142
0.606537 0.041243 0.360910 49 101 141
0.624861 -0.007302 0.456507 43 115 142
-0.260030 0.566834 -0.041553 170 219 50
-0.642379 -0.151407 0.346196 68 1 84
0.526577 -0.110425 -0.071493 68 1 84
0.490395 -0.262961 -0.068573 68 1 84
-0.656528 -0.208395 0.363088 68 1 84
0.217408 0.352788 -0.141367 71 15 98
0.685123 -0.247436 0.423608 30 155 137
-0.381522 0.512209 0.090151 34 167 132
-0.368226 0.088519 -0.195186 68 1 84
-0.281877 0.148042 -0.187953 68 1 84
0.518753 -0.393611 -0.144800 68 55 129
-0.062276 0.225700 -0.286112 52 95 141
0.143066 0.337633 -0.218621 71 21 103
-0.655477 -0.430990 0.255882 70 48 125
0.519466 0.266246 0.097020 68 1 84
-0.053527 0.241328 -0.285849 60 78 138
-0.254750 0.088666 -0.206362 68 1 84
0.324984 -0.189284 -0.180689 68 1 84
-0.022561 0.651472 -0.148751 218 226 24
0.298457 0.492160 -0.021948 52 94 141
0.524283 0.275569 0.127550 68 1 84
0.577781 0.092892 0.545913 79 195 105
0.699689 -0.390808 0.325253 38 127 142
-0.204950 0.059832 -0.204552 68 1 84
0.664956 -0.399015 0.142040 52 95 141
0.571288 -0.168563 -0.004258 68 1 84
0.024687 -0.442168 -0.333946 33 140 141
-0.626512 -0.075393 0.541356 65 65 134
0.518281 -0.477105 -0.174237 46 109 142
-0.178372 0.138458 -0.211062 68 1 84
0.475167 0.275940 0.004949 68 1 84
0.658041 -0.123130 0.314135 72 29 111
0.677829 -0.456045 0.158675 30 158 136
-0.643154 -0.547417 0.164261 69 54 129
-0.640440 -0.186022 0.522062 59 81 138
-0.018822 -0.041394 -0.447790 43 115 142
-0.128499 0.176924 -0.243761 48 103 141
0.379452 -0.328756 -0.179007 70 9 92
0.186453 -0.327826 -0.186675 69 8 91
-0.490014 -0.434205 -0.160322 32 144 140
-0.088285 0.389506 -0.215976 85 198 102
0.574275 0.112564 0.533691 42 176 126
-0.558614 -0.249511 0.005484 68 1 84
0.670201 -0.198736 0.216636 71 21 103
-0.637355 -0.172042 0.510727 61 76 137
0.630698 -0.046653 0.345708 61 74 137
-0.626093 -0.296430 0.118018 68 1 84
0.139715 0.567984 -0.185411 71 192 110
0.008115 -0.466909 -0.338003 36 133 141
0.096565 0.257093 -0.250133 68 1 84
-0.580222 -0.427789 0.004187 72 34 115
-0.555927 -0.454889 -0.050471 64 68 135
0.011244 0.490326 -0.241346 54 184 119
-0.592457 0.042050 0.244100 68 1 84
-0.240723 0.484402 -0.135079 151 216 62
-0.392384 0.337399 -0.074550 51 97 141
-0.155951 -0.380743 -0.231494 58 82 139
-0.588248 -0.310655 0.041289 68 1 84
0.540431 0.298342 0.319758 69 8 91
-0.628538 -0.461443 0.119929 70 14 97
0.094380 -0.203843 -0.314248 68 1 84
0.179578 0.612391 -0.080357 129 211 76
-0.555026 0.191110 0.148050 68 1 84
0.724479 -0.544594 0.306720 33 140 141
0.068125 0.073490 -0.439005 62 72 136
0.716051 -0.459516 0.308571 30 155 137
-0.632185 -0.119898 0.232871 68 1 84
-0.653165 -0.242479 0.467256 72 32 113
-0.675784 -0.564486 0.302790 65 66 134
0.652452 -0.107760 0.343883 71 40 120
0.681943 -0.308410 0.232852 68 55 129
0.604802 -0.346978 0.021611 71 44 123
-0.510498 0.085390 -0.064844 68 1 84
0.210669 0.592637 -0.058415 94 201 97
-0.152071 -0.162923 -0.220165 72 29 111
0.653386 -0.108902 0.315244 69 52 127
-0.551895 0.085241 0.028472 68 1 84
0.513698 -0.256522 -0.047031 68 1 84
0.270573 -0.380997 -0.226316 70 48 125
-0.378549 0.153291 -0.171197 68 1 84
-0.567949 -0.156112 0.005838 68 1 84
0.666162 -0.173526 0.415572 45 110 142
-0.226619 -0.531148 -0.313777 30 153 138
0.675284 -0.418706 0.169958 54 90 140
0.421476 0.475874 0.178397 65 66 134
0.617732 -0.025456 0.142782 68 1 84
-0.667870 -0.343354 0.334860 70 45 124
-0.611601 -0.307182 0.083687 68 1 84
-0.491312 -0.019122 -0.111640 68 1 84
0.065225 -0.258428 -0.316364 70 45 124
-0.394542 -0.439978 -0.237615 30 153 138
-0.112982 0.429736 -0.205917 136 213 71
-0.375519 -0.349009 -0.218285 46 107 142
0.443422 0.010007 -0.151904 68 1 84
-0.603919 0.108336 0.409637 68 1 84
0.198376 0.482259 -0.150526 31 163 134
0.254498 0.022200 -0.200026 68 1 84
0.680252 -0.300399 0.225994 67 60 132
0.223681 0.594687 0.026071 79 195 105
0.721021 -0.403228 0.407313 31 148 139
0.499011 0.360623 0.163736 68 1 84
-0.680343 -0.540043 0.333393 72 33 114
0.285488 -0.246667 -0.195415 68 1 84
0.734162 -0.515516 0.400010 30 151 138
0.687256 -0.436661 0.214908 45 111 142
0.118763 0.202587 -0.257536 68 1 84
0.677857 -0.482318 0.143822 35 135 141
0.573177 -0.199190 0.003609 68 1 84
0.013263 -0.278887 -0.322872 42 119 142
-0.649798 -0.514581 0.196084 66 64 133
-0.384453 0.297280 -0.096603 70 12 95
-0.610890 -0.044810 0.201672 68 1 84
-0.523296 0.249249 0.086233 68 1 84
-0.634627 -0.112544 0.387833 68 1 84
-0.491149 -0.478594 -0.168286 30 158 136
0.508264 -0.377768 -0.140026 71 38 118
-0.686710 -0.610708 0.394222 54 91 140
0.495025 -0.129348 -0.094719 68 1 84
0.697496 -0.278192 0.465885 46 178 124
-0.509248 -0.477948 -0.140542 62 73 137
-0.430611 -0.538567 -0.229108 66 190 113
-0.366277 -0.008610 -0.196669 68 1 84
0.374633 0.516626 0.248397 38 172 129
-0.281779 0.013511 -0.218464 68 1 84
0.500797 0.200479 -0.014713 68 1 84
0.689608 -0.269741 0.303214 52 95 141
0.557628 -0.131911 -0.029703 68 1 84
-0.283081 -0.059488 -0.204202 68 1 84
-0.625772 -0.064885 0.506923 72 26 108
-0.325357 0.095678 -0.205955 68 1 84
-0.651055 -0.181751 0.329342 68 1 84
-0.192281 0.198185 -0.206830 69 50 127
0.401590 0.496599 0.195872 57 85 139
0.486207 -0.005494 -0.119382 68 1 84
0.281384 0.008130 -0.201548 68 1 84
0.262154 0.146130 -0.168936 68 1 84
-0.588613 0.077654 0.248957 68 1 84
0.363154 -0.347445 -0.195071 64 67 135
0.535008 0.051485 -0.048675 68 1 84
0.207152 -0.436608 -0.276454 50 99 141
0.473506 -0.109013 -0.115339 68 1 84
-0.270628 -0.492781 -0.287991 46 178 124
-0.564932 0.266353 0.401289 70 14 97
-0.127478 -0.013792 -0.328882 71 43 122
-0.008974 -0.239683 -0.335404 48 103 141
0.536590 0.235936 0.124827 68 1 84
-0.078684 0.575138 -0.223046 141 214 68
0.174087 -0.121383 -0.222083 68 1 84
0.428809 0.088180 -0.151504 68 1 84
-0.321835 0.403911 -0.087541 31 146 140
-0.630917 -0.112114 0.267622 68 1 84
0.511414 0.016948 -0.091753 68 1 84
0.508789 -0.059697 -0.095719 68 1 84
-0.287040 -0.114820 -0.187003 68 1 84
-0.525559 -0.304220 -0.031807 68 3 87
0.101410 0.042289 -0.449601 71 44 123
-0.026308 0.119938 -0.293263 68 1 84
0.077647 -0.180294 -0.349248 68 55 129
-0.142652 0.072376 -0.275344 68 1 84
-0.504243 0.390693 0.345104 72 32 113
-0.649638 -0.589457 0.193950 62 72 136
0.394278 0.489376 0.120153 59 81 138
0.578853 0.140083 0.288093 72 25 107
-0.610375 0.051037 0.389037 68 1 84
0.658963 -0.137867 0.513834 39 126 142
-0.635698 -0.137785 0.475035 71 24 106
-0.046417 -0.331927 -0.269209 63 71 136
-0.237855 0.361089 -0.146330 42 118 142
-0.487933 0.418692 0.214227 71 24 106
0.532172 0.291781 0.423394 49 100 141
-0.016986 0.646016 -0.164475 178 221 44
0.689781 -0.287274 0.334452 60 78 138
-0.609859 -0.087680 0.115604 68 1 84
0.458018 0.396581 0.452678 69 191 111
0.017381 -0.323251 -0.308490 51 96 141
0.155438 0.512260 -0.185884 56 185 118
-0.145111 -0.465188 -0.301566 48 104 141
-0.653953 -0.364755 0.239700 68 2 85
0.415229 -0.434146 -0.229126 71 37 117
0.101209 -0.103146 -0.368153 69 5 88
0.323287 -0.217895 -0.191703 68 1 84
-0.496315 -0.296005 -0.056252 68 1 84
0.083880 0.634912 -0.152526 129 211 76
0.619055 -0.001808 0.505977 35 168 131
0.314875 0.137813 -0.171245 68 1 84
-0.116380 -0.358276 -0.218437 71 38 118
0.155833 0.125295 -0.210143 68 1 84
0.692506 -0.460076 0.225131 39 124 142
0.411225 0.071210 -0.164468 68 1 84
-0.019275 -0.428129 -0.320764 35 137 141
-0.230164 0.417282 -0.151010 75 194 108
0.370977 -0.386733 -0.236403 46 108 142
0.130634 0.169641 -0.238957 68 1 84
0.494202 -0.263832 -0.065192 68 1 84
-0.355282 0.356021 -0.092470 49 102 141
-0.593527 -0.358082 0.047610 68 1 84
0.213790 -0.045247 -0.203767 68 1 84
-0.630845 -0.202177 0.141245 68 1 84
-0.130247 0.504697 -0.211971 165 218 53
0.596074 0.055351 0.529510 53 183 120
0.677872 -0.191926 0.329062 60 77 138
0.468596 0.238877 -0.035164 68 1 84
-0.346230 -0.274665 -0.194634 68 1 84
-0.655144 -0.283805 0.457798 67 58 131
0.020269 0.578364 -0.228007 146 215 65
-0.043500 0.129795 -0.282507 68 1 84
-0.481722 -0.138194 -0.100566 68 1 84
-0.643111 -0.152102 0.421492 71 20 102
0.622700 -0.019493 0.371531 43 116 142
0.185819 0.259291 -0.180328 68 1 84
0.618481 -0.332738 0.052999 68 1 84
0.178900 0.028094 -0.198467 68 1 84
-0.116969 0.100907 -0.231965 68 1 84
-0.063704 -0.345440 -0.249743 63 71 136
-0.281776 -0.370043 -0.236429 53 93 140
-0.647693 -0.226693 0.508264 60 78 138
-0.599067 0.138616 0.395780 68 1 84
-0.051385 -0.210313 -0.319823 72 30 112
-0.604418 -0.133196 0.078608 68 1 84
0.598645 0.007357 0.087817 68 1 84
0.588162 -0.236826 0.024487 68 1 84
0.003519 0.414260 -0.221965 48 180 122
-0.118557 -0.044946 -0.301244 68 1 84
0.565002 0.220792 0.350770 72 26 108
0.324300 -0.106476 -0.168874 68 1 84
0.476957 0.263545 -0.002768 68 1 84
-0.467703 0.193230 -0.073715 68 1 84
0.621590 -0.016867 0.526724 37 171 129
-0.443375 -0.266993 -0.108304 68 1 84
-0.660017 -0.263151 0.322510 68 1 84
-0.121296 0.200182 -0.252403 48 104 141
-0.160188 -0.435218 -0.266157 50 99 141
-0.298350 0.355888 -0.111166 38 128 142
-0.416261 -0.225978 -0.145001 71 17 99
0.152782 -0.077386 -0.262674 71 20 102
-0.116943 0.530632 -0.218469 197 223 33
-0.314737 -0.184557 -0.191360 70 9 92
-0.524762 0.321896 0.159179 68 1 84
-0.535528 0.232526 0.112166 68 1 84
-0.647486 -0.430686 0.199936 69 54 129
-0.608590 0.020899 0.339620 68 1 84
-0.008043 0.087469 -0.422331 72 32 113
0.303502 0.368428 -0.072497 68 1 84
0.149691 -0.264729 -0.184614 62 73 137
-0.324871 0.556177 0.104117 124 210 79
0.267243 0.284082 -0.097624 68 1 84
0.093326 -0.048617 -0.433136 70 9 92
0.574388 0.119821 0.524214 30 160 135
0.718140 -0.387564 0.434835 35 169 130
0.146003 0.001380 -0.405773 68 1 84
0.106546 0.059129 -0.380812 68 1 84
0.115776 -0.153527 -0.310188 72 26 108
-0.066943 -0.404498 -0.287252 38 128 142
-0.001228 -0.019157 -0.461855 56 86 139
-0.321398 0.142091 -0.189555 68 1 84
-0.274555 0.576247 0.036201 178 221 44
-0.691627 -0.515612 0.437937 63 71 136
-0.616131 0.034622 0.460756 72 25 107
0.507400 0.362467 0.323589 68 55 129
0.152793 0.621978 -0.102336 136 213 71
0.170844 -0.310618 -0.180289 71 40 120
-0.514625 0.095999 -0.052296 68 1 84
-0.240994 -0.004077 -0.218656 68 1 84
0.290496 0.315194 -0.086716 68 1 84
0.208760 -0.390473 -0.224913 66 62 133
0.029526 0.359826 -0.244197 45 111 142
0.178299 0.039563 -0.226607 68 1 84
0.030139 0.645981 -0.157479 199 224 31
-0.285854 0.377164 -0.113328 30 151 138
-0.518250 0.090043 -0.048270 68 1 84
-0.568680 0.197573 0.208231 68 1 84
0.506223 -0.109036 -0.090382 68 1 84
0.473487 0.383963 0.435264 38 172 129
-0.548712 0.316719 0.345078 68 1 84
0.677026 -0.222991 0.501506 69 191 111
-0.546750 0.047040 -0.008156 68 1 84
-0.615507 0.035481 0.417633 72 25 107
-0.052659 -0.232789 -0.301998 72 33 114
-0.342937 -0.057047 -0.191194 68 1 84
0.537028 -0.339027 -0.079667 71 39 119
-0.197899 0.232157 -0.194074 68 55 129
0.118884 -0.269702 -0.224854 68 1 84
0.688147 -0.534355 0.167026 38 128 142
-0.595920 0.009013 0.212155 68 1 84
-0.003553 0.525174 -0.242369 77 194 107
0.376166 -0.396221 -0.235834 53 92 140
-0.581172 -0.499638 -0.006510 53 93 140
0.679111 -0.198590 0.297011 60 78 138
-0.331006 0.542999 0.061281 96 201 96
0.150037 0.207435 -0.235305 68 1 84
0.330661 0.073686 -0.191130 68 1 84
-0.370391 -0.138862 -0.163216 68 1 84
-0.170120 0.551560 -0.182321 159 217 56
0.532360 0.280842 0.175664 68 1 84
-0.678606 -0.407740 0.381350 63 69 135
-0.283756 0.514126 -0.069330 170 219 50
-0.470902 -0.128825 -0.111844 68 1 84
-0.372850 -0.201864 -0.174633 69 50 127
0.166051 0.270553 -0.187337 71 21 103
0.048648 0.398389 -0.215395 34 137 141
-0.075481 0.571544 -0.225478 146 215 65
0.146924 -0.284251 -0.186207 62 72 136
-0.152838 0.036858 -0.247002 68 1 84
-0.131076 0.545037 -0.210415 154 216 60
0.542987 0.291532 0.329738 71 17 99
0.711323 -0.362767 0.455957 32 145 140
-0.474173 -0.356763 -0.126724 61 76 137
-0.340270 0.422286 -0.067255 33 141 140
0.456535 0.438680 0.217768 70 11 94
0.645991 -0.095308 0.214205 68 1 84
-0.048181 -0.256572 -0.291061 72 30 112
-0.214708 0.405241 -0.161777 98 202 95
0.645921 -0.448649 0.066189 41 120 142
-0.054096 -0.167078 -0.339581 61 76 137
-0.488486 0.418469 0.260601 68 1 84
-0.357605 0.502726 0.023675 39 173 128
-0.604137 0.093706 0.386795 68 1 84
-0.525919 -0.137689 -0.055623 68 1 84
0.475082 0.394895 0.138790 68 1 84
0.165451 0.309479 -0.203434 72 25 107
0.709711 -0.402233 0.366411 35 136 141
0.037763 0.232697 -0.296991 68 1 84
-0.190447 0.589129 -0.133482 233 228 25
-0.276934 0.325399 -0.120355 42 119 142
0.215774 0.446982 -0.134039 39 126 142
-0.305017 -0.116069 -0.183703 68 1 84
0.638298 -0.388980 0.074692 68 57 130
0.482582 -0.303105 -0.091689 68 1 84
-0.017513 0.271341 -0.269880 66 62 133
-0.580422 0.221685 0.375820 69 8 91
-0.483131 0.092314 -0.105312 68 1 84
-0.450566 -0.055743 -0.143548 68 1 84
-0.463305 -0.314463 -0.100547 72 34 115
-0.185930 0.499440 -0.180370 220 226 24
0.556368 0.153335 0.098362 68 1 84
0.571576 0.196330 0.376152 72 34 115
0.177184 -0.178804 -0.202384 68 1 84
-0.436827 -0.348713 -0.158327 56 87 140
-0.180014 0.583730 -0.152132 233 228 25
-0.249883 -0.070445 -0.206116 68 1 84
-0.307859 0.111080 -0.202803 68 1 84
0.491560 0.339851 0.101516 68 1 84
-0.011970 0.656279 -0.134050 223 227 24
-0.299250 -0.027714 -0.209718 68 1 84
0.162881 -0.342553 -0.201317 69 5 88
-0.227546 0.512393 -0.140820 170 219 50
-0.583910 0.204429 0.428343 69 5 88
-0.016052 -0.106707 -0.401655 64 67 135
0.662304 -0.220883 0.169125 68 1 84
0.192452 0.584899 -0.113038 68 190 112
-0.559752 0.285685 0.380377 68 1 84
0.372816 0.485358 0.071074 68 57 130
0.158381 -0.340313 -0.201874 71 18 101
0.695501 -0.320197 0.401900 32 144 140
-0.576185 -0.350593 0.019477 71 21 103
-0.025083 0.059486 -0.338303 72 26 108
0.146821 -0.401494 -0.276053 57 85 139
-0.256279 -0.338858 -0.205766 68 57 130
0.058662 -0.239852 -0.330824 63 69 135
0.601110 0.029937 0.147063 68 1 84
-0.624249 -0.090921 0.220317 68 1 84
0.364509 -0.252737 -0.184264 68 1 84
0.314270 -0.149842 -0.171126 68 1 84
0.361356 -0.480113 -0.265651 30 158 136
-0.433826 -0.207424 -0.126547 68 1 84
0.087960 0.525067 -0.223517 50 181 122
0.566873 -0.091876 -0.022692 68 1 84
0.305078 -0.065866 -0.185389 68 1 84
0.260857 0.542584 -0.034706 40 122 142
0.359079 -0.130593 -0.158456 68 1 84
-0.600350 0.124122 0.381465 68 1 84
-0.216947 0.265967 -0.147364 66 61 132
-0.326245 0.407081 -0.083883 30 155 137
0.032277 0.080796 -0.442554 68 57 130
0.556973 0.141142 0.553818 85 198 102
0.445854 -0.050027 -0.144982 68 1 84
-0.005930 0.212045 -0.293418 70 49 126
0.496290 -0.384552 -0.152970 70 12 95
0.688765 -0.275541 0.330765 49 102 141
-0.383238 -0.191542 -0.163398 71 20 102
0.509112 -0.263461 -0.051590 71 18 101
0.513442 0.350852 0.340101 69 52 127
0.671254 -0.461299 0.132866 37 131 141
-0.003491 0.096070 -0.376894 70 48 125
0.323825 -0.293256 -0.184096 68 1 84
0.568527 0.123955 0.128801 68 1 84
0.117743 0.031877 -0.440595 69 8 91
0.142855 0.033801 -0.395558 68 1 84
0.054252 0.219639 -0.291089 68 1 84
-0.097675 -0.344552 -0.217731 72 34 115
0.120132 0.357095 -0.221356 72 35 116
-0.628017 -0.513862 0.108814 70 48 125
0.229295 0.590584 0.020549 71 192 110
-0.276182 0.554437 -0.031588 146 215 65
-0.659929 -0.274756 0.332455 68 1 84
0.083739 -0.451969 -0.335098 32 144 140
-0.568836 -0.521228 -0.029615 43 115 142
0.409451 -0.352899 -0.189996 67 58 131
-0.074285 0.345561 -0.253093 47 105 141
0.271388 0.577150 0.119954 50 181 122
0.681753 -0.323213 0.229117 66 64 133
-0.591945 -0.025253 0.085505 68 1 84
0.148780 -0.120609 -0.263500 68 1 84
-0.379040 -0.501944 -0.263931 48 180 122
0.242504 0.361605 -0.117296 71 39 119
0.677708 -0.391261 0.191504 51 96 141
0.141936 -0.239374 -0.202974 70 14 97
-0.148780 0.170070 -0.231464 67 58 131
-0.657012 -0.238720 0.392747 69 6 90
0.476561 -0.128172 -0.108014 68 1 84
0.559370 -0.370536 -0.078268 61 74 137
-0.499799 0.392312 0.375625 71 17 99
-0.447429 0.148507 -0.126419 68 1 84
-0.224365 -0.457677 -0.271575 30 157 136
0.092530 -0.403956 -0.310347 61 75 137
-0.359659 -0.143021 -0.166570 68 1 84
-0.624725 -0.074200 0.376968 68 1 84
0.476412 0.382185 0.428925 30 153 138
-0.528148 0.358461 0.279179 68 1 84
0.684336 -0.302822 0.246375 66 64 133
-0.587912 -0.451655 0.013815 71 39 119
0.382871 0.460397 0.049691 71 39 119
0.457870 0.438125 0.245234 70 48 125
0.626569 -0.030990 0.388015 43 116 142
-0.606287 0.065310 0.369914 68 1 84
0.534886 0.264328 0.473266 38 129 142
0.281240 -0.141883 -0.174958 68 1 84
-0.521033 -0.350650 -0.061410 70 49 126
-0.237516 0.589305 -0.037006 215 226 25
-0.659816 -0.271194 0.315691 68 1 84
0.720847 -0.471726 0.327770 34 167 132
0.539846 0.111484 -0.002310 68 1 84
0.032102 0.438870 -0.225721 48 180 122
0.688976 -0.294903 0.375582 43 116 142
0.585774 0.137527 0.419973 54 91 140
-0.177883 0.517020 -0.185203 162 218 55
-0.280070 -0.523929 -0.299857 112 206 86
0.644268 -0.084176 0.348613 54 91 140
-0.443279 0.469252 0.157475 49 102 141
0.518019 0.343933 0.277452 71 22 105
0.407987 -0.400515 -0.214529 68 55 129
-0.589610 -0.042023 0.064807 68 1 84
0.407234 0.488397 0.165423 61 74 137
-0.509017 0.381923 0.362952 68 1 84
0.544630 0.104124 0.004010 68 1 84
0.220719 0.387916 -0.134117 50 99 141
0.117340 0.052028 -0.358767 68 1 84
-0.267799 -0.427449 -0.267176 40 122 142
-0.563022 0.271638 0.402066 70 11 94
-0.226713 0.225801 -0.177890 71 20 102
-0.594955 0.006781 0.187986 68 1 84
-0.627077 -0.163069 0.141799 68 1 84
-0.539811 0.218436 0.114158 68 1 84
0.031482 0.425722 -0.221324 59 186 117
-0.425856 0.033111 -0.170276 68 1 84
-0.624412 -0.063131 0.544175 69 52 127
0.456013 -0.459133 -0.220141 64 67 135
0.014640 0.473379 -0.237930 64 189 114
0.383843 -0.265297 -0.174356 68 1 84
0.386370 0.147895 -0.156383 68 1 84
0.414093 -0.467481 -0.242432 46 108 142
0.707653 -0.358092 0.422677 33 167 132
0.343253 0.022933 -0.192072 68 1 84
0.211350 0.176664 -0.184815 68 1 84
-0.383537 0.166885 -0.162222 68 1 84
-0.003956 -0.315084 -0.304006 59 80 138
-0.574813 -0.038837 0.025577 68 1 84
-0.639093 -0.124004 0.416281 68 1 84
0.359972 0.388198 -0.040229 68 1 84
-0.578239 0.227454 0.403112 68 1 84
-0.115892 0.070642 -0.290474 71 15 98
-0.611660 -0.044866 0.240991 68 1 84
0.339909 -0.459952 -0.258374 36 134 141
-0.645279 -0.329935 0.190197 68 1 84
0.606835 -0.162131 0.047588 68 1 84
0.139471 -0.342020 -0.214183 68 1 84
-0.391924 0.142594 -0.170127 68 1 84
0.135207 -0.085810 -0.302234 68 1 84
-0.149849 0.237484 -0.230726 46 107 142
-0.511277 -0.252115 -0.041706 68 1 84
0.235971 0.045264 -0.191469 68 1 84
0.682346 -0.228610 0.269753 59 81 138
-0.183895 0.286563 -0.181734 56 87 140
0.611349 0.019102 0.349542 56 87 140
-0.040169 -0.153601 -0.359907 54 91 140
0.624576 -0.024641 0.382727 42 118 142
0.327226 -0.476162 -0.270392 51 97 141
0.721746 -0.405210 0.461556 35 168 131
0.641730 -0.119529 0.149669 68 1 84
-0.301798 0.121077 -0.198635 68 1 84
0.467303 0.383671 0.095448 69 6 90
0.521780 0.184813 0.016236 68 1 84
0.168470 0.082797 -0.193586 68 1 84
-0.429170 0.040861 -0.167600 68 1 84
-0.665027 -0.545369 0.248915 70 48 125
-0.667542 -0.416589 0.308141 67 60 132
-0.575267 0.141670 0.208669 68 1 84
-0.559165 -0.306455 0.003333 68 1 84
-0.634643 -0.119087 0.372967 68 1 84
0.452392 -0.199994 -0.120903 68 1 84
-0.096417 -0.026995 -0.396761 60 78 138
0.489743 -0.495040 -0.201485 60 78 138
0.411618 0.450423 0.079518 68 1 84
0.132085 0.381297 -0.199937 56 87 140
-0.338041 0.484425 -0.026256 66 190 113
-0.425286 0.489443 0.220790 61 76 137
0.322088 0.158586 -0.162437 68 1 84
0.032002 0.384761 -0.220761 39 126 142
-0.633631 -0.127411 0.549457 60 77 138
0.490770 0.366526 0.138667 68 1 84
0.632367 -0.156852 0.098988 68 1 84
0.539709 0.207941 0.531643 73 193 109
-0.533475 -0.326057 -0.031233 71 15 98
0.582088 0.145484 0.336686 70 12 95
-0.169549 -0.136937 -0.216572 68 1 84
0.430228 0.322809 -0.019138 68 1 84
-0.688806 -0.523513 0.391864 63 71 136
-0.654020 -0.469789 0.228489 68 1 84
0.055384 0.249743 -0.283547 68 1 84
-0.559291 -0.428868 -0.038082 72 26 108
-0.214717 0.062253 -0.205693 68 1 84
-0.461580 -0.188288 -0.103188 68 1 84
-0.670946 -0.405284 0.315677 67 59 131
0.008192 -0.192169 -0.366404 45 110 142
0.005441 0.461714 -0.236546 71 192 110
0.399011 0.293981 -0.066843 68 1 84
0.347198 -0.050804 -0.178923 68 1 84
-0.630946 -0.101109 0.504849 71 43 122
0.584970 0.018282 0.047193 68 1 84
-0.045059 0.142015 -0.278753 68 1 84
0.112446 -0.259285 -0.243021 68 1 84
-0.353698 0.093399 -0.199486 68 1 84
0.374158 0.238729 -0.108696 68 1 84
-0.653491 -0.200550 0.298848 68 1 84
0.458649 0.227896 -0.056996 68 1 84
-0.501614 0.381287 0.159240 68 1 84
0.631510 -0.427952 0.040805 62 73 137
-0.129908 0.052778 -0.334801 54 90 140
0.037096 -0.087119 -0.423271 60 78 138
-0.470469 0.439804 0.266147 66 62 133
0.189720 0.336521 -0.173874 72 35 116
0.115974 0.343691 -0.234071 72 32 113
0.576982 0.115760 0.520332 30 160 135
-0.340245 0.405835 -0.076083 32 143 140
-0.293806 -0.270381 -0.205410 71 20 102
-0.555016 0.302775 0.338934 68 2 85
-0.042399 -0.076325 -0.409828 53 92 140
0.278915 0.062633 -0.194273 68 1 84
0.681461 -0.304448 0.231218 69 54 129
0.426115 0.452714 0.366683 32 144 140
0.734954 -0.563648 0.377018 33 142 140
0.664082 -0.214961 0.177802 68 1 84
0.140207 -0.365701 -0.234535 65 66 134
0.295845 -0.107989 -0.174622 68 1 84
-0.476135 -0.163865 -0.097002 68 1 84
0.539558 0.186543 0.070463 68 1 84
0.214669 -0.349065 -0.195529 68 1 84
-0.629393 -0.110611 0.221865 68 1 84
-0.411954 0.396792 -0.014409 41 121 142
0.690996 -0.266627 0.510549 75 194 108
0.668512 -0.205363 0.522704 30 153 138
0.332782 0.273070 -0.100508 68 1 84
0.192448 0.596884 -0.093360 98 202 95
-0.096715 -0.108040 -0.306289 68 1 84
-0.504766 0.365666 0.144784 68 1 84
0.033760 0.101581 -0.346885 68 1 84
0.429122 0.131538 -0.138356 68 1 84
0.556576 -0.506651 -0.123323 71 42 121
0.550984 0.245012 0.231833 68 1 84
-0.256132 0.199542 -0.176452 68 1 84
0.402155 -0.176519 -0.150378 68 1 84
-0.211538 0.317332 -0.165037 42 118 142
-0.609597 -0.144280 0.090883 68 1 84
-0.403666 0.194009 -0.136408 68 1 84
-0.006928 0.093924 -0.384952 68 57 130
0.404634 -0.521678 -0.263132 34 138 141
-0.613199 -0.113284 0.113784 68 1 84
-0.512379 0.226692 0.035354 68 1 84
0.595375 -0.371230 -0.010403 72 33 114
0.704497 -0.496858 0.252741 31 149 139
-0.424250 -0.155023 -0.135520 68 1 84
-0.485833 -0.505812 -0.175002 30 153 138
-0.580294 0.177030 0.256779 68 1 84
0.075979 0.135329 -0.267593 68 1 84
-0.144555 -0.134228 -0.239020 68 1 84
-0.587497 -0.428457 0.018706 72 26 108
0.014330 -0.429525 -0.327523 31 162 134
0.040077 -0.398227 -0.318228 33 142 140
-0.522781 -0.090900 -0.069782 68 1 84
0.624611 -0.029062 0.271616 71 22 105
-0.350791 0.246810 -0.130383 68 1 84
0.431125 0.436968 0.094906 68 1 84
-0.463616 0.286436 -0.015827 68 1 84
-0.482003 -0.383127 -0.137773 60 77 138
-0.528853 -0.522144 -0.102329 38 127 142
0.165619 -0.176449 -0.215069 68 1 84
0.159332 0.584719 -0.154967 96 201 96
-0.210096 0.505092 -0.159825 189 222 38
-0.367019 0.304554 -0.104819 71 40 120
0.143284 0.322566 -0.224636 69 54 129
0.715863 -0.430751 0.368337 30 152 138
-0.642733 -0.382188 0.184921 68 2 85
-0.624454 -0.430808 0.111856 71 22 105
0.497303 0.012868 -0.108027 68 1 84
0.545658 -0.237618 -0.020097 71 24 106
0.640374 -0.071081 0.508660 31 146 140
0.393383 -0.092795 -0.155975 68 1 84
-0.399444 -0.547792 -0.252810 40 122 142
-0.258805 -0.295002 -0.201492 71 39 119
-0.302310 0.569218 0.097694 173 220 48
-0.231630 -0.501631 -0.300343 30 155 137
-0.154446 0.029938 -0.301611 71 44 123
-0.562416 0.246734 0.480954 71 18 101
-0.238513 -0.502962 -0.299551 33 167 132
0.680476 -0.203949 0.300735 61 74 137
-0.590902 -0.484935 0.014076 63 69 135
-0.309902 0.156982 -0.182912 68 1 84
0.052621 0.154075 -0.272551 68 1 84
0.401942 0.213850 -0.113576 68 1 84
0.223481 -0.122899 -0.190301 68 1 84
0.201100 -0.188648 -0.186452 68 1 84
0.530840 -0.188689 -0.046348 68 1 84
-0.613161 -0.457178 0.072659 72 29 111
-0.547788 0.303560 0.422355 68 1 84
0.018478 0.354031 -0.255677 52 95 141
-0.541091 -0.363329 -0.041633 66 62 133
-0.062378 -0.242732 -0.282276 72 30 112
-0.074701 0.587789 -0.218572 181 221 43
-0.445234 0.011112 -0.155956 68 1 84
-0.674531 -0.598009 0.300137 56 87 140
-0.482128 0.246594 -0.013010 68 1 84
0.030963 0.618631 -0.198895 178 221 44
0.647861 -0.349384 0.109442 69 5 88
-0.620989 -0.080190 0.313437 68 1 84
0.596732 0.091070 0.395579 62 73 137
-0.520296 0.285997 0.108471 68 1 84
0.067248 0.626162 -0.180131 131 211 75
0.552720 0.000701 -0.035429 68 1 84
-0.470858 0.285510 -0.006030 68 1 84
0.348685 0.499373 0.057068 61 74 137
0.200068 0.605280 -0.043046 131 211 75
0.594308 0.051765 0.168847 68 1 84
0.422354 0.331402 -0.022484 68 1 84
0.478345 0.102305 -0.107696 68 1 84
-0.681095 -0.533147 0.338524 71 24 106
0.167759 0.425916 -0.171878 35 136 141
0.475724 0.336183 0.059492 68 1 84
0.064807 0.068087 -0.447528 61 75 137
-0.579592 0.216465 0.440274 68 3 87
0.423980 0.406377 0.044314 68 1 84
-0.322940 0.098101 -0.205757 68 1 84
0.160473 -0.051774 -0.244504 68 1 84
-0.360295 0.243348 -0.127921 68 1 84
0.305952 0.542037 0.066793 33 167 132
0.132216 -0.301729 -0.201224 71 37 117
-0.250706 0.144781 -0.190568 68 1 84
0.463207 0.381177 0.083370 68 1 84
-0.245032 -0.344382 -0.214446 66 64 133
0.545844 -0.357865 -0.087172 63 69 135
0.323153 0.220081 -0.130098 68 1 84
0.017938 -0.420003 -0.324553 30 157 136
-0.217783 0.074644 -0.202974 68 1 84
-0.146783 -0.004900 -0.265107 70 12 95
-0.052182 0.228095 -0.289412 63 69 135
0.645955 -0.452299 0.064642 41 121 142
0.323912 0.324363 -0.081701 68 1 84
-0.577733 -0.301448 0.027422 72 32 113
0.032946 -0.134262 -0.394550 58 82 139
-0.127664 -0.499236 -0.325995 42 118 142
0.172578 -0.374983 -0.221778 62 72 136
-0.626301 -0.051269 0.471328 68 1 84
0.067391 0.261117 -0.264415 68 1 84
0.197152 0.359228 -0.159497 72 29 111
-0.172643 0.540280 -0.184711 126 210 78
0.492288 -0.076233 -0.108714 68 1 84
0.711921 -0.364019 0.477105 42 176 126
-0.658660 -0.525217 0.229878 70 45 124
-0.638431 -0.540100 0.145127 69 54 129
0.178265 0.329604 -0.188528 71 39 119
-0.106955 -0.275663 -0.202618 70 49 126
-0.125324 -0.446236 -0.292112 61 74 137
-0.616478 -0.083595 0.156455 68 1 84
0.559368 0.196844 0.203691 68 1 84
-0.438464 -0.399490 -0.188072 44 112 142
-0.398657 0.239497 -0.111423 68 1 84
0.189540 0.555831 -0.143212 105 204 91
0.621060 -0.481891 0.001791 69 54 129
0.184696 -0.347820 -0.197714 71 38 118
-0.671325 -0.580067 0.280892 66 61 132
0.486576 0.014635 -0.118337 68 1 84
0.352320 0.261248 -0.102382 68 1 84
-0.531844 -0.000483 -0.054467 68 1 84
0.139436 0.599484 -0.160096 103 204 92
-0.415518 0.496968 0.161791 42 118 142
-0.319714 0.111775 -0.201655 68 1 84
-0.313900 -0.162684 -0.183252 71 21 103
0.602282 0.075846 0.428563 64 67 135
-0.610701 -0.539543 0.057549 67 58 131
-0.320211 -0.254526 -0.208519 72 35 116
-0.424260 -0.327134 -0.149119 51 97 141
-0.302731 -0.381645 -0.258340 54 90 140
-0.543508 0.250472 0.154018 68 1 84
0.431206 0.455295 0.134176 72 26 108
-0.299502 -0.190892 -0.197217 72 35 116
-0.685158 -0.531981 0.361269 69 54 129
0.733182 -0.492948 0.411801 35 169 130
-0.658573 -0.288250 0.384826 70 12 95
0.435338 0.266064 -0.052769 68 1 84
-0.509938 0.096085 -0.060928 68 1 84
-0.608007 -0.401161 0.070572 71 15 98
-0.420510 0.067261 -0.170949 68 1 84
-0.480884 0.157951 -0.077002 68 1 84
-0.479792 0.417245 0.142764 70 11 94
