ply
format ascii 1.0
element vertex 1253
property float x
property float y
property float z
property uchar red
property uchar green
property uchar blue
end_header
0.195851 0.013684 -0.212786 61 74 137
-0.584520 0.077434 0.120358 47 105 141
0.514810 0.016366 -0.055260 34 138 141
-0.561320 0.285163 0.492483 71 21 103
-0.429574 0.322570 -0.051355 68 1 84
-0.337205 0.305246 -0.125124 70 47 124
0.181957 0.133819 -0.219876 49 100 141
0.480282 -0.467478 -0.098567 53 92 140
-0.079663 -0.237927 -0.293011 68 1 84
0.005195 0.323700 -0.277716 70 49 126
0.522806 0.390645 0.354133 68 1 84
0.629635 0.008161 0.291566 49 100 141
0.035655 0.458860 -0.252776 68 1 84
0.541036 -0.358304 0.011338 47 179 123
-0.453397 -0.120659 -0.136300 35 135 141
0.182822 -0.335342 -0.155007 70 48 125
0.532872 0.395139 0.221825 69 5 88
0.640426 -0.231052 0.227969 51 182 121
0.637165 -0.178326 0.220830 38 172 129
0.466995 -0.128654 -0.110649 38 127 142
-0.612167 -0.291864 0.090908 32 164 133
0.592256 -0.451467 0.156740 119 208 82
0.203571 -0.317204 -0.170509 72 30 112
0.678456 -0.431938 0.337860 136 213 71
0.658194 -0.303361 0.305503 87 198 101
0.311488 0.572333 0.027529 68 1 84
0.467311 -0.091028 -0.117438 35 137 141
-0.561298 0.312079 0.440197 68 1 84
0.636351 -0.177127 0.494712 42 176 126
-0.547304 0.363694 0.351380 68 1 84
0.461148 0.506480 0.165335 68 1 84
0.098470 -0.336239 -0.156770 68 3 87
0.111271 0.378794 -0.221965 63 71 136
-0.442248 -0.381775 -0.134122 61 74 137
-0.582095 0.300930 0.299547 71 21 103
0.245453 0.498623 -0.113390 68 1 84
0.088674 0.180303 -0.289716 61 74 137
0.391450 0.493329 0.009027 70 14 97
0.170505 0.602592 -0.103612 68 1 84
-0.122345 0.024140 -0.273829 68 1 84
0.526419 0.386452 0.122934 67 58 131
0.203162 0.281876 -0.167631 64 68 135
-0.351615 0.284633 -0.126702 72 34 115
0.397619 -0.276350 -0.114871 54 91 140
0.081473 0.618950 -0.140189 68 1 84
-0.014490 -0.068768 -0.473303 68 1 84
0.315551 0.055895 -0.206967 56 87 140
0.716291 -0.291058 0.472991 48 180 122
0.661979 -0.273297 0.327536 91 200 98
-0.243225 0.155169 -0.186041 70 45 124
0.525570 0.287499 0.045472 62 73 137
0.170726 0.579143 -0.140705 68 1 84
0.498269 -0.078102 -0.085450 31 147 139
0.717713 -0.410756 0.429428 183 221 41
-0.396359 0.531535 0.051090 68 1 84
0.123951 -0.109028 -0.262522 68 1 84
-0.644689 -0.016944 0.334269 35 136 141
-0.563664 0.341869 0.233552 68 1 84
-0.643971 -0.016839 0.328543 38 128 142
0.640298 0.020924 0.390370 59 80 138
-0.539326 0.382092 0.326746 68 1 84
-0.061898 0.150358 -0.301481 68 1 84
0.113871 0.424175 -0.222123 71 44 123
-0.568238 -0.489230 0.059424 31 163 134
-0.064543 0.611001 -0.161090 68 1 84
0.058257 0.185724 -0.300925 71 42 121
-0.235865 0.156632 -0.188912 70 11 94
0.389335 -0.310952 -0.115636 51 96 141
-0.041870 0.614820 -0.162427 68 1 84
-0.502453 0.426622 0.366453 68 1 84
0.058209 0.292376 -0.293469 63 71 136
-0.609274 0.148469 0.469713 71 44 123
0.128689 -0.265487 -0.166622 66 61 132
-0.514198 -0.460441 -0.063446 44 113 142
-0.584905 0.250424 0.448872 69 5 88
0.223169 0.355554 -0.140873 68 57 130
0.229202 0.493220 -0.131447 72 33 114
0.476688 0.082079 -0.091473 49 101 141
0.639552 0.019742 0.416874 62 72 136
0.636600 -0.169619 0.497144 31 162 134
0.351955 0.504473 -0.018181 71 18 101
0.087751 -0.184692 -0.280543 68 1 84
0.480525 0.369765 0.020569 60 77 138
-0.569459 -0.299480 0.031002 37 130 142
-0.600982 0.242511 0.331450 72 32 113
-0.016260 0.026480 -0.444562 68 1 84
0.151859 -0.308700 -0.159022 61 74 137
-0.659854 -0.391377 0.272958 116 208 84
-0.331241 -0.332904 -0.154728 72 32 113
0.333709 0.086177 -0.190753 48 104 141
0.619551 0.057920 0.269783 64 67 135
-0.628732 0.082630 0.303368 64 67 135
0.709214 -0.449679 0.395533 173 220 48
-0.504947 -0.104996 -0.092328 34 137 141
-0.485856 0.466110 0.270146 68 1 84
0.574153 0.022336 0.100652 34 139 141
0.219028 -0.420644 -0.216707 68 1 84
-0.605106 -0.427533 0.121976 56 185 118
-0.399617 0.305226 -0.086515 71 22 105
0.012084 0.126506 -0.299473 72 32 113
-0.171906 -0.222917 -0.178520 68 1 84
-0.666387 -0.092561 0.427313 36 133 141
-0.461705 0.076943 -0.122082 42 118 142
-0.590450 -0.074329 0.054769 38 129 142
0.033123 -0.147045 -0.432420 68 1 84
0.092623 0.286740 -0.279329 61 74 137
-0.641525 -0.015656 0.311983 36 132 141
0.180419 -0.232354 -0.170223 70 47 124
-0.177363 0.227021 -0.195015 68 1 84
-0.604718 0.183883 0.449689 71 39 119
0.641824 -0.007666 0.439939 49 101 141
-0.640643 -0.415377 0.218493 144 214 67
0.571442 0.239950 0.152104 64 67 135
-0.067761 0.547001 -0.229848 68 1 84
0.077352 -0.117042 -0.409637 68 1 84
-0.658276 -0.154632 0.517182 36 133 141
-0.677986 -0.523736 0.401733 225 227 24
0.651554 -0.130087 0.359653 30 153 138
-0.094539 0.017363 -0.288191 68 1 84
-0.501259 -0.259278 -0.027699 31 146 140
-0.669561 -0.443984 0.359048 94 201 97
-0.069973 -0.130411 -0.406838 68 1 84
-0.336254 -0.382245 -0.196745 68 1 84
0.615150 -0.369469 0.179404 126 210 78
-0.149434 -0.490624 -0.255613 68 1 84
0.472444 -0.068169 -0.115167 31 150 139
-0.262841 -0.315606 -0.173783 72 33 114
-0.435555 -0.294173 -0.085062 54 91 140
0.679195 -0.326140 0.369057 112 206 86
0.646345 -0.026598 0.427937 51 96 141
-0.281367 0.474857 -0.094635 68 1 84
0.630725 -0.035830 0.272480 39 125 142
-0.364600 0.012135 -0.205601 71 24 106
0.207084 0.302108 -0.161944 62 72 136
-0.518519 -0.421218 -0.056091 42 118 142
0.282080 0.023456 -0.221765 66 61 132
0.055513 0.200337 -0.294906 65 66 134
-0.647464 -0.046189 0.325856 36 132 141
-0.686012 -0.251636 0.406899 30 152 138
0.337061 0.426397 -0.075616 67 58 131
0.621729 0.099010 0.442441 71 37 117
-0.637448 -0.044728 0.243626 34 139 141
-0.085669 0.313653 -0.277329 72 35 116
0.652130 -0.356429 0.296240 112 206 86
-0.389081 0.071058 -0.182303 60 78 138
-0.588279 -0.438339 0.088246 68 190 112
0.002956 0.252034 -0.290819 63 69 135
-0.601293 0.243241 0.303119 72 28 110
-0.151190 -0.457017 -0.233431 68 1 84
0.583870 -0.437098 0.124502 51 182 121
-0.646452 -0.073790 0.254366 41 121 142
-0.164477 -0.467419 -0.242034 68 1 84
-0.050693 -0.245578 -0.351651 68 1 84
0.011099 -0.539619 -0.269503 68 1 84
0.184761 -0.024029 -0.222647 64 68 135
-0.400747 -0.228099 -0.128696 48 104 141
0.494843 0.456891 0.157763 70 48 125
-0.096826 0.623770 -0.118844 68 1 84
0.531850 0.300588 0.062593 51 97 141
-0.546739 -0.278985 0.011174 32 144 140
-0.123633 0.252498 -0.251384 68 1 84
0.407205 0.322556 -0.068631 55 89 140
0.274989 0.542452 -0.045889 68 1 84
-0.570484 0.069495 0.060824 38 127 142
-0.471205 -0.202788 -0.082850 36 134 141
0.564817 0.323276 0.235568 72 25 107
-0.501427 0.170305 -0.030474 66 64 133
-0.574423 0.178213 0.111275 58 83 139
0.635199 -0.173018 0.213838 32 164 133
0.232665 0.498870 -0.126138 68 1 84
0.558360 0.108790 0.076246 49 100 141
0.675272 -0.429459 0.332343 107 205 89
0.441489 0.058356 -0.138786 30 160 135
0.610537 0.082586 0.515474 70 47 124
-0.004289 0.044653 -0.388329 68 1 84
0.110056 -0.375139 -0.158888 71 24 106
-0.426127 -0.041777 -0.170244 63 69 135
0.651242 -0.118868 0.353275 31 162 134
0.619969 0.130986 0.317978 71 44 123
-0.337077 -0.182275 -0.164022 59 80 138
-0.291553 0.227446 -0.146690 67 58 131
0.218159 -0.169891 -0.194436 64 68 135
0.455388 -0.122076 -0.122644 39 124 142
0.368260 -0.367571 -0.139876 49 102 141
-0.667950 -0.262028 0.248542 51 182 121
0.051810 -0.197363 -0.379762 68 1 84
0.143700 -0.135902 -0.233430 68 1 84
0.618306 0.071086 0.270809 61 75 137
0.076252 -0.432306 -0.221362 68 1 84
-0.565968 -0.284410 0.027281 36 132 141
-0.241934 0.177285 -0.178802 68 57 130
0.376378 0.580812 0.135945 68 1 84
0.718267 -0.400529 0.437635 165 218 53
0.599515 0.108441 0.216644 61 75 137
0.175209 -0.240205 -0.168659 71 37 117
-0.164563 -0.137366 -0.243558 68 1 84
-0.048037 0.284805 -0.298253 65 65 134
-0.155717 0.350543 -0.204723 68 2 85
-0.262094 0.565727 -0.022365 68 1 84
-0.519720 0.391790 0.417017 68 1 84
-0.034810 0.060701 -0.328078 68 1 84
0.577311 0.289946 0.350710 71 18 101
0.207404 0.065299 -0.203768 54 90 140
0.626968 -0.087988 0.226344 30 151 138
-0.593460 0.049330 0.142402 46 109 142
0.680266 -0.342192 0.363354 124 210 79
-0.589890 -0.038507 0.067420 41 121 142
0.002852 0.240422 -0.288764 62 73 137
-0.011833 0.044449 -0.374056 68 1 84
0.189886 0.540385 -0.153247 68 1 84
0.148034 -0.129002 -0.233026 70 9 92
0.668438 -0.520347 0.315978 112 206 86
-0.342926 -0.533648 -0.217896 68 1 84
-0.033146 0.216268 -0.294369 69 53 128
0.006126 -0.071843 -0.473685 68 1 84
0.261020 -0.361315 -0.156595 71 39 119
0.710286 -0.313320 0.468881 37 171 129
0.094713 -0.024713 -0.378073 68 1 84
-0.567804 -0.428688 0.041400 30 154 137
-0.666798 -0.101213 0.445335 38 127 142
0.728466 -0.432028 0.456588 114 207 85
-0.470482 0.286727 -0.027054 68 1 84
0.120022 0.131806 -0.261983 67 59 131
-0.660376 -0.122364 0.260262 35 137 141
0.177110 0.254572 -0.194335 44 114 142
0.522670 0.411097 0.257480 68 1 84
-0.269644 0.432194 -0.113043 68 1 84
0.116749 0.023358 -0.265151 71 38 118
0.174398 0.435317 -0.182964 72 32 113
0.085526 -0.025042 -0.342257 68 1 84
0.661155 -0.298421 0.316801 107 205 89
-0.658593 -0.055758 0.484072 36 132 141
-0.067318 -0.193627 -0.356670 68 1 84
-0.099548 0.609373 -0.148911 68 1 84
0.178850 -0.417780 -0.189120 68 1 84
-0.097034 -0.133983 -0.328345 68 1 84
0.356360 0.216811 -0.134377 43 116 142
0.388048 -0.265238 -0.124187 60 78 138
0.560458 -0.161477 0.016006 35 168 131
-0.627463 0.014691 0.246890 43 115 142
-0.488844 0.408049 0.052528 72 35 116
-0.215673 -0.156161 -0.205647 68 1 84
-0.098436 -0.026384 -0.367337 68 1 84
0.637599 -0.021008 0.531006 59 81 138
-0.519952 -0.466964 -0.050376 34 137 141
-0.300305 0.457043 -0.089500 68 1 84
0.586289 -0.123921 0.079538 46 178 124
0.126449 0.330115 -0.231292 61 76 137
0.048072 -0.028984 -0.470421 68 1 84
-0.366658 -0.131562 -0.180534 58 82 139
0.639194 -0.346656 0.247462 107 205 89
-0.596546 0.236217 0.420364 69 6 90
0.278748 0.300416 -0.122321 54 90 140
-0.502925 0.167065 -0.029706 57 84 139
0.556937 -0.255741 0.028492 32 164 133
0.176600 -0.109819 -0.228017 64 67 135
0.521741 -0.151990 -0.048748 33 140 141
0.058692 -0.235665 -0.317076 68 1 84
-0.088973 0.497125 -0.232807 68 1 84
0.136048 -0.326956 -0.146751 68 57 130
-0.688887 -0.427998 0.451860 107 205 89
0.537791 -0.498263 0.045234 31 147 139
0.647800 -0.091173 0.378966 41 121 142
-0.662555 -0.158490 0.251813 33 142 140
0.581903 -0.217983 0.066804 79 195 105
-0.664057 -0.193180 0.523667 32 143 140
-0.674469 -0.348144 0.311748 124 210 79
-0.585021 -0.380116 0.065025 35 168 131
0.112551 -0.020117 -0.315708 68 1 84
0.531561 0.128514 0.015590 49 100 141
-0.526764 -0.369898 -0.028829 34 137 141
0.055059 -0.353325 -0.219573 68 1 84
0.605611 0.188902 0.284718 61 76 137
0.070338 0.042313 -0.303672 68 1 84
-0.496275 -0.447497 -0.100960 41 121 142
-0.681318 -0.208797 0.388526 30 160 135
-0.593201 0.266273 0.267572 71 40 120
-0.663530 -0.089292 0.452730 32 143 140
0.602567 -0.253557 0.114173 61 187 116
-0.595925 -0.087552 0.066049 34 138 141
0.536347 0.138195 0.028370 36 134 141
-0.654506 -0.080267 0.334867 32 143 140
0.588564 0.184813 0.480703 70 11 94
-0.663737 -0.318167 0.241053 81 196 104
0.233480 -0.226331 -0.172184 65 66 134
0.593695 0.210777 0.241569 60 78 138
0.628123 -0.550262 0.245632 85 198 102
0.618764 0.082131 0.278012 67 59 131
0.606433 -0.009878 0.191989 35 136 141
-0.661097 -0.423156 0.320879 141 214 68
0.311422 0.551777 0.001607 68 1 84
-0.194436 -0.429299 -0.202612 68 1 84
0.280827 0.539955 -0.042350 68 1 84
-0.376758 -0.164206 -0.159452 50 99 141
0.560055 0.272357 0.125113 64 68 135
-0.594579 0.260100 0.261984 72 33 114
-0.326708 0.344630 -0.114535 68 1 84
0.174215 0.608974 -0.074538 68 1 84
-0.429692 0.438002 0.002906 68 1 84
0.315304 -0.503048 -0.227866 68 1 84
0.634134 0.013572 0.455493 60 78 138
-0.042810 0.044142 -0.329043 68 1 84
-0.598862 0.021242 0.146469 38 127 142
0.671024 -0.300155 0.357285 87 198 101
0.450730 -0.531185 -0.125088 71 43 122
-0.213647 -0.075306 -0.241752 68 1 84
-0.355148 -0.216169 -0.152763 59 81 138
-0.476149 0.478152 0.268023 68 1 84
-0.522670 0.417146 0.259545 68 1 84
-0.272385 0.554693 -0.030149 68 1 84
0.697954 -0.401767 0.384066 116 208 84
-0.686955 -0.267240 0.415452 33 166 133
0.668387 -0.282350 0.377675 79 195 105
-0.579489 -0.006535 0.050027 34 137 141
0.586032 -0.067971 0.098681 37 131 141
-0.582367 0.206248 0.149766 65 65 134
-0.421093 -0.160839 -0.139404 40 122 142
-0.500649 -0.065060 -0.100947 35 137 141
-0.535420 0.393166 0.182134 68 1 84
0.616010 -0.365966 0.180364 119 208 82
-0.060171 -0.173137 -0.384186 68 1 84
0.072074 0.040817 -0.301760 68 1 84
0.525185 0.389375 0.345123 68 1 84
0.670395 -0.516042 0.319481 141 214 68
0.411087 0.074749 -0.158117 40 122 142
0.598964 0.024193 0.183159 46 107 142
-0.073258 0.413713 -0.230762 68 3 87
-0.033648 0.082894 -0.313636 68 1 84
-0.640826 0.083859 0.405802 61 74 137
0.050482 0.012298 -0.342032 68 1 84
0.196346 -0.382731 -0.164515 68 1 84
0.230091 -0.014154 -0.228108 70 49 126
-0.079615 -0.181445 -0.340372 68 1 84
-0.118810 -0.413815 -0.198739 68 1 84
0.266004 -0.124513 -0.209763 70 14 97
-0.147700 0.309595 -0.233540 70 11 94
0.582219 -0.116194 0.068126 30 154 137
0.245153 -0.184970 -0.184188 61 76 137
0.541668 0.018846 -0.004905 39 125 142
0.550853 0.023304 0.018134 40 122 142
-0.198347 0.283989 -0.178895 68 1 84
-0.672563 -0.532464 0.377888 253 231 36
0.569802 0.262618 0.459079 68 1 84
-0.188470 0.347654 -0.177394 68 1 84
-0.495227 0.453164 0.141376 68 1 84
-0.023317 0.067772 -0.326022 68 1 84
-0.406817 -0.465874 -0.182483 70 12 95
0.526975 -0.370685 -0.009966 30 151 138
-0.554732 0.325927 0.133697 69 8 91
0.177154 0.371801 -0.180477 72 28 110
-0.380722 0.573748 0.146715 68 1 84
0.104320 0.213421 -0.263946 44 112 142
-0.142508 -0.195913 -0.219246 68 1 84
0.586238 0.157790 0.182491 52 94 141
0.318905 0.575170 0.034451 68 1 84
-0.664647 -0.138929 0.270892 37 131 141
-0.581088 -0.072657 0.029201 37 131 141
0.718294 -0.522603 0.415052 139 213 70
-0.298081 0.126249 -0.187027 67 60 132
-0.572309 0.024313 0.041884 31 146 140
0.332258 0.383946 -0.093009 59 80 138
-0.626461 0.120733 0.334592 71 43 122
0.180689 0.217725 -0.196426 57 84 139
-0.348522 0.542181 0.013054 68 1 84
0.274812 -0.447160 -0.232585 68 1 84
0.487994 -0.322662 -0.042064 30 154 137
-0.497814 0.421278 0.083352 71 17 99
-0.457121 0.104608 -0.116318 50 99 141
-0.065327 0.028745 -0.306587 68 1 84
-0.454533 0.511419 0.203667 68 1 84
-0.571945 0.292577 0.168722 70 14 97
-0.191045 -0.135171 -0.227186 68 1 84
-0.381509 -0.286124 -0.148668 70 49 126
0.512554 0.399171 0.383215 68 1 84
0.153400 -0.163772 -0.212255 71 43 122
0.264471 -0.087793 -0.221372 70 11 94
-0.657723 -0.411939 0.293396 131 211 75
0.282553 -0.345071 -0.161354 68 3 87
0.241618 0.482495 -0.121547 68 1 84
-0.657832 -0.394904 0.264255 126 210 78
0.272027 0.319456 -0.119178 60 78 138
0.117502 0.181308 -0.273962 52 94 141
-0.447419 -0.476309 -0.153679 70 45 124
-0.437200 0.498572 0.068422 68 1 84
0.653438 -0.499993 0.288431 81 196 104
0.587246 -0.107967 0.086507 50 181 122
0.085766 -0.314197 -0.169428 68 1 84
-0.201964 -0.200748 -0.182590 71 15 98
-0.365505 -0.500869 -0.208527 68 1 84
0.060799 0.107866 -0.293305 72 33 114
-0.442560 -0.375492 -0.129353 59 81 138
0.222128 0.578520 -0.073318 68 1 84
0.616994 0.099257 0.461522 70 47 124
-0.342379 0.580666 0.069599 68 1 84
0.013980 -0.034806 -0.479162 68 1 84
0.549622 -0.124534 -0.011380 30 156 137
0.544783 0.116671 0.039434 39 124 142
-0.625397 -0.131883 0.148922 30 155 137
-0.556539 0.163285 0.058797 51 97 141
-0.126845 0.005796 -0.297969 68 1 84
0.165801 0.269700 -0.215376 63 69 135
0.124169 0.116426 -0.256181 69 53 128
-0.560563 0.338733 0.193064 68 2 85
0.297752 -0.266734 -0.172995 68 1 84
-0.298872 -0.462787 -0.222947 68 1 84
-0.687421 -0.252260 0.462147 31 162 134
0.534576 0.071906 -0.000874 44 114 142
-0.076832 -0.316767 -0.243735 68 1 84
0.613330 0.101582 0.474729 72 26 108
0.574732 -0.054890 0.063119 35 169 130
-0.647663 -0.290360 0.183745 56 185 118
-0.122072 0.512143 -0.214280 68 1 84
-0.632957 -0.361236 0.168191 69 191 111
-0.515213 0.423527 0.149460 68 1 84
-0.518297 0.345017 0.052620 68 1 84
-0.166818 0.338153 -0.198893 68 1 84
-0.620608 -0.434455 0.168184 107 205 89
0.492674 -0.221438 -0.049370 33 142 140
-0.327503 -0.070581 -0.213894 68 1 84
-0.087144 0.618517 -0.135430 68 1 84
0.363679 0.251290 -0.125106 44 114 142
0.059563 -0.237244 -0.308791 68 1 84
0.602825 0.217264 0.339926 71 38 118
0.337922 0.154295 -0.160304 42 118 142
-0.642340 -0.440902 0.235816 144 214 67
0.682501 -0.364302 0.361192 139 213 70
-0.226791 -0.185316 -0.186887 68 1 84
-0.494862 -0.436798 -0.103596 42 117 142
-0.159744 -0.286362 -0.168534 68 1 84
0.298588 0.298849 -0.122888 49 101 141
0.142493 -0.330760 -0.145685 72 25 107
-0.472746 -0.326978 -0.068781 42 119 142
-0.266700 -0.342954 -0.164824 68 1 84
0.579900 0.213281 0.174728 64 67 135
-0.609151 0.196656 0.270956 69 54 129
0.406929 0.040819 -0.169283 40 123 142
-0.349975 -0.455222 -0.215410 68 1 84
0.616711 0.161566 0.386241 68 57 130
0.651975 -0.473190 0.285690 43 177 125
-0.658744 -0.112612 0.525315 31 150 139
0.539274 0.133456 0.033064 37 131 141
0.590663 0.205760 0.221363 59 80 138
0.016669 -0.264924 -0.356572 68 1 84
0.657835 -0.480477 0.295433 91 200 98
-0.342933 -0.271926 -0.171129 70 12 95
0.422626 -0.124334 -0.148223 50 99 141
-0.498461 -0.079417 -0.102869 36 134 141
-0.588459 0.178308 0.512176 70 47 124
0.561531 -0.168105 0.019484 38 172 129
0.684821 -0.500801 0.347030 151 216 62
-0.138923 -0.432270 -0.208699 68 1 84
-0.588639 0.179833 0.509869 69 53 128
-0.510648 0.429736 0.145402 68 1 84
-0.584466 0.255206 0.190508 72 30 112
0.715554 -0.419635 0.419035 154 216 60
0.454285 -0.303154 -0.058122 35 135 141
-0.363224 -0.183039 -0.155032 70 49 126
0.299442 0.429139 -0.092181 72 34 115
-0.110040 -0.132003 -0.303729 68 1 84
-0.501861 0.452010 0.209678 68 1 84
-0.673938 -0.157327 0.446304 30 153 138
0.313913 0.343026 -0.109067 50 98 141
0.655343 -0.232972 0.414684 87 198 101
0.574085 0.116661 0.133905 56 87 140
0.383841 -0.110826 -0.175165 52 95 141
-0.664322 -0.130003 0.340620 30 155 137
0.058584 -0.232792 -0.322546 68 1 84
0.492796 -0.448411 -0.076596 54 90 140
0.383145 -0.144913 -0.166978 59 80 138
0.492666 -0.145458 -0.083461 37 130 142
-0.563326 0.320523 0.389859 68 1 84
0.409697 0.527935 0.066009 68 1 84
-0.462495 0.502241 0.201366 68 1 84
0.577966 0.232842 0.176927 64 68 135
-0.416370 0.430881 -0.014803 68 1 84
0.576378 0.247698 0.180853 61 75 137
0.313109 0.552092 0.003126 68 1 84
-0.664149 -0.135440 0.270990 31 148 139
-0.367160 0.580092 0.131164 68 1 84
-0.683701 -0.242968 0.445880 31 161 135
0.144251 -0.013565 -0.278520 68 1 84
0.487365 -0.229728 -0.049899 35 137 141
-0.283858 0.278475 -0.131601 71 18 101
0.309048 -0.389325 -0.171032 69 53 128
-0.048805 0.393148 -0.232980 68 3 87
-0.023440 0.101337 -0.305186 72 26 108
-0.631148 -0.545378 0.224767 89 199 100
-0.015671 -0.343351 -0.296121 68 1 84
-0.628858 -0.246865 0.127229 38 172 129
0.713258 -0.405801 0.418913 186 222 39
0.543593 0.293751 0.085139 54 90 140
-0.183310 0.510298 -0.173349 68 1 84
0.208972 0.589126 -0.072555 68 1 84
0.009966 -0.110101 -0.459115 68 1 84
0.252566 -0.018238 -0.229719 68 1 84
-0.168795 -0.135182 -0.241651 68 1 84
-0.278158 -0.416044 -0.205658 68 1 84
-0.567679 0.070837 0.052825 35 135 141
0.138504 0.450078 -0.209165 71 43 122
0.303327 -0.286404 -0.176554 68 1 84
-0.216878 -0.081553 -0.239631 68 1 84
0.012481 -0.009216 -0.476425 68 1 84
-0.064987 0.465816 -0.242717 68 1 84
-0.223751 0.030388 -0.215499 68 1 84
0.418254 -0.497377 -0.162614 69 5 88
0.616454 0.073615 0.485728 71 44 123
0.613130 0.146759 0.432515 71 39 119
-0.295026 0.241009 -0.142847 63 69 135
-0.509865 -0.060193 -0.090270 36 132 141
0.116965 0.056648 -0.246982 66 61 132
-0.155160 0.557070 -0.176720 68 1 84
0.136500 -0.481525 -0.247923 68 1 84
0.106493 0.625509 -0.102453 68 1 84
-0.627245 -0.494919 0.215144 129 211 76
0.402033 0.078030 -0.163117 42 118 142
0.023602 0.419909 -0.245336 72 25 107
-0.649222 -0.090163 0.244347 30 152 138
0.392210 0.156365 -0.136389 40 122 142
-0.070475 -0.276363 -0.293155 68 1 84
0.502790 -0.236045 -0.030674 31 147 139
0.650001 -0.162536 0.300758 37 171 129
0.595082 -0.422450 0.148049 83 197 103
0.542840 0.122561 0.037389 39 126 142
0.656616 -0.250059 0.381965 39 173 128
0.412721 0.171446 -0.116721 39 125 142
-0.072807 0.448397 -0.237420 68 1 84
0.390522 -0.478336 -0.184343 68 1 84
0.022548 -0.452012 -0.257119 68 1 84
0.613547 -0.293353 0.147905 77 194 107
0.071964 -0.087139 -0.440851 68 1 84
0.374231 0.503846 0.000811 72 29 111
-0.691470 -0.301113 0.478985 79 195 105
0.012105 0.558163 -0.234990 68 1 84
-0.251577 0.208762 -0.157750 72 30 112
-0.604729 0.009400 0.159069 40 123 142
0.013140 -0.528825 -0.269736 68 1 84
0.534313 0.221722 0.041883 54 91 140
0.596560 0.236495 0.313942 67 59 131
-0.601631 0.134512 0.514652 61 75 137
0.428574 0.392425 -0.020398 67 59 131
-0.216313 -0.457888 -0.229430 68 1 84
-0.515848 0.424621 0.276182 68 1 84
-0.606027 0.224352 0.349807 71 39 119
-0.621275 0.154772 0.375188 70 49 126
-0.196677 -0.503038 -0.255045 68 1 84
0.628103 0.030879 0.296755 59 81 138
0.581832 0.026722 0.131236 42 118 142
0.470942 0.182232 -0.055584 46 109 142
-0.597225 0.212447 0.214235 71 37 117
-0.568502 0.305551 0.410038 68 1 84
-0.285798 -0.369732 -0.170002 68 3 87
0.344804 0.321823 -0.111509 47 105 141
-0.151684 0.620088 -0.071894 68 1 84
-0.597956 0.176160 0.192574 70 48 125
0.597592 0.135738 0.217898 61 76 137
-0.450411 -0.191650 -0.102807 34 137 141
0.642503 -0.014496 0.360144 56 87 140
0.297419 -0.262525 -0.171845 68 1 84
-0.541533 0.038007 -0.023975 34 138 141
0.604525 -0.143001 0.128466 40 174 127
0.274862 -0.410911 -0.216963 68 1 84
0.492426 0.463198 0.203327 70 9 92
0.672783 -0.329798 0.346963 85 198 102
-0.078671 0.525648 -0.233558 68 1 84
-0.020783 0.257260 -0.293172 67 60 132
0.033512 -0.434351 -0.248717 68 1 84
0.032244 0.273382 -0.298242 63 69 135
0.655833 -0.238725 0.407225 87 198 101
-0.500470 -0.009825 -0.098484 42 118 142
-0.420457 0.150033 -0.131912 45 110 142
-0.631703 0.119432 0.399541 71 37 117
0.017663 0.554900 -0.235830 68 1 84
0.324002 -0.464763 -0.222550 68 1 84
0.470632 -0.133097 -0.106515 31 146 140
-0.666635 -0.488212 0.348898 139 213 70
0.593037 -0.362688 0.114485 89 199 100
-0.593656 -0.157765 0.047280 33 140 141
-0.504482 0.164108 -0.028748 54 90 140
0.194617 0.362597 -0.166164 70 48 125
0.518776 0.412119 0.289608 68 1 84
0.603503 0.168805 0.446679 72 35 116
0.237928 -0.224970 -0.172140 68 57 130
0.592347 -0.186159 0.088986 56 185 118
-0.626555 0.040442 0.496598 57 85 139
0.477891 0.278956 -0.018379 45 110 142
0.415626 -0.176150 -0.134264 45 110 142
-0.052584 -0.201201 -0.374290 68 1 84
-0.364467 -0.238539 -0.154771 65 66 134
0.122597 0.583015 -0.173081 68 1 84
-0.253854 -0.412993 -0.198551 68 1 84
-0.602023 0.237983 0.351710 72 35 116
-0.619173 -0.468970 0.183458 103 204 92
-0.234657 0.199994 -0.170741 70 14 97
0.639048 -0.488146 0.263437 87 198 101
-0.661776 -0.391672 0.298306 136 213 71
0.297054 0.196693 -0.157400 43 115 142
-0.555641 0.315792 0.460623 68 1 84
-0.602238 0.238329 0.337166 71 43 122
0.260014 0.556177 -0.045978 68 1 84
0.393517 0.021705 -0.180911 56 86 139
-0.636417 -0.378669 0.187046 53 183 120
-0.059590 -0.185016 -0.376425 68 1 84
0.556620 0.082941 0.062274 49 100 141
-0.412495 -0.229482 -0.120177 47 106 141
-0.130813 -0.409714 -0.189056 68 1 84
0.593279 -0.324746 0.103281 61 187 116
0.568612 0.094341 0.109969 58 82 139
0.269523 0.112040 -0.191942 44 112 142
-0.566074 -0.521998 0.052609 54 184 119
0.553538 0.336689 0.364415 68 1 84
-0.221810 0.285338 -0.152307 69 8 91
0.095570 -0.492062 -0.253659 68 1 84
-0.614351 -0.168973 0.100441 30 152 138
0.326337 -0.303240 -0.168936 68 1 84
0.635690 -0.463403 0.257623 105 204 91
-0.348847 -0.333849 -0.148669 67 58 131
-0.405577 -0.540778 -0.176027 68 57 130
-0.081645 -0.478377 -0.254671 68 1 84
-0.456742 0.055412 -0.133988 41 120 142
-0.412979 0.279737 -0.084508 71 20 102
-0.250787 -0.486699 -0.239227 68 1 84
0.599231 -0.293582 0.110932 77 194 107
-0.630903 0.114802 0.373910 71 15 98
-0.334386 0.383610 -0.099207 68 1 84
0.355586 0.420687 -0.067620 71 40 120
0.574223 0.276702 0.411806 68 1 84
-0.410917 -0.438296 -0.181157 70 12 95
0.643338 -0.129943 0.485342 30 153 138
-0.601191 -0.169093 0.064797 37 131 141
-0.046346 0.627717 -0.125148 68 1 84
-0.517040 0.023777 -0.069827 37 131 141
0.472121 0.483472 0.130183 71 22 105
0.135104 -0.047267 -0.321528 68 1 84
0.066993 -0.006848 -0.383891 68 1 84
0.635505 -0.126873 0.240520 31 149 139
-0.407360 -0.387437 -0.162165 71 24 106
-0.294350 0.548313 -0.018149 68 1 84
0.619661 0.120958 0.305277 67 60 132
0.627587 0.092673 0.420340 71 20 102
-0.059185 -0.014836 -0.449625 68 1 84
0.528866 0.266184 0.044474 51 96 141
-0.449813 -0.259951 -0.078380 41 121 142
0.495944 0.383165 0.050818 72 35 116
-0.215358 0.003538 -0.225220 68 1 84
0.188377 0.171775 -0.216650 55 89 140
-0.130398 0.535359 -0.203370 68 1 84
0.613002 0.180262 0.346984 71 42 121
-0.668635 -0.195901 0.483966 31 147 139
0.223503 -0.219644 -0.173351 68 57 130
0.592564 -0.351361 0.109494 71 192 110
-0.584018 0.278569 0.386116 71 17 99
0.655250 -0.302352 0.295844 57 185 118
0.612722 -0.202438 0.143628 44 177 125
0.562994 0.322354 0.213991 71 42 121
0.168429 -0.427761 -0.194823 68 1 84
0.587613 -0.504931 0.166180 149 215 63
-0.558294 0.355790 0.255255 68 1 84
0.551112 0.353009 0.210337 71 43 122
-0.033094 -0.268895 -0.349999 68 1 84
-0.397887 -0.517046 -0.185916 71 20 102
0.506842 -0.447214 -0.046545 48 103 141
-0.583928 -0.132825 0.025254 31 148 139
-0.164480 0.219155 -0.216113 68 1 84
-0.662082 -0.286109 0.230435 38 172 129
0.523641 0.368845 0.092707 71 38 118
0.561240 0.336481 0.278961 72 32 113
0.543998 0.283596 0.081194 56 87 140
-0.496066 -0.464562 -0.098840 42 117 142
-0.315687 0.564896 0.019797 68 1 84
-0.201656 -0.452082 -0.225941 68 1 84
0.569663 0.243225 0.146586 66 64 133
-0.411395 -0.088896 -0.171948 60 78 138
0.221933 -0.347620 -0.159741 71 42 121
-0.577775 0.189509 0.126489 66 62 133
0.662201 -0.231052 0.470277 30 158 136
-0.570047 -0.123551 -0.002598 30 156 137
-0.052125 -0.356877 -0.273605 68 1 84
0.395712 0.188599 -0.122600 50 99 141
0.585535 -0.031606 0.113971 42 119 142
-0.148595 -0.355105 -0.160481 68 1 84
0.285979 -0.237957 -0.168402 71 39 119
-0.421278 0.157357 -0.127937 49 100 141
-0.189525 0.266575 -0.189661 68 1 84
-0.621712 0.090152 0.268331 63 69 135
0.258410 0.259081 -0.130843 59 80 138
0.638650 -0.154862 0.461173 30 151 138
0.501451 0.242305 -0.001202 39 125 142
-0.577492 0.106207 0.102009 50 99 141
0.424527 -0.474994 -0.163035 71 21 103
0.509673 -0.178354 -0.053684 38 129 142
0.383029 0.503800 0.009035 68 1 84
-0.148641 0.215651 -0.234206 71 21 103
-0.001396 -0.444097 -0.262780 68 1 84
-0.197806 0.214981 -0.185011 68 1 84
-0.645606 -0.012755 0.505889 38 127 142
-0.313573 -0.451462 -0.219353 68 1 84
-0.444447 0.517558 0.240289 68 1 84
-0.090017 -0.330892 -0.199457 68 1 84
-0.171471 0.359232 -0.189764 68 1 84
0.546151 0.224909 0.063702 51 96 141
-0.274038 -0.316953 -0.172301 71 44 123
-0.570585 -0.428998 0.047324 32 165 133
-0.079143 0.606145 -0.163934 68 1 84
-0.440979 0.345201 -0.033620 68 1 84
-0.523411 -0.494417 -0.039843 31 148 139
-0.379783 0.519706 0.015344 68 1 84
0.242140 0.580454 -0.020784 68 1 84
0.151951 -0.162011 -0.214035 71 43 122
0.206220 0.435596 -0.156560 66 61 132
0.196685 -0.530233 -0.258543 68 1 84
0.009262 0.564143 -0.231499 68 1 84
0.604519 0.209522 0.366344 71 20 102
0.611945 0.044862 0.236991 58 82 139
-0.262982 -0.235590 -0.174111 71 44 123
0.554587 0.320544 0.408579 68 3 87
-0.490943 -0.326430 -0.051056 36 133 141
-0.033363 -0.002635 -0.463537 68 1 84
0.637713 -0.160209 0.230834 35 168 131
0.073854 0.088958 -0.287553 71 21 103
0.327071 0.246329 -0.135762 43 116 142
-0.306546 -0.384275 -0.191066 68 1 84
0.291877 0.465475 -0.085813 71 18 101
-0.573636 0.228452 0.122401 72 30 112
-0.336515 -0.096232 -0.203030 68 1 84
-0.519369 0.398628 0.111356 71 18 101
0.085704 -0.077797 -0.423536 68 1 84
0.508388 0.212603 0.001549 42 117 142
0.641360 -0.470675 0.267640 114 207 85
0.575600 0.002767 0.096262 30 157 136
0.598737 -0.455013 0.178079 136 213 71
-0.002098 0.383801 -0.237684 72 28 110
-0.414513 0.447382 -0.006589 68 1 84
-0.551421 0.019731 -0.011129 33 142 140
-0.660908 -0.106887 0.488339 36 134 141
0.446803 -0.181568 -0.109232 40 122 142
-0.367726 -0.384866 -0.194351 68 1 84
-0.207060 0.117761 -0.206266 68 1 84
-0.188639 0.460658 -0.172474 68 1 84
-0.556624 0.323909 0.428742 68 1 84
0.105913 -0.396169 -0.172264 71 20 102
0.701796 -0.464591 0.378863 159 217 56
0.480268 0.456975 0.325227 68 1 84
0.484237 -0.106582 -0.098099 34 138 141
-0.094961 -0.206255 -0.275167 68 1 84
0.468846 0.305375 -0.019356 46 109 142
-0.103065 -0.178912 -0.285169 68 1 84
-0.562550 -0.055782 -0.009649 31 150 139
0.361329 0.289713 -0.116354 49 100 141
0.195537 0.371578 -0.164341 71 44 123
-0.515275 0.419842 0.140628 68 3 87
-0.433434 -0.022910 -0.165538 60 78 138
0.507741 0.412749 0.352968 68 1 84
0.587497 0.261660 0.359658 70 11 94
-0.161425 -0.056072 -0.256657 68 1 84
0.456727 -0.056101 -0.132921 37 131 141
-0.102091 -0.303137 -0.183082 68 1 84
0.094116 0.500704 -0.231980 71 17 99
0.076521 -0.012485 -0.310101 68 1 84
-0.100069 -0.440859 -0.231639 68 1 84
-0.587363 0.038705 0.111370 44 112 142
-0.547106 0.364733 0.348582 68 1 84
0.353471 0.122257 -0.167449 36 133 141
-0.089814 0.617697 -0.136205 68 1 84
0.620385 0.042929 0.516970 65 65 134
0.405433 0.561232 0.170269 68 1 84
0.231435 -0.159910 -0.198140 70 49 126
0.608561 0.194551 0.377217 71 18 101
-0.272531 0.547657 -0.041663 68 1 84
0.229573 0.293435 -0.141970 63 69 135
-0.082774 -0.164796 -0.345981 68 1 84
0.569948 0.169968 0.126526 59 81 138
-0.692081 -0.394166 0.481747 94 201 97
0.049773 -0.312618 -0.243678 68 1 84
-0.409317 0.339011 -0.063478 68 1 84
0.425293 0.529515 0.098681 68 1 84
0.377934 0.353298 -0.081215 67 60 132
-0.200617 -0.345368 -0.158328 68 1 84
-0.434560 0.042116 -0.157086 40 122 142
-0.323820 -0.314210 -0.164063 72 26 108
0.318334 0.525539 -0.024257 72 26 108
-0.582570 0.145616 0.131295 58 82 139
-0.561514 0.113350 0.054194 48 103 141
-0.639081 0.071856 0.441207 67 58 131
0.204056 -0.483475 -0.244472 68 1 84
-0.070301 0.066395 -0.297521 68 1 84
-0.468531 0.495255 0.199431 68 1 84
-0.020136 -0.019795 -0.475483 68 1 84
0.544172 0.352270 0.145248 62 72 136
0.637448 -0.177044 0.472366 34 137 141
-0.278018 -0.374765 -0.176911 68 1 84
-0.530503 0.275734 0.038240 68 1 84
-0.595309 -0.529620 0.128359 83 197 103
0.494774 -0.409925 -0.070169 46 109 142
0.640234 -0.008177 0.449726 51 96 141
-0.288870 -0.118066 -0.208207 71 17 99
0.584764 -0.453026 0.135468 75 194 108
0.099831 -0.026421 -0.332552 68 1 84
-0.675194 -0.206680 0.455270 30 151 138
-0.591167 -0.409535 0.085871 75 194 108
-0.312045 0.190909 -0.158388 55 88 140
0.135622 -0.168999 -0.221302 70 11 94
0.008056 0.097008 -0.307143 68 2 85
-0.632408 0.093124 0.348906 60 78 138
0.482122 -0.069063 -0.104462 33 142 140
0.310970 -0.020846 -0.219660 69 5 88
0.525092 0.383748 0.366697 68 1 84
-0.684017 -0.457510 0.425315 114 207 85
-0.536117 0.385451 0.161907 68 1 84
-0.577881 -0.502050 0.085376 61 187 116
-0.644724 0.027530 0.373610 57 85 139
0.543661 -0.179151 -0.006875 39 126 142
0.226898 0.529782 -0.120536 68 1 84
0.448222 0.519430 0.211864 68 1 84
0.667820 -0.476160 0.313623 124 210 79
0.218746 0.428369 -0.145408 67 59 131
0.107333 -0.237618 -0.195238 68 1 84
0.303695 0.534621 -0.025669 71 21 103
-0.251239 -0.176428 -0.186553 68 1 84
-0.028657 0.020427 -0.375358 68 1 84
0.506798 -0.476287 -0.038191 38 128 142
0.002424 0.172700 -0.313315 71 44 123
-0.312750 -0.295977 -0.175074 70 9 92
-0.132292 0.344677 -0.225043 68 1 84
-0.397990 0.453153 -0.018534 68 1 84
0.504613 0.318262 0.023640 50 99 141
-0.151590 -0.275164 -0.170439 68 1 84
0.692502 -0.265591 0.447111 48 180 122
0.018787 -0.462917 -0.260061 68 1 84
0.614037 0.100709 0.472515 71 42 121
0.047728 -0.188343 -0.392326 68 1 84
0.437075 0.140758 -0.110062 42 118 142
0.154031 0.334066 -0.207279 61 76 137
-0.145988 -0.116494 -0.267239 68 1 84
0.272410 0.358392 -0.111629 70 48 125
0.122923 -0.163269 -0.239021 68 1 84
0.554185 0.292860 0.469435 68 1 84
0.461565 0.289575 -0.030506 46 109 142
0.143555 -0.223367 -0.180469 69 54 129
0.018841 0.607212 -0.186978 68 1 84
0.148090 -0.093179 -0.241705 69 5 88
-0.586440 0.274879 0.377634 71 20 102
-0.091865 -0.025009 -0.368629 68 1 84
-0.374913 0.570200 0.097752 68 1 84
-0.021932 0.108765 -0.303264 68 1 84
-0.358965 0.499718 -0.021854 68 1 84
-0.348183 0.588167 0.115374 68 1 84
-0.498684 0.455259 0.225659 68 1 84
-0.433369 0.510110 0.081298 68 1 84
-0.421577 0.246903 -0.090527 72 29 111
-0.550612 0.354662 0.363375 68 1 84
0.617760 0.035070 0.252665 46 108 142
0.425547 0.521199 0.083865 68 1 84
0.432679 -0.018849 -0.156798 47 105 141
0.636336 -0.016912 0.535835 65 66 134
0.318266 -0.288064 -0.172217 68 1 84
0.151109 0.146711 -0.245725 55 88 140
-0.497000 0.425719 0.087674 71 18 101
-0.645586 -0.290253 0.176805 39 173 128
-0.490967 0.382461 0.035388 68 3 87
0.618546 0.057588 0.494010 69 50 127
0.558978 -0.334084 0.036793 44 177 125
-0.260889 0.487757 -0.105734 68 1 84
-0.351357 -0.514862 -0.215386 68 1 84
-0.107653 0.616551 -0.131102 68 1 84
-0.244364 0.191272 -0.171505 67 59 131
-0.236396 0.522532 -0.116549 68 1 84
0.394451 0.541558 0.061596 68 1 84
0.003028 -0.373486 -0.275413 68 1 84
0.519537 -0.429042 -0.019597 38 128 142
-0.636850 -0.012943 0.281733 45 111 142
-0.619037 0.159455 0.329609 67 58 131
0.154902 0.416438 -0.196385 70 48 125
-0.530609 -0.396924 -0.031349 31 162 134
0.233604 -0.306607 -0.178371 71 20 102
0.340295 -0.178158 -0.172260 68 55 129
0.599182 -0.465389 0.184157 149 215 63
0.195161 0.069717 -0.205770 58 83 139
-0.615515 -0.063857 0.147533 34 137 141
0.162762 0.507063 -0.189059 71 44 123
-0.397984 -0.478005 -0.188371 72 28 110
-0.450527 -0.056112 -0.149389 51 96 141
0.212560 -0.006948 -0.223529 63 71 136
0.461931 -0.104132 -0.120585 39 126 142
-0.286984 -0.388515 -0.195833 68 1 84
0.108507 0.197086 -0.275725 54 90 140
-0.044117 0.603817 -0.184482 68 1 84
0.502452 0.261510 0.004504 51 96 141
-0.086906 0.023041 -0.291011 68 1 84
-0.152696 0.099233 -0.236715 68 1 84
0.253777 -0.068481 -0.227779 68 1 84
0.314709 -0.320418 -0.169795 68 1 84
-0.362381 0.106571 -0.184801 54 90 140
0.578312 0.281721 0.374676 69 6 90
0.607973 0.196086 0.319250 69 53 128
0.607351 -0.362597 0.152598 96 201 96
0.650514 -0.111002 0.332607 33 140 141
-0.512095 -0.504467 -0.060851 31 148 139
-0.032252 -0.133036 -0.439772 68 1 84
0.470355 0.301579 -0.019169 45 111 142
-0.266020 -0.442237 -0.216187 68 1 84
0.059053 -0.073286 -0.458775 68 1 84
0.130512 0.510960 -0.210379 72 32 113
-0.599343 0.127017 0.182614 64 67 135
-0.648060 -0.026753 0.552025 38 129 142
0.624517 -0.255526 0.174512 53 183 120
0.453877 -0.176108 -0.106566 39 125 142
-0.560165 -0.230690 0.013869 42 117 142
-0.168794 0.596740 -0.126157 68 1 84
0.673607 -0.274028 0.414236 44 177 125
0.083700 0.228954 -0.266043 58 83 139
-0.570962 -0.357323 0.036769 32 164 133
0.470754 0.475572 0.107510 70 11 94
0.625536 -0.550242 0.240080 105 204 91
0.386787 0.142296 -0.145096 40 122 142
0.639636 -0.313061 0.238857 116 208 84
0.236660 0.590810 -0.001287 68 1 84
-0.010185 0.145812 -0.303368 69 50 127
-0.289416 0.063532 -0.215419 68 1 84
-0.144953 0.008171 -0.265038 68 1 84
-0.069852 -0.419075 -0.244971 68 1 84
0.572350 0.267000 0.441695 68 1 84
0.154328 -0.322819 -0.152478 71 40 120
-0.536326 0.374571 0.387115 68 1 84
0.510518 0.224868 0.006972 46 107 142
-0.530755 0.133672 -0.000184 47 105 141
-0.521842 -0.376229 -0.039703 35 136 141
0.061823 -0.010401 -0.360116 68 1 84
0.496793 -0.133287 -0.081648 37 130 142
0.587522 -0.385737 0.110681 81 196 104
0.181491 0.009145 -0.212536 64 67 135
0.607806 0.195808 0.315089 70 45 124
0.243984 -0.298767 -0.181136 71 21 103
-0.251349 -0.305448 -0.178617 72 30 112
-0.674266 -0.237427 0.269153 30 153 138
-0.166462 -0.206007 -0.191223 68 1 84
0.157924 -0.151557 -0.216922 70 47 124
0.528254 -0.469720 0.012920 30 154 137
0.617369 0.110977 0.285814 58 82 139
0.566701 -0.091989 0.027446 35 169 130
-0.489196 0.131076 -0.065173 43 116 142
0.258785 0.390963 -0.114464 70 49 126
0.624207 0.069251 0.452524 71 22 105
-0.456601 0.162937 -0.090579 64 68 135
0.124687 0.282834 -0.258068 61 76 137
0.244549 -0.042987 -0.231054 71 21 103
0.086166 -0.016410 -0.394768 68 1 84
-0.552251 -0.058141 -0.028898 30 154 137
-0.253983 0.187489 -0.170192 70 48 125
0.127908 -0.034286 -0.327679 68 1 84
-0.026858 0.453133 -0.251354 68 1 84
-0.105713 0.214481 -0.264954 68 1 84
-0.289839 -0.494147 -0.233140 68 1 84
0.617879 0.096266 0.460257 70 48 125
0.089564 0.286616 -0.281196 55 88 140
-0.247543 0.432063 -0.127828 68 1 84
0.336435 -0.409889 -0.189280 68 1 84
-0.612772 -0.045765 0.148807 37 131 141
-0.557691 -0.394406 0.015080 30 156 137
0.623778 -0.210858 0.174536 61 187 116
-0.422833 -0.375638 -0.141510 60 77 138
-0.645305 0.038211 0.434777 50 99 141
-0.181279 -0.068117 -0.249291 68 1 84
0.566786 -0.404715 0.073691 40 174 127
-0.049024 0.286440 -0.298142 66 62 133
-0.674012 -0.275545 0.269389 68 190 112
-0.653759 -0.023535 0.461787 48 104 141
-0.455047 -0.487018 -0.145830 72 32 113
-0.374961 -0.222534 -0.144160 61 76 137
0.227311 -0.252396 -0.173095 72 28 110
0.504397 -0.002170 -0.075560 34 137 141
0.464687 -0.284833 -0.048920 34 139 141
-0.426154 0.495991 0.046151 68 1 84
-0.395227 -0.041732 -0.189642 65 66 134
-0.327352 -0.344975 -0.155507 70 14 97
0.131748 -0.068910 -0.306833 68 1 84
-0.632162 0.055771 0.470265 60 77 138
-0.009564 0.602599 -0.194071 68 1 84
0.289902 -0.146234 -0.196574 68 1 84
-0.600760 -0.528641 0.140996 131 211 75
-0.047750 0.031678 -0.327515 68 1 84
-0.679286 -0.302746 0.305580 81 196 104
0.608056 -0.431692 0.191238 114 207 85
-0.486253 -0.516304 -0.102781 36 132 141
-0.014012 -0.019327 -0.477011 68 1 84
-0.226832 -0.039822 -0.240856 68 1 84
-0.073437 0.505541 -0.238636 68 1 84
-0.674629 -0.221360 0.521887 32 145 140
0.386999 0.336339 -0.081390 63 69 135
-0.674852 -0.490539 0.384010 136 213 71
0.499738 0.425871 0.346590 68 1 84
-0.687745 -0.532579 0.482307 167 219 51
0.592843 -0.523732 0.176029 109 206 88
0.281128 0.556364 -0.015539 68 1 84
-0.237130 0.208871 -0.161561 69 8 91
0.644742 -0.354698 0.271844 134 212 73
-0.451236 -0.405854 -0.143529 70 48 125
0.613724 0.163517 0.407741 71 42 121
-0.690762 -0.411299 0.464208 87 198 101
-0.562022 0.301241 0.466116 68 1 84
0.284924 -0.386583 -0.165681 67 60 132
-0.536215 0.370311 0.401669 68 1 84
0.005375 -0.373338 -0.274905 68 1 84
-0.536805 0.094091 -0.007481 40 122 142
-0.063213 0.300557 -0.293338 65 65 134
-0.374284 -0.453279 -0.205741 68 1 84
0.554025 -0.078796 -0.001730 30 158 136
0.515369 0.426760 0.211630 68 1 84
-0.620993 -0.459525 0.184103 126 210 78
-0.584944 -0.411382 0.072962 59 186 117
0.641622 -0.142826 0.426501 33 141 140
0.620855 -0.283948 0.167551 77 194 107
0.022886 -0.207686 -0.396736 68 1 84
-0.489998 0.450783 0.112016 68 1 84
0.576313 -0.396398 0.090611 68 190 112
0.584439 0.184425 0.182966 57 84 139
-0.411154 0.472614 0.006743 68 1 84
0.645775 -0.020383 0.385134 55 88 140
-0.334172 0.512680 -0.030223 68 1 84
0.488969 0.338367 0.012532 54 90 140
-0.063323 -0.489970 -0.262336 68 1 84
-0.180384 0.541530 -0.166395 68 1 84
-0.200475 -0.180332 -0.194516 68 1 84
0.538904 0.357539 0.127430 72 34 115
-0.500404 0.444802 0.283640 68 1 84
-0.541560 -0.454441 -0.007954 35 169 130
0.496548 0.410733 0.076278 71 18 101
0.357454 -0.144569 -0.179045 72 33 114
0.638840 0.030230 0.408077 63 71 136
-0.593675 0.263266 0.344265 72 29 111
-0.100506 -0.036794 -0.391708 68 1 84
-0.225144 0.089550 -0.200298 72 30 112
-0.400188 0.290676 -0.091812 72 32 113
-0.366517 -0.187537 -0.152109 66 61 132
0.458797 0.495933 0.274378 68 1 84
0.451913 0.285673 -0.040377 43 116 142
-0.667299 -0.096767 0.411374 36 132 141
0.152625 0.466865 -0.200315 64 67 135
-0.049204 -0.334626 -0.287345 68 1 84
-0.073071 -0.396495 -0.242184 68 1 84
0.107129 0.346934 -0.234371 63 71 136
-0.650811 -0.079477 0.276121 42 117 142
0.575534 -0.116640 0.047500 30 151 138
-0.607233 0.115958 0.208917 63 71 136
-0.419538 0.444890 -0.003124 68 1 84
-0.640075 -0.364254 0.190457 89 199 100
0.387107 0.233471 -0.115982 44 113 142
0.452768 -0.023017 -0.138716 36 134 141
0.072070 0.001951 -0.419730 68 1 84
0.514636 0.375051 0.078481 68 57 130
0.210004 0.108785 -0.203068 53 92 140
0.565172 0.296607 0.171687 71 37 117
-0.629323 0.028829 0.543571 48 104 141
0.578915 0.144919 0.157369 56 87 140
0.404467 -0.296638 -0.102361 33 140 141
-0.159575 -0.340604 -0.155083 68 1 84
-0.688757 -0.312768 0.453149 38 172 129
-0.381621 -0.339923 -0.138176 66 61 132
-0.677374 -0.178143 0.401884 33 142 140
-0.204977 0.527038 -0.150078 68 1 84
-0.662972 -0.458642 0.331313 121 209 81
-0.476417 0.440863 0.064029 68 1 84
-0.481332 -0.195729 -0.078398 30 152 138
0.603820 0.020254 0.197718 59 81 138
0.109412 0.314709 -0.254282 46 109 142
0.636679 -0.175933 0.219479 35 169 130
0.081651 0.412779 -0.233521 71 39 119
-0.260671 0.151275 -0.181918 68 57 130
0.604263 0.053807 0.214175 51 97 141
0.648820 -0.482057 0.280117 40 174 127
0.606387 0.197366 0.304933 68 55 129
-0.092396 -0.330208 -0.193623 68 1 84
0.121362 -0.349844 -0.146537 71 37 117
-0.636197 -0.330560 0.162551 77 194 107
-0.072219 0.337149 -0.258244 71 17 99
0.579548 -0.036232 0.090933 35 136 141
-0.140053 -0.133255 -0.267161 68 1 84
0.128848 0.199789 -0.263960 47 105 141
0.328658 -0.056936 -0.211825 71 24 106
-0.390159 -0.268116 -0.143908 61 76 137
-0.145089 0.147290 -0.254410 68 1 84
0.438999 -0.431438 -0.150951 72 35 116
-0.483818 -0.119691 -0.110044 39 125 142
0.253504 -0.316216 -0.175949 68 1 84
-0.401422 0.250948 -0.106474 69 54 129
-0.515734 -0.009962 -0.078629 41 120 142
-0.664510 -0.191668 0.502976 32 145 140
-0.419027 0.087042 -0.157576 56 87 140
0.569593 -0.105689 0.033100 34 137 141
-0.415163 -0.056067 -0.175840 57 84 139
-0.193041 0.287134 -0.185902 68 1 84
-0.360704 0.009113 -0.207813 70 11 94
0.418714 0.521427 0.071718 68 1 84
0.160304 0.596000 -0.127902 68 1 84
0.209637 0.400942 -0.151000 61 76 137
0.139815 0.600088 -0.139255 68 1 84
0.300838 -0.057499 -0.220425 72 26 108
0.662399 -0.487834 0.303652 91 200 98
-0.542112 -0.330737 0.005762 31 147 139
0.147406 -0.019907 -0.260399 71 21 103
-0.326281 -0.439926 -0.217947 68 1 84
-0.654581 -0.309536 0.211311 48 180 122
-0.596172 0.015918 0.132147 40 123 142
0.397201 0.566593 0.121020 68 1 84
-0.127206 0.091344 -0.251217 68 1 84
-0.630230 -0.144280 0.160718 32 143 140
-0.633290 0.102650 0.370767 66 62 133
0.389244 0.572911 0.128967 68 1 84
-0.510222 0.120329 -0.039821 50 99 141
-0.604549 -0.183972 0.072241 32 143 140
-0.015456 0.243515 -0.287287 61 74 137
0.576835 0.293102 0.340435 71 37 117
-0.056698 -0.001174 -0.424690 68 1 84
0.223246 0.589455 -0.036088 68 1 84
-0.678718 -0.313552 0.307084 81 196 104
0.406065 0.560781 0.178653 68 1 84
0.231922 -0.101315 -0.221660 71 43 122
-0.560892 0.094340 0.045048 40 122 142
0.464201 0.089907 -0.103668 31 146 140
0.503964 0.022711 -0.071260 34 137 141
0.204453 -0.052149 -0.231435 69 53 128
0.495919 -0.209251 -0.053273 35 136 141
0.167332 0.608781 -0.087475 68 1 84
0.637484 -0.352261 0.243198 103 204 92
-0.296347 0.575696 0.024775 68 1 84
-0.234060 0.580561 -0.035710 68 1 84
0.515955 -0.495539 -0.010798 37 131 141
-0.566849 0.238686 0.103371 68 57 130
0.493370 -0.090655 -0.090174 30 151 138
-0.337357 0.520956 -0.019672 68 1 84
0.523789 0.411851 0.212656 71 17 99
-0.662882 -0.388042 0.301234 159 217 56
0.240117 -0.406215 -0.211138 68 1 84
-0.628306 0.050129 0.276914 54 91 140
0.144531 0.617699 -0.087451 68 1 84
-0.090509 -0.045583 -0.417999 68 1 84
0.027353 -0.042614 -0.476899 68 1 84
-0.642585 -0.070278 0.238196 32 143 140
-0.008307 0.050305 -0.356984 68 1 84
-0.488625 0.349413 0.013415 68 1 84
-0.565696 0.266407 0.114154 71 24 106
-0.346038 0.589959 0.118674 68 1 84
0.070913 -0.012968 -0.448833 68 1 84
0.514376 -0.485203 -0.015781 35 135 141
0.618825 -0.016829 0.233386 46 107 142
0.566289 0.163090 0.111656 56 86 139
-0.026110 0.025237 -0.433279 68 1 84
-0.313036 0.563949 0.017051 68 1 84
-0.405742 0.551360 0.115972 68 1 84
-0.543172 -0.152313 -0.037533 40 122 142
-0.654579 -0.078835 0.339677 30 153 138
-0.044418 -0.443807 -0.260156 68 1 84
0.001046 0.042774 -0.426930 68 1 84
0.646912 -0.118290 0.506759 44 112 142
-0.625898 0.124652 0.337080 69 53 128
-0.389644 0.227877 -0.122938 56 86 139
0.090924 -0.226986 -0.225883 68 1 84
0.572336 0.286748 0.203460 70 45 124
-0.037106 0.190141 -0.308306 68 2 85
-0.177817 -0.260366 -0.172337 70 47 124
-0.676830 -0.333642 0.309510 124 210 79
-0.592686 0.259432 0.246264 71 42 121
0.574873 0.226260 0.159629 61 75 137
0.311188 -0.435802 -0.218469 68 1 84
-0.622195 0.051343 0.542104 58 82 139
-0.649792 -0.336639 0.206612 51 182 121
-0.091658 -0.267954 -0.227598 68 1 84
-0.093901 0.329986 -0.259333 70 14 97
0.398422 0.436900 -0.023482 68 1 84
-0.415379 -0.272364 -0.116532 34 137 141
0.340199 0.558593 0.027238 68 1 84
0.553895 0.335556 0.365997 68 1 84
0.615854 0.082828 0.479734 71 43 122
0.613131 -0.486013 0.215478 94 201 97
-0.107862 0.353800 -0.233049 68 1 84
0.532905 -0.307301 0.003256 43 177 125
0.517363 0.065179 -0.035931 35 135 141
-0.435176 0.527756 0.132302 68 1 84
-0.342241 0.536242 0.001094 68 1 84
0.650429 -0.137717 0.373265 33 142 140
0.144551 -0.293023 -0.162690 71 42 121
0.491606 0.094623 -0.065004 40 122 142
-0.276956 0.303141 -0.127471 72 29 111
0.098804 -0.027802 -0.377436 68 1 84
0.598266 0.191896 0.441778 72 32 113
0.565770 -0.394692 0.068124 41 175 127
-0.568970 0.323823 0.217538 68 2 85
0.510505 -0.294396 -0.014862 30 152 138
-0.202258 -0.431631 -0.205066 68 1 84
0.587302 0.252479 0.256366 71 44 123
-0.671862 -0.194673 0.464398 30 153 138
0.513530 0.299735 0.029677 51 96 141
0.475199 0.410882 0.042070 70 14 97
0.119545 -0.527109 -0.263751 68 1 84
-0.166222 -0.214513 -0.184441 68 2 85
-0.182969 0.558156 -0.155242 68 1 84
0.601899 -0.377266 0.143893 89 199 100
0.252791 0.026276 -0.221170 71 37 117
-0.296916 -0.209427 -0.166776 68 3 87
-0.650586 -0.486378 0.282409 131 211 75
0.004160 -0.316019 -0.315110 68 1 84
0.598665 0.161181 0.231866 61 74 137
-0.270516 0.553525 -0.034343 68 1 84
-0.147366 -0.351936 -0.159728 68 1 84
-0.524772 0.021681 -0.058563 36 133 141
-0.639575 -0.111573 0.199480 36 132 141
0.393812 0.559572 0.090480 68 1 84
0.371600 0.472187 -0.024543 68 1 84
0.648729 -0.064648 0.366961 64 68 135
0.114687 -0.449164 -0.221619 68 1 84
0.234632 -0.086549 -0.225602 71 24 106
0.501680 0.330878 0.025334 61 75 137
0.626253 0.030885 0.478943 68 55 129
-0.602337 -0.265618 0.071135 31 150 139
0.622596 -0.163720 0.173902 30 155 137
0.594523 -0.302781 0.101609 81 196 104
-0.653891 -0.267397 0.202260 36 170 130
-0.083747 0.272796 -0.286263 67 60 132
-0.235976 0.432266 -0.136464 68 1 84
-0.465032 -0.466421 -0.140095 70 47 124
-0.507384 0.441675 0.242157 68 1 84
0.528239 0.025726 -0.029354 36 133 141
0.303137 0.584124 0.041296 68 1 84
-0.051577 0.612749 -0.162902 68 1 84
0.070088 0.315410 -0.274235 60 78 138
0.509241 0.391406 0.082646 71 42 121
0.134446 -0.075812 -0.272634 68 1 84
0.668762 -0.452023 0.317214 121 209 81
0.616753 -0.112367 0.167304 31 147 139
0.076954 0.583682 -0.196170 68 1 84
-0.433339 0.467105 0.027310 68 1 84
-0.586396 0.224336 0.467807 72 33 114
0.037784 0.627262 -0.134671 68 1 84
-0.099955 -0.533706 -0.266294 68 1 84
0.630266 -0.201074 0.194602 30 152 138
-0.440442 0.004089 -0.158744 46 109 142
-0.657042 -0.465533 0.306070 151 216 62
0.168674 0.473804 -0.188224 68 57 130
-0.319968 -0.197451 -0.163857 71 17 99
-0.545862 -0.507839 0.007044 31 150 139
-0.176758 0.182782 -0.229716 68 1 84
-0.653670 -0.033530 0.508105 39 125 142
-0.432828 0.105564 -0.139911 40 123 142
0.666974 -0.513486 0.313059 98 202 95
-0.595554 0.171844 0.181858 70 49 126
-0.686494 -0.340523 0.380610 53 183 120
-0.527529 0.327036 0.056999 68 3 87
0.165473 0.182094 -0.237833 45 110 142
-0.614897 -0.547194 0.177924 79 195 105
0.640197 -0.473816 0.265575 91 200 98
-0.090161 -0.084965 -0.401478 68 1 84
0.516703 -0.043094 -0.061137 30 154 137
-0.531382 0.142231 0.004402 50 99 141
-0.161224 -0.414387 -0.186706 68 1 84
