ply
format ascii 1.0
element vertex 1275
property float x
property float y
property float z
property uchar red
property uchar green
property uchar blue
end_header
-0.653219 -0.153606 0.460581 31 149 139
-0.109442 -0.130673 -0.356677 81 196 104
-0.420005 0.401374 0.073404 68 1 84
-0.483246 -0.266236 -0.028119 68 1 84
-0.576804 -0.452649 -0.030210 68 1 84
0.343809 0.411395 -0.083993 68 1 84
0.486693 -0.329863 -0.012083 68 1 84
-0.528238 0.159117 0.135775 72 29 111
-0.426090 0.472429 0.239050 69 8 91
0.080368 0.278497 -0.266180 68 1 84
-0.397573 0.474996 0.123488 68 1 84
-0.571512 -0.477451 -0.051863 68 1 84
0.056295 -0.230363 -0.332968 43 115 142
0.494628 0.022249 -0.017372 68 1 84
-0.467913 0.409010 0.214201 68 1 84
-0.660255 -0.230533 0.413839 48 103 141
0.064648 0.031538 -0.300060 46 109 142
-0.167421 -0.383325 -0.214630 68 1 84
0.419078 0.348525 -0.005351 68 1 84
-0.209744 -0.399885 -0.226446 68 1 84
0.307143 -0.382802 -0.178386 68 1 84
-0.348830 0.141328 -0.133154 71 21 103
0.655391 -0.284174 0.442568 45 111 142
0.180710 -0.198931 -0.188745 68 1 84
-0.485264 0.400423 0.266904 40 123 142
0.290528 -0.012927 -0.195267 68 1 84
0.614021 -0.068326 0.286163 67 58 131
0.079666 -0.203806 -0.308513 53 92 140
-0.506797 0.369204 0.324571 35 137 141
-0.556941 -0.452957 -0.105453 68 1 84
-0.557622 0.128240 0.548392 30 151 138
0.574580 0.223203 0.269829 68 1 84
0.165975 -0.340583 -0.139208 68 1 84
0.613703 -0.259999 0.186729 72 32 113
-0.557449 0.188775 0.306519 33 141 140
-0.318526 0.550067 0.107147 68 1 84
-0.596539 -0.237821 0.099912 68 1 84
-0.604508 -0.105130 0.136823 68 3 87
0.402570 0.472193 0.075942 68 1 84
-0.087058 0.614929 -0.210139 68 1 84
0.367607 0.520085 0.117826 68 1 84
0.645104 -0.330665 0.420990 61 76 137
0.188348 -0.464493 -0.332237 65 65 134
0.208064 -0.202217 -0.172331 68 1 84
0.638698 -0.356094 0.423803 55 89 140
0.187174 0.045333 -0.200437 68 1 84
0.593398 0.037625 0.247832 69 8 91
-0.276235 0.101992 -0.165919 68 1 84
0.083732 -0.076573 -0.353440 70 49 126
0.157808 0.277926 -0.221564 68 1 84
-0.269580 -0.426345 -0.275415 71 38 118
-0.295880 0.565565 0.097194 68 1 84
-0.553764 -0.011322 0.057628 68 1 84
0.477254 -0.456056 -0.127052 68 1 84
-0.536997 0.280500 0.405137 46 178 124
0.423167 -0.288252 -0.062225 68 1 84
0.335841 -0.450333 -0.242537 68 1 84
-0.490615 0.389582 0.264051 41 120 142
-0.445942 0.458238 0.322518 56 86 139
-0.149717 -0.092199 -0.270840 45 110 142
-0.492561 0.250198 0.103102 70 9 92
-0.436369 0.457037 0.422239 68 1 84
0.241898 -0.367764 -0.151101 68 1 84
0.637242 -0.331308 0.334953 67 59 131
0.081370 -0.278861 -0.209921 69 5 88
0.564626 -0.276670 0.067466 68 1 84
-0.158772 -0.428494 -0.321150 40 122 142
0.476422 0.315613 0.074252 68 1 84
-0.618471 -0.074495 0.241673 71 20 102
-0.312508 -0.293581 -0.135391 68 1 84
-0.445919 -0.364844 -0.141765 68 1 84
0.060637 0.060304 -0.386090 45 110 142
0.294614 0.569154 0.053206 68 1 84
-0.007749 0.341158 -0.255760 68 1 84
-0.191524 0.066263 -0.196264 71 18 101
-0.361003 -0.368558 -0.194973 68 1 84
-0.288259 0.192622 -0.160054 69 5 88
-0.153398 -0.206482 -0.231896 69 52 127
0.534863 -0.239067 0.011894 68 1 84
-0.450798 0.360556 0.099348 68 1 84
0.470036 0.138277 -0.005643 68 1 84
-0.336673 0.066625 -0.161929 68 1 84
-0.672807 -0.304456 0.319510 47 105 141
-0.388304 -0.484862 -0.276779 47 106 141
0.458929 -0.120411 -0.080140 68 1 84
0.390397 0.339135 -0.057591 68 1 84
-0.209167 -0.155582 -0.193380 72 25 107
0.382880 -0.196608 -0.108613 68 1 84
0.608679 -0.458161 0.247689 68 1 84
0.505396 -0.396470 -0.017826 68 1 84
0.598774 0.162916 0.402584 64 67 135
0.633262 -0.063465 0.418788 31 150 139
-0.464297 0.289589 0.073873 68 1 84
0.540200 0.287837 0.199888 68 1 84
0.415230 0.312451 -0.028294 68 1 84
0.658908 -0.279686 0.484417 58 82 139
0.003818 -0.020746 -0.461176 112 206 86
0.629200 -0.349974 0.289073 68 1 84
-0.350430 0.004616 -0.161523 71 18 101
0.131425 0.033655 -0.314354 70 47 124
0.622076 -0.416035 0.252987 68 1 84
0.545823 0.318513 0.402252 70 48 125
0.440984 0.342461 0.029268 68 1 84
0.304332 0.552605 0.006665 68 1 84
-0.019543 -0.297238 -0.359809 33 142 140
-0.229541 -0.418793 -0.285761 63 71 136
0.060142 -0.406482 -0.306743 72 29 111
-0.424759 0.383197 0.066797 68 1 84
0.651732 -0.536076 0.462671 71 39 119
0.654950 -0.227208 0.369780 40 123 142
0.582396 -0.020003 0.182188 71 17 99
-0.106756 -0.161695 -0.351344 57 185 118
-0.179523 0.454691 -0.194410 68 1 84
0.348241 -0.315771 -0.120512 68 1 84
0.081312 -0.280550 -0.206492 68 1 84
0.592988 0.165313 0.326490 71 22 105
0.319264 0.556010 0.088630 68 1 84
-0.151884 0.611513 -0.172999 68 1 84
0.544473 -0.354885 0.049963 68 1 84
0.563440 0.284588 0.347068 68 1 84
-0.431016 -0.148397 -0.077785 68 1 84
0.054657 -0.258103 -0.314442 51 96 141
0.177525 -0.196668 -0.192484 68 1 84
-0.239473 -0.017562 -0.196414 69 50 127
0.622264 -0.489291 0.302142 68 1 84
0.367377 0.050354 -0.148383 68 1 84
0.550421 -0.123698 0.032876 68 1 84
-0.658991 -0.208347 0.342615 45 110 142
0.641929 -0.156290 0.456168 35 135 141
0.149146 0.013431 -0.221918 68 1 84
0.325203 -0.224349 -0.124900 68 1 84
0.639935 -0.390918 0.458892 38 128 142
-0.454124 0.429326 0.209178 69 5 88
0.102391 -0.231156 -0.246015 71 43 122
-0.573417 0.109417 0.305842 32 143 140
-0.046264 0.276659 -0.269499 71 24 106
-0.167106 -0.380437 -0.205582 68 1 84
0.625372 -0.012401 0.407927 30 160 135
-0.204676 -0.398071 -0.225453 68 1 84
-0.387463 0.298571 -0.045818 68 1 84
0.340858 0.436079 -0.075299 68 1 84
-0.209816 -0.158429 -0.191215 68 1 84
-0.091779 0.405488 -0.225566 68 1 84
0.260737 -0.077729 -0.206257 68 1 84
-0.658966 -0.218051 0.342665 54 90 140
-0.020790 -0.387045 -0.336149 41 121 142
-0.028130 0.632223 -0.196041 68 1 84
0.003839 0.469434 -0.264546 68 1 84
0.060548 -0.385529 -0.279542 72 33 114
-0.447473 0.252567 0.026545 69 5 88
0.021543 0.290374 -0.278727 68 1 84
-0.177414 -0.221521 -0.177746 68 1 84
-0.005245 0.336929 -0.260768 68 1 84
0.438774 0.438133 0.111158 68 1 84
0.053208 0.531219 -0.270712 68 1 84
0.091863 -0.269754 -0.203087 68 1 84
0.502253 0.107111 0.031731 68 1 84
0.437063 0.103685 -0.066500 68 1 84
0.654040 -0.241906 0.367766 39 125 142
0.093340 -0.169602 -0.300631 58 82 139
-0.041087 -0.366362 -0.338498 40 122 142
-0.154107 -0.054396 -0.296965 35 137 141
-0.631757 -0.412684 0.205579 68 1 84
-0.700102 -0.419100 0.507432 62 73 137
0.095652 0.042753 -0.339327 40 122 142
-0.261970 0.370867 -0.144326 68 1 84
-0.536747 -0.083783 0.001673 71 17 99
0.030030 -0.364861 -0.298952 70 47 124
0.045841 0.465087 -0.262109 68 1 84
-0.174188 0.029578 -0.237776 62 73 137
0.622840 0.011995 0.432903 33 166 133
-0.453893 -0.319742 -0.076030 68 1 84
-0.408550 0.490538 0.275484 68 1 84
0.509082 0.283225 0.116119 68 1 84
0.113943 -0.434213 -0.331484 66 62 133
-0.377754 0.510991 0.205139 68 1 84
-0.515318 0.125352 0.069486 68 3 87
0.507632 -0.056229 -0.022943 68 1 84
-0.191412 0.527829 -0.182944 68 1 84
-0.191781 -0.461512 -0.334790 41 121 142
-0.530443 0.290114 0.436743 68 190 112
-0.216996 0.451340 -0.166826 68 1 84
0.300959 -0.299287 -0.147589 68 1 84
0.226579 -0.145507 -0.198292 68 1 84
-0.483037 0.395066 0.435300 55 88 140
0.012351 -0.153077 -0.409243 85 198 102
-0.676566 -0.469965 0.336014 68 1 84
-0.145604 -0.417676 -0.309682 59 81 138
0.617198 -0.549834 0.315594 68 1 84
-0.499319 0.339943 0.501374 30 158 136
0.548815 0.060632 0.113200 68 1 84
-0.176824 0.016383 -0.301778 73 193 109
0.350286 0.530891 0.090315 68 1 84
-0.153746 -0.075913 -0.271275 31 149 139
-0.567124 0.011514 0.121543 72 30 112
0.015967 0.580742 -0.256329 68 1 84
-0.636359 -0.324162 0.217789 68 1 84
-0.055533 0.035243 -0.469871 139 213 70
-0.656090 -0.220021 0.310819 59 80 138
-0.385156 -0.219385 -0.093989 68 1 84
-0.373467 0.511715 0.169288 68 1 84
0.036059 0.589836 -0.246571 68 1 84
-0.392539 0.486554 0.136486 68 1 84
0.229152 -0.085501 -0.216131 68 1 84
-0.237462 -0.242450 -0.134066 68 1 84
-0.395041 0.464262 0.098479 68 1 84
0.353208 0.195719 -0.118063 68 1 84
0.629144 -0.423145 0.420347 64 67 135
-0.301873 0.531820 -0.009363 68 1 84
0.108897 0.319492 -0.255168 68 1 84
-0.621637 -0.242005 0.162708 68 1 84
0.594913 -0.049791 0.214731 72 28 110
-0.667949 -0.501726 0.292259 68 1 84
0.603278 -0.365168 0.178323 68 1 84
0.343209 -0.048741 -0.172680 68 1 84
-0.586766 0.055669 0.313660 34 137 141
-0.043750 0.297171 -0.278809 53 92 140
0.615449 0.081527 0.471427 36 132 141
0.605760 0.086944 0.349032 52 94 141
-0.492737 -0.254947 -0.019590 68 1 84
-0.264025 0.386656 -0.139112 68 1 84
0.490054 0.353667 0.129841 68 1 84
-0.473696 0.421587 0.390069 61 75 137
-0.234821 -0.080948 -0.200090 61 76 137
-0.282697 0.333863 -0.138845 68 1 84
-0.274742 -0.209302 -0.127081 68 1 84
-0.407908 0.451343 0.109208 68 1 84
0.604306 -0.456139 0.235648 68 1 84
-0.298622 0.544111 0.010161 68 1 84
-0.335015 0.420321 -0.060332 68 1 84
-0.285958 -0.299685 -0.137733 68 1 84
0.044169 0.564453 -0.261706 68 1 84
0.395057 -0.148777 -0.118631 68 1 84
-0.610690 -0.395001 0.130795 68 1 84
0.476629 0.412894 0.189590 68 1 84
-0.188661 -0.200958 -0.183156 71 21 103
0.468341 0.430664 0.236227 68 1 84
-0.575329 0.079511 0.520688 73 193 109
-0.293685 0.498454 -0.064883 68 1 84
0.439185 0.177014 -0.032769 68 1 84
0.131417 -0.284441 -0.157880 68 1 84
-0.638123 -0.106887 0.520702 57 185 118
-0.680900 -0.372046 0.436805 52 95 141
0.626134 -0.229598 0.232962 71 44 123
-0.227408 0.581940 -0.090884 68 1 84
-0.518893 -0.263485 -0.000093 68 1 84
0.565603 -0.403041 0.097121 68 1 84
0.586077 0.054152 0.224141 69 54 129
0.214062 0.520784 -0.192434 68 1 84
0.543397 0.322347 0.405685 70 47 124
0.619294 -0.270661 0.207939 68 1 84
0.587199 -0.232242 0.107345 68 1 84
-0.519243 -0.502330 -0.169223 68 1 84
0.336610 -0.483315 -0.266465 70 11 94
-0.595630 -0.197916 0.096088 68 1 84
0.152926 -0.111704 -0.244659 70 9 92
0.592678 0.058752 0.254179 71 38 118
-0.217022 -0.120768 -0.201960 69 8 91
-0.172383 -0.459457 -0.336158 30 152 138
0.432091 -0.403479 -0.135191 68 1 84
0.593804 0.072493 0.265097 71 37 117
0.369572 0.479848 0.014472 68 1 84
-0.611670 -0.460502 0.125336 68 1 84
0.554943 -0.089670 0.050932 68 1 84
0.282965 -0.188692 -0.149142 68 1 84
0.570663 -0.250731 0.072433 68 1 84
0.593818 -0.138639 0.151559 68 1 84
-0.555596 -0.499004 -0.102271 68 1 84
-0.678239 -0.376878 0.389090 65 66 134
0.463160 -0.295682 -0.031608 68 1 84
0.646264 -0.517588 0.438741 65 65 134
0.436925 -0.347415 -0.054399 68 1 84
0.016643 -0.142603 -0.409271 116 208 84
-0.399849 -0.253523 -0.098664 68 1 84
-0.087286 0.069194 -0.425117 134 212 73
-0.354922 -0.214373 -0.106244 68 1 84
-0.653013 -0.252929 0.266071 70 11 94
-0.050975 0.643956 -0.164962 68 1 84
-0.560826 -0.498131 -0.089027 68 1 84
0.305926 -0.213648 -0.133505 68 1 84
0.629277 -0.486696 0.334051 68 1 84
0.279750 -0.379845 -0.167604 68 1 84
-0.051113 0.087062 -0.313505 46 108 142
0.372159 0.483242 0.024936 68 1 84
-0.479634 0.418272 0.334834 43 115 142
-0.347089 0.126619 -0.139270 68 1 84
-0.528063 0.139746 0.119942 72 30 112
0.527869 -0.204537 -0.004679 68 1 84
0.351061 -0.312104 -0.118332 68 1 84
0.342261 0.354609 -0.107161 68 1 84
-0.101751 -0.145047 -0.366774 151 216 62
-0.566079 0.034328 0.153377 68 3 87
-0.326243 -0.099208 -0.146771 68 1 84
0.523958 0.011945 0.028537 68 1 84
0.418065 0.388827 0.016595 68 1 84
0.291607 0.195084 -0.169763 68 1 84
-0.571275 0.125199 0.413162 30 153 138
-0.374788 0.248972 -0.077853 69 6 90
0.186960 -0.026695 -0.209524 68 1 84
-0.501008 0.166947 0.066289 72 25 107
0.612694 0.098906 0.466787 45 110 142
-0.500192 0.332115 0.196221 67 58 131
0.555743 0.301286 0.375106 71 38 118
0.513597 -0.439134 -0.023577 68 1 84
-0.123258 0.430010 -0.218815 68 1 84
0.650976 -0.328617 0.510033 53 93 140
0.558186 0.284761 0.275613 70 12 95
0.544399 0.057812 0.100862 68 1 84
0.143628 0.465012 -0.231326 68 1 84
-0.578039 0.100998 0.386048 34 167 132
-0.119070 -0.358532 -0.241201 68 1 84
-0.097395 -0.460370 -0.348672 61 76 137
0.385477 -0.535801 -0.239227 70 14 97
-0.597251 -0.391338 0.083924 68 1 84
0.590657 0.074536 0.250869 71 20 102
0.514750 0.338178 0.177652 68 1 84
0.123353 0.082393 -0.243968 68 1 84
-0.580694 0.063091 0.506741 69 191 111
-0.233360 -0.188861 -0.153408 70 9 92
-0.347421 -0.233295 -0.118200 68 1 84
-0.427135 0.188521 -0.044006 68 1 84
0.655842 -0.308327 0.518801 71 42 121
-0.499661 0.354211 0.467671 35 136 141
-0.364369 0.386778 -0.040244 68 1 84
0.523907 0.114528 0.075547 68 1 84
0.389907 0.162058 -0.093055 68 1 84
0.627922 -0.277396 0.239730 72 32 113
-0.642212 -0.105569 0.373279 48 103 141
0.638745 -0.097184 0.386448 48 104 141
-0.125830 0.046154 -0.317839 36 170 130
0.513563 0.363318 0.219361 68 1 84
-0.567724 0.138662 0.310965 33 140 141
0.090421 0.042263 -0.377980 36 133 141
0.342804 -0.282498 -0.122351 68 1 84
0.540369 -0.467757 0.053080 68 1 84
0.366012 0.213770 -0.104875 68 1 84
-0.328542 0.508967 0.013995 68 1 84
0.087473 0.278211 -0.263401 68 1 84
-0.119180 -0.341271 -0.214391 68 1 84
0.386906 0.250226 -0.080881 68 1 84
0.048006 0.513034 -0.272221 68 1 84
-0.521719 -0.045983 -0.012996 70 11 94
0.361606 -0.044124 -0.163122 68 1 84
-0.655552 -0.239043 0.547250 32 145 140
-0.546828 -0.476740 -0.128902 68 1 84
-0.246291 -0.075349 -0.195932 61 75 137
0.495055 -0.387419 -0.029146 68 1 84
0.587188 -0.100321 0.152525 68 1 84
-0.131238 0.184636 -0.268156 31 149 139
0.586776 0.154955 0.275787 68 1 84
0.550872 0.144813 0.147536 68 1 84
0.061608 -0.328657 -0.207906 68 1 84
-0.598617 -0.005502 0.533968 83 197 103
-0.076398 0.044157 -0.458751 186 222 39
-0.518889 -0.327382 -0.053574 68 1 84
-0.212825 -0.206733 -0.156804 68 1 84
0.513470 0.320703 0.154603 68 1 84
-0.335827 -0.420092 -0.235155 68 1 84
0.400189 0.282064 -0.059340 68 1 84
-0.557026 0.089796 0.179864 71 40 120
0.371185 0.506744 0.069012 68 1 84
-0.181247 0.251280 -0.202261 72 32 113
0.288769 0.409337 -0.137539 68 1 84
0.451407 0.224570 0.001703 68 1 84
0.612515 -0.038328 0.300666 46 107 142
0.151812 0.119221 -0.243057 68 1 84
0.579193 0.207064 0.277311 68 1 84
-0.496416 0.028426 -0.030020 71 15 98
0.187434 0.562635 -0.203140 68 1 84
-0.547462 0.168855 0.544209 31 148 139
0.125525 -0.289106 -0.157905 68 1 84
-0.258922 0.381733 -0.144031 68 1 84
0.086657 -0.428902 -0.329354 64 68 135
-0.235080 -0.093059 -0.198408 56 86 139
-0.667759 -0.290147 0.296994 51 97 141
0.499081 -0.165302 -0.041510 68 1 84
-0.488903 -0.315256 -0.054504 68 1 84
0.041822 -0.328531 -0.270355 58 82 139
0.582688 0.164466 0.260881 68 1 84
-0.591573 -0.166899 0.086374 68 1 84
-0.658138 -0.264022 0.436604 56 87 140
0.050081 0.041682 -0.337007 40 122 142
0.558347 -0.053552 0.080709 68 1 84
-0.143788 0.582832 -0.204241 68 1 84
-0.580302 -0.327361 0.046409 68 1 84
-0.573794 0.070031 0.580436 30 154 137
-0.654825 -0.228713 0.297145 69 52 127
-0.644384 -0.104949 0.440522 38 172 129
0.500646 -0.504031 -0.064647 68 1 84
-0.371182 0.284085 -0.074130 71 24 106
0.655287 -0.211868 0.373295 36 134 141
-0.614377 -0.467116 0.134152 68 1 84
0.417177 -0.382766 -0.109149 68 1 84
-0.647428 -0.163750 0.568991 33 142 140
-0.247265 0.491183 -0.129655 68 1 84
-0.327935 0.444028 -0.054463 68 1 84
-0.658200 -0.219344 0.445739 34 139 141
0.037334 0.457998 -0.259309 68 1 84
-0.220265 0.089922 -0.188310 70 12 95
0.068244 -0.324522 -0.192652 68 1 84
0.036245 -0.182733 -0.379530 47 179 123
0.481290 0.095528 -0.008081 68 1 84
-0.004130 -0.223356 -0.394902 73 193 109
0.362318 -0.161397 -0.130539 68 1 84
-0.178778 0.076490 -0.205444 64 68 135
-0.619679 -0.176211 0.163576 68 1 84
-0.634823 -0.253392 0.205638 68 1 84
0.015993 0.477508 -0.267742 68 1 84
0.158708 -0.367039 -0.155945 68 1 84
0.472604 -0.208964 -0.057393 68 1 84
-0.043977 -0.187949 -0.408771 159 217 56
-0.486212 0.256950 0.093953 72 34 115
0.378997 -0.295782 -0.096703 68 1 84
-0.118150 0.084576 -0.261153 48 104 141
0.636572 -0.094070 0.484882 121 209 81
0.132945 -0.199805 -0.231733 68 1 84
0.506108 -0.093491 -0.031711 68 1 84
0.607188 0.110847 0.408941 57 84 139
-0.181103 0.057254 -0.198431 72 34 115
-0.659720 -0.190777 0.390304 42 118 142
0.012850 0.079699 -0.347705 48 104 141
-0.566579 0.129885 0.463050 107 205 89
-0.445338 0.456820 0.273761 57 84 139
-0.352199 0.023226 -0.160733 71 24 106
-0.652351 -0.160568 0.520856 41 175 127
0.229157 -0.166571 -0.184974 68 1 84
-0.634197 -0.176132 0.220530 72 34 115
0.250536 -0.400075 -0.225598 68 1 84
-0.411222 0.488506 0.282009 70 12 95
0.613959 -0.062763 0.290194 63 69 135
-0.568088 0.132066 0.435242 66 190 113
0.574512 0.122412 0.206624 69 8 91
0.267423 0.243144 -0.170186 68 1 84
-0.647354 -0.133953 0.494632 64 189 114
-0.653718 -0.280652 0.479991 38 128 142
0.592983 -0.289290 0.130901 68 1 84
-0.400534 0.021609 -0.132591 68 1 84
-0.488863 -0.086610 -0.050445 68 1 84
0.120650 -0.277624 -0.163842 68 1 84
-0.411775 0.296647 -0.006756 68 1 84
0.651975 -0.529323 0.483193 69 5 88
-0.490834 0.040095 -0.033991 68 1 84
0.347957 -0.479029 -0.257574 68 1 84
0.457562 0.442373 0.269173 68 1 84
-0.660322 -0.204910 0.402507 42 119 142
-0.546101 0.218124 0.467091 66 190 113
-0.154018 -0.343866 -0.161528 68 1 84
-0.531945 -0.060521 -0.001969 70 9 92
-0.488869 -0.293989 -0.032637 68 1 84
-0.392045 -0.262371 -0.108778 68 1 84
-0.584436 -0.379156 0.033329 68 1 84
0.660777 -0.251489 0.496379 40 122 142
0.414788 -0.083877 -0.121105 68 1 84
0.441222 0.456674 0.183530 68 1 84
-0.559191 -0.082253 0.036777 68 1 84
0.195319 0.496966 -0.207705 68 1 84
0.530426 -0.423397 0.022152 68 1 84
-0.518777 0.069322 0.032990 71 38 118
0.654568 -0.272787 0.396210 43 115 142
0.340659 -0.114690 -0.156517 68 1 84
-0.257093 0.285059 -0.152100 68 1 84
-0.582646 0.076025 0.446191 36 134 141
0.283692 0.019569 -0.191342 68 1 84
0.022472 -0.105317 -0.416077 68 190 112
0.618290 0.030383 0.400129 34 137 141
-0.346398 -0.333700 -0.127711 68 1 84
-0.156139 -0.352439 -0.166591 68 1 84
0.546645 -0.134574 0.023938 68 1 84
-0.155504 0.562807 -0.205037 68 1 84
0.057576 0.236460 -0.278679 68 1 84
0.345333 0.491584 -0.019205 68 1 84
-0.380314 0.512892 0.258087 68 1 84
0.244847 0.508604 -0.161224 68 1 84
0.173428 0.058159 -0.209299 68 1 84
0.573105 0.076142 0.187427 69 50 127
-0.629850 -0.151569 0.216144 72 26 108
-0.044171 0.008190 -0.473926 173 220 48
-0.568234 -0.480853 -0.064800 68 1 84
0.449884 0.395446 0.081536 68 1 84
0.429907 0.013780 -0.104504 68 1 84
-0.497788 -0.387976 -0.147670 69 54 129
0.532154 -0.491539 0.039397 68 1 84
-0.078922 0.041226 -0.315116 36 133 141
-0.672418 -0.466491 0.317759 68 1 84
0.016579 0.065002 -0.454932 40 174 127
-0.465830 -0.336278 -0.092392 68 1 84
0.030292 0.081779 -0.309132 69 54 129
0.226167 0.419118 -0.181125 68 1 84
-0.502541 0.172764 0.074294 70 12 95
0.401819 0.496834 0.203906 68 1 84
-0.388018 -0.000515 -0.141351 68 2 85
-0.411827 0.048110 -0.121233 68 1 84
-0.400401 0.497343 0.314933 68 1 84
-0.165103 0.376747 -0.206645 68 1 84
-0.546934 -0.393273 -0.095777 68 1 84
0.610909 -0.322720 0.193022 68 1 84
-0.563548 -0.286750 0.035503 68 1 84
-0.618413 -0.412273 0.157533 68 1 84
0.640197 -0.016086 0.513777 46 178 124
0.611844 0.044216 0.359574 48 103 141
0.567381 -0.417778 0.103550 68 1 84
0.460971 0.267001 0.028379 68 1 84
-0.152599 0.331220 -0.225706 65 65 134
0.111539 -0.396664 -0.232825 68 1 84
-0.163306 -0.210319 -0.211072 68 1 84
-0.541366 0.245760 0.449107 32 165 133
-0.024060 0.592505 -0.245621 68 1 84
0.638478 -0.116462 0.492193 43 177 125
0.093077 0.281549 -0.262689 68 1 84
-0.393343 0.437170 0.057762 68 1 84
-0.234731 -0.262870 -0.136726 68 1 84
0.629763 0.015443 0.547683 42 117 142
-0.471184 -0.325824 -0.074727 68 1 84
0.095234 -0.031274 -0.378260 49 102 141
-0.636040 -0.091137 0.346672 46 108 142
0.585544 -0.456762 0.165357 68 1 84
0.122778 0.036042 -0.279765 70 45 124
-0.539623 0.274448 0.393702 44 177 125
0.514796 0.274419 0.123031 68 1 84
0.322492 0.094759 -0.157326 68 1 84
-0.013742 -0.227341 -0.395731 96 201 96
0.627702 -0.368577 0.273287 68 1 84
-0.589556 0.037790 0.292495 36 134 141
0.254488 -0.060402 -0.209739 68 1 84
-0.455982 -0.244689 -0.049923 68 1 84
-0.340480 0.254750 -0.113106 68 1 84
0.225926 0.037059 -0.192258 68 1 84
0.115223 -0.330219 -0.147267 68 1 84
-0.102504 0.530261 -0.244166 68 1 84
-0.338645 0.257769 -0.114497 68 1 84
-0.636768 -0.204501 0.219877 68 1 84
-0.177859 -0.283019 -0.144763 68 1 84
0.630239 -0.454994 0.408231 58 82 139
0.175474 0.575468 -0.204781 68 1 84
-0.596951 -0.340649 0.095938 68 1 84
0.030384 -0.030489 -0.441251 35 169 130
-0.164137 0.344399 -0.214510 70 9 92
-0.144074 0.151704 -0.259168 40 122 142
-0.455751 0.447995 0.319411 49 100 141
0.207603 -0.214871 -0.164251 68 1 84
0.480939 0.114905 0.000185 68 1 84
0.258137 -0.072990 -0.207903 68 1 84
0.127725 0.334514 -0.239586 68 1 84
-0.422831 -0.254139 -0.080018 68 1 84
0.271158 0.562486 -0.070881 68 1 84
0.532194 -0.138002 0.000110 68 1 84
0.041036 0.066978 -0.307888 64 68 135
0.186851 0.029721 -0.199070 68 1 84
-0.344073 0.261526 -0.109121 68 1 84
0.088602 -0.124591 -0.316052 60 78 138
-0.709903 -0.483667 0.494394 68 1 84
0.560084 0.097393 0.155495 68 1 84
-0.175559 0.114810 -0.224925 44 113 142
0.104070 0.397083 -0.226075 68 1 84
0.167302 0.575618 -0.210071 68 1 84
-0.648404 -0.137843 0.493450 62 188 115
-0.105762 -0.349839 -0.271796 68 1 84
-0.538928 0.132878 0.150003 72 30 112
0.653944 -0.235196 0.445661 34 138 141
0.238151 -0.109713 -0.207575 68 1 84
-0.638327 -0.233042 0.219036 72 35 116
0.549063 0.313447 0.388043 72 28 110
-0.046583 0.091393 -0.420420 68 190 112
-0.193249 0.139634 -0.221069 55 89 140
-0.660045 -0.199430 0.368759 46 107 142
-0.412639 -0.436325 -0.232580 48 103 141
-0.329038 0.371750 -0.091488 68 1 84
0.645955 -0.147469 0.367534 55 88 140
0.642188 -0.018196 0.517349 59 186 117
-0.512652 0.165230 0.094392 71 22 105
0.499099 0.388997 0.383081 68 1 84
0.374903 -0.334061 -0.094614 68 1 84
0.351541 0.414258 -0.073667 68 1 84
-0.470655 -0.297985 -0.046221 68 1 84
-0.137143 -0.285669 -0.171810 68 1 84
-0.508675 0.205914 0.112684 71 39 119
0.340743 0.457166 -0.062252 68 1 84
0.527293 -0.495182 0.027570 68 1 84
-0.160475 -0.298281 -0.147825 68 1 84
0.413445 -0.470107 -0.213460 68 1 84
-0.532827 -0.065176 -0.001534 70 12 95
-0.377239 0.424082 0.011781 68 1 84
0.171609 0.099290 -0.226065 68 1 84
0.499551 -0.135688 -0.042111 68 1 84
0.634154 -0.313628 0.286410 71 22 105
-0.598565 0.029868 0.414641 31 149 139
-0.279056 0.344771 -0.138873 68 1 84
0.469706 -0.147231 -0.069695 68 1 84
-0.078437 -0.307927 -0.334013 37 131 141
0.388416 0.383839 -0.037843 68 1 84
0.163125 -0.206877 -0.194847 68 1 84
-0.674455 -0.311619 0.293161 56 87 140
0.232396 0.398835 -0.177946 68 1 84
0.119385 0.499028 -0.248709 68 1 84
-0.356694 0.318286 -0.083122 68 1 84
0.236984 0.536029 -0.162492 68 1 84
-0.570264 0.070503 0.220927 59 81 138
0.004288 0.061132 -0.461140 87 198 101
0.585610 0.045596 0.218779 71 44 123
0.137495 0.028519 -0.309678 70 45 124
0.547194 0.264521 0.200791 68 1 84
0.083158 0.041165 -0.271810 71 21 103
0.260950 0.070938 -0.180120 68 1 84
-0.435739 0.408913 0.117883 68 1 84
0.263431 -0.395743 -0.223796 68 1 84
0.478257 0.348963 0.100058 68 1 84
0.577436 0.188746 0.252455 68 1 84
0.144098 -0.416938 -0.269353 68 1 84
0.518880 -0.459482 -0.008567 68 1 84
-0.635451 -0.101186 0.539199 39 173 128
0.593231 -0.106739 0.172823 68 1 84
-0.348699 0.435038 -0.029099 68 1 84
-0.011913 0.463007 -0.259867 68 1 84
0.055439 0.560513 -0.262689 68 1 84
0.463733 0.067561 -0.044980 68 1 84
0.039348 -0.300422 -0.301479 61 76 137
-0.478763 0.415650 0.386940 47 105 141
0.064661 0.231908 -0.283324 68 2 85
-0.678559 -0.322413 0.359963 42 117 142
-0.140243 -0.109295 -0.288327 35 135 141
-0.187066 -0.302417 -0.137666 68 1 84
-0.650271 -0.205531 0.277031 68 1 84
-0.007906 0.637362 -0.180908 68 1 84
0.418523 -0.112938 -0.112857 68 1 84
0.345122 0.445334 -0.064105 68 1 84
0.346094 0.223782 -0.123810 68 1 84
-0.081969 -0.060802 -0.431997 157 217 58
-0.592257 0.042255 0.461006 31 163 134
-0.625202 -0.100018 0.240407 71 39 119
0.591292 -0.263748 0.121211 68 1 84
-0.139203 -0.076739 -0.306525 43 116 142
0.464530 0.435331 0.245244 68 1 84
0.468892 0.430127 0.276379 68 1 84
-0.051315 -0.129151 -0.425848 199 224 31
0.590738 0.101684 0.265709 69 50 127
0.308082 0.539161 -0.020820 68 1 84
-0.674221 -0.316315 0.426119 42 117 142
0.567878 0.263092 0.494797 72 35 116
0.174696 -0.362857 -0.149039 68 1 84
0.138907 0.369712 -0.223050 68 1 84
0.517196 -0.042919 -0.005007 68 1 84
-0.594084 -0.038971 0.171452 68 1 84
-0.059135 0.406043 -0.229056 68 1 84
0.318986 0.137378 -0.148191 68 1 84
0.076860 0.616396 -0.214497 68 1 84
0.482536 0.286468 0.068608 68 1 84
-0.145504 0.060331 -0.231688 71 17 99
-0.528885 0.258230 0.513193 112 206 86
-0.458411 0.384868 0.143989 68 1 84
0.014336 0.374424 -0.233828 68 1 84
0.610580 0.038238 0.342928 46 109 142
0.633572 -0.066356 0.423211 31 162 134
-0.545334 0.025573 0.066384 68 3 87
0.649576 -0.450440 0.485015 60 78 138
-0.191883 0.349118 -0.193056 68 2 85
-0.562994 0.153969 0.291710 42 119 142
0.134622 -0.312850 -0.147185 68 1 84
0.191785 -0.419161 -0.241720 68 1 84
0.644338 -0.182120 0.467746 31 148 139
0.577591 -0.541035 0.167483 68 1 84
0.004542 -0.161287 -0.412031 114 207 85
-0.378537 0.500705 0.132439 68 1 84
0.227260 0.194800 -0.202861 68 1 84
0.647613 -0.507583 0.445110 59 81 138
-0.665288 -0.285345 0.419545 56 86 139
-0.080973 -0.017729 -0.451690 220 226 24
0.026255 -0.031695 -0.443823 44 177 125
-0.110839 -0.282478 -0.256418 69 6 90
-0.334979 0.188653 -0.127020 68 1 84
-0.043705 0.257973 -0.272592 68 1 84
-0.651071 -0.164528 0.306954 57 85 139
0.390369 0.460796 0.032668 68 1 84
-0.578059 -0.359895 0.017169 68 1 84
0.251708 0.538174 -0.139434 68 1 84
-0.545509 0.222099 0.464042 71 192 110
-0.332867 -0.186404 -0.110263 68 1 84
0.270263 0.559095 -0.080356 68 1 84
0.464898 0.073795 -0.040931 68 1 84
-0.138974 0.062550 -0.238741 72 33 114
-0.661757 -0.270083 0.419642 53 92 140
0.636760 -0.455176 0.437301 46 107 142
-0.604758 -0.374478 0.114867 68 1 84
-0.565055 0.091869 0.218621 55 89 140
0.314445 0.557035 0.070325 68 1 84
0.310058 -0.480112 -0.279410 68 1 84
0.270679 0.106760 -0.175713 68 1 84
-0.045333 -0.178216 -0.411773 165 218 53
0.562152 0.286999 0.329300 71 21 103
-0.449479 0.405585 0.148680 68 1 84
0.423376 0.445891 0.083877 68 1 84
-0.687591 -0.457883 0.386542 69 5 88
0.630571 -0.389274 0.329443 68 1 84
0.383427 0.005994 -0.147459 68 1 84
-0.588999 0.054322 0.343861 31 149 139
0.352403 0.533435 0.119001 68 1 84
-0.459832 -0.020315 -0.082421 68 1 84
-0.561156 -0.005081 0.081942 71 37 117
-0.630563 -0.304807 0.199431 68 1 84
-0.611991 -0.040154 0.275084 68 57 130
0.286492 -0.008583 -0.195887 68 1 84
-0.435884 0.234919 -0.002431 68 1 84
-0.344152 0.293797 -0.103735 68 1 84
0.512335 0.012587 0.006790 68 1 84
0.380346 -0.547222 -0.241588 68 1 84
-0.098158 0.462860 -0.236836 68 1 84
0.461944 0.436794 0.317052 68 1 84
-0.673758 -0.308121 0.347590 44 112 142
-0.432166 0.065228 -0.098747 70 9 92
-0.616580 -0.049745 0.516679 31 162 134
0.346551 0.466728 -0.045921 68 1 84
0.259988 0.444480 -0.155887 68 1 84
0.020466 -0.163184 -0.400960 85 198 102
0.364370 0.458337 -0.021465 68 1 84
-0.580996 0.087439 0.411699 32 143 140
-0.602942 0.013731 0.456154 34 167 132
0.575081 0.039035 0.181188 70 12 95
0.382239 -0.425530 -0.196508 68 1 84
-0.145683 -0.430404 -0.324442 39 125 142
0.125043 -0.177032 -0.258094 71 42 121
-0.442856 0.352187 0.076013 69 5 88
0.071960 -0.304448 -0.193856 68 1 84
-0.433542 -0.037383 -0.104432 72 32 113
0.401008 0.119382 -0.098576 68 1 84
-0.058069 0.094033 -0.304773 45 110 142
0.037463 0.628616 -0.197186 68 1 84
-0.288410 0.192879 -0.159947 69 5 88
0.624828 -0.289684 0.231468 71 17 99
0.406739 -0.262846 -0.078887 68 1 84
-0.463993 -0.171385 -0.055249 68 1 84
0.056758 0.041829 -0.434191 30 152 138
0.087079 -0.220691 -0.284152 58 82 139
0.146400 -0.271143 -0.158845 68 1 84
0.372404 -0.524332 -0.250800 71 17 99
0.508944 0.381121 0.282135 68 1 84
-0.338219 0.143448 -0.137329 71 24 106
0.070084 0.039705 -0.416124 44 114 142
-0.363658 -0.356988 -0.175805 68 1 84
-0.485157 0.365552 0.194092 71 22 105
0.628240 -0.425645 0.413427 72 26 108
-0.498316 0.323152 0.529657 47 106 141
-0.513778 0.347888 0.296291 40 122 142
-0.659410 -0.271910 0.432924 57 84 139
0.631944 -0.362985 0.354889 71 39 119
0.390814 -0.213516 -0.099397 68 1 84
0.468765 -0.261753 -0.041129 68 1 84
-0.420578 0.199267 -0.045462 68 1 84
-0.271133 0.583285 0.120093 68 1 84
-0.635718 -0.140664 0.248779 69 53 128
0.550912 -0.439227 0.071248 68 1 84
-0.181087 0.027703 -0.275231 66 190 113
0.067876 -0.124306 -0.352018 44 114 142
-0.633155 -0.396067 0.211515 68 1 84
0.583872 0.187782 0.285560 68 1 84
-0.496142 0.354952 0.216266 68 55 129
-0.546628 0.078196 0.126222 68 1 84
0.265002 0.232007 -0.175720 68 1 84
0.585683 -0.527903 0.186586 68 1 84
-0.282408 -0.384272 -0.204825 68 1 84
0.618549 -0.092377 0.288871 71 24 106
-0.601217 -0.345346 0.109150 68 1 84
-0.518179 0.304502 0.487084 83 197 103
-0.565411 0.154433 0.398404 30 153 138
0.299549 0.194801 -0.163746 68 1 84
0.172995 0.369334 -0.209703 68 1 84
0.067888 0.048447 -0.356032 41 121 142
-0.353919 0.427050 -0.027010 68 1 84
0.259179 -0.386069 -0.211229 69 6 90
0.631156 -0.058156 0.441745 46 178 124
0.359655 -0.399470 -0.168523 68 1 84
-0.499319 -0.224364 -0.020328 68 1 84
0.531744 -0.436758 0.025813 68 1 84
-0.320569 -0.504290 -0.309859 30 151 138
-0.092258 0.010560 -0.449072 170 219 50
-0.510643 0.362786 0.355238 30 155 137
-0.317337 0.552563 0.145069 68 1 84
-0.110374 -0.329315 -0.233655 68 1 84
-0.417549 -0.324546 -0.108717 68 1 84
0.512388 -0.070535 -0.019008 68 1 84
-0.561908 -0.431794 -0.087277 68 1 84
-0.386601 0.347924 -0.027523 68 1 84
-0.108381 -0.282651 -0.267960 70 12 95
-0.194068 0.465473 -0.184271 68 1 84
-0.088536 -0.134742 -0.392328 121 209 81
-0.404096 -0.043316 -0.124663 68 1 84
0.645867 -0.418913 0.477758 57 85 139
0.628773 -0.362178 0.296841 68 1 84
0.639306 -0.132752 0.488197 31 150 139
0.070373 -0.387207 -0.269118 68 1 84
0.013381 0.362296 -0.239258 68 1 84
0.589994 0.011962 0.222888 69 50 127
0.482397 -0.488565 -0.126156 68 1 84
-0.145430 -0.188531 -0.261254 56 87 140
0.451107 0.139813 -0.032454 68 1 84
-0.674808 -0.413095 0.337005 70 12 95
-0.057552 0.270285 -0.266615 68 1 84
0.503873 0.303592 0.118959 68 1 84
0.619992 -0.479318 0.287330 68 1 84
0.331647 -0.062269 -0.176435 68 1 84
-0.328941 0.545986 0.185083 68 1 84
0.335055 -0.097651 -0.165179 68 1 84
-0.465512 -0.339019 -0.096636 68 1 84
-0.087959 -0.207280 -0.367985 32 164 133
-0.298450 0.565065 0.120577 68 1 84
0.267408 -0.101947 -0.197567 68 1 84
0.560563 0.291037 0.374149 71 44 123
0.295886 0.023818 -0.186951 68 1 84
0.473751 -0.074464 -0.066362 68 1 84
0.657022 -0.219292 0.407441 42 119 142
-0.638610 -0.429918 0.220208 68 1 84
-0.480761 0.283158 0.099745 71 21 103
-0.483413 -0.252136 -0.027503 68 1 84
-0.675838 -0.326336 0.286614 63 69 135
0.007455 -0.307284 -0.341595 38 129 142
-0.056309 0.641806 -0.173746 68 1 84
-0.133610 0.156010 -0.266528 34 139 141
-0.409073 0.284544 -0.016640 68 1 84
-0.531342 0.127797 0.120726 71 22 105
0.149006 0.419786 -0.218847 68 1 84
0.503955 0.198991 0.067508 68 1 84
0.188901 -0.076970 -0.225968 68 1 84
0.321923 -0.138671 -0.155340 68 1 84
-0.352028 0.479252 0.022248 68 1 84
0.224943 0.234312 -0.182633 68 1 84
-0.356136 -0.205484 -0.103417 68 1 84
-0.664033 -0.267998 0.396788 52 94 141
0.207949 0.605888 -0.138743 68 1 84
0.133604 -0.317670 -0.144932 68 1 84
-0.491620 0.192868 0.064437 70 11 94
-0.230492 0.564776 -0.111216 68 1 84
-0.020206 -0.283557 -0.368148 40 174 127
0.029103 0.624232 -0.207650 68 1 84
-0.486311 -0.195490 -0.036690 68 1 84
0.073047 0.072717 -0.279949 71 44 123
-0.194399 0.155036 -0.224067 30 155 137
0.214519 0.000263 -0.202330 68 1 84
0.643348 -0.477255 0.444424 40 123 142
0.417925 0.480497 0.196237 68 1 84
-0.426923 0.212102 -0.029303 71 15 98
-0.619843 -0.100710 0.210319 68 1 84
0.377267 -0.018493 -0.153603 68 1 84
-0.073310 0.642435 -0.170347 68 1 84
0.505432 0.379749 0.388378 68 1 84
-0.016730 0.028216 -0.473715 79 195 105
0.406745 0.275202 -0.051216 68 1 84
0.524186 0.355779 0.369339 71 39 119
-0.317721 0.118039 -0.152811 68 1 84
0.541828 0.116253 0.114967 70 9 92
-0.678396 -0.430236 0.352302 72 33 114
0.028583 0.057078 -0.337009 50 98 141
-0.239429 0.600393 0.079119 68 1 84
0.258749 0.343704 -0.165641 68 1 84
-0.312586 0.219143 -0.139869 71 17 99
0.203785 0.604437 -0.148623 68 1 84
0.582843 0.233897 0.462436 57 84 139
-0.656693 -0.170569 0.431596 32 145 140
-0.579089 0.094390 0.344443 32 143 140
-0.585490 -0.435152 0.014362 68 1 84
0.328093 0.164394 -0.139803 68 1 84
-0.582779 -0.076790 0.087158 71 20 102
-0.148269 -0.363478 -0.189928 68 1 84
-0.267325 0.359005 -0.143212 68 1 84
0.101345 0.285123 -0.260768 68 1 84
-0.175136 0.449471 -0.197462 68 1 84
-0.557816 0.146023 0.525536 31 163 134
-0.452409 -0.197948 -0.056457 68 1 84
0.236081 0.599544 -0.053712 68 1 84
0.066482 0.606920 -0.227679 68 1 84
-0.106845 -0.244254 -0.316770 39 126 142
-0.232364 0.582208 -0.076681 68 1 84
-0.161519 -0.073986 -0.252781 37 130 142
0.408414 0.475644 0.101090 68 1 84
0.578592 0.242210 0.362315 70 11 94
-0.444306 -0.251188 -0.059451 68 1 84
0.619984 -0.283909 0.212804 68 1 84
0.203992 0.618488 -0.104462 68 1 84
-0.518427 0.009148 -0.002546 69 52 127
-0.251996 -0.095972 -0.188264 64 68 135
-0.232535 -0.072217 -0.201481 62 73 137
0.330828 -0.343197 -0.126269 68 1 84
0.119113 -0.089018 -0.287920 70 11 94
-0.529839 0.309582 0.385456 33 167 132
0.070839 0.103036 -0.285306 70 47 124
0.622345 -0.171325 0.245825 72 35 116
0.521742 -0.533562 0.018985 68 1 84
-0.656421 -0.182148 0.459361 40 122 142
-0.545733 0.209481 0.491906 44 177 125
-0.186029 -0.157468 -0.216506 71 40 120
-0.551897 0.172579 0.519422 31 146 140
0.213796 0.021013 -0.195879 68 1 84
0.161766 -0.426092 -0.286524 69 50 127
0.347237 0.536447 0.109864 68 1 84
0.226854 0.054406 -0.190262 68 1 84
0.600177 0.150465 0.387981 72 33 114
0.554605 0.270833 0.233905 68 1 84
0.093973 0.426128 -0.234793 68 1 84
-0.620022 -0.441556 0.162215 68 1 84
-0.315987 -0.005622 -0.175729 67 59 131
0.111541 -0.058813 -0.329456 63 69 135
0.644136 -0.103990 0.517004 98 202 95
-0.598845 -0.480401 0.073065 68 1 84
-0.117862 -0.035422 -0.400224 151 216 62
-0.274358 -0.355335 -0.149809 68 1 84
0.576484 -0.438310 0.126187 68 1 84
-0.627638 -0.075457 0.307664 47 106 141
0.479216 -0.353626 -0.025299 68 1 84
0.479448 0.349502 0.102986 68 1 84
0.031381 0.079298 -0.309643 67 58 131
0.552070 0.086039 0.131050 68 1 84
0.470050 0.019881 -0.052278 68 1 84
0.423053 -0.308912 -0.057934 68 1 84
-0.273308 -0.419308 -0.246703 70 11 94
0.432991 0.298679 -0.004022 68 1 84
0.297852 -0.269528 -0.141547 68 1 84
0.471908 0.037965 -0.044166 68 1 84
0.278747 -0.224155 -0.140091 68 1 84
0.173718 -0.290122 -0.151984 68 1 84
0.348352 0.166634 -0.125222 68 1 84
0.213161 0.277674 -0.177918 68 1 84
-0.435157 0.388818 0.092548 68 1 84
-0.533155 0.302192 0.358908 33 141 140
0.180240 -0.483931 -0.337441 71 39 119
-0.636505 -0.220487 0.214604 69 6 90
-0.176110 -0.406289 -0.280289 72 35 116
-0.546424 0.189709 0.523712 36 170 130
-0.102548 -0.158429 -0.360854 144 214 67
-0.476597 0.359683 0.160240 70 11 94
-0.639140 -0.151941 0.254947 69 6 90
-0.357726 -0.329624 -0.124471 68 1 84
0.535814 -0.324798 0.036465 68 1 84
-0.007633 -0.011973 -0.467398 107 205 89
0.506316 0.249426 0.092818 68 1 84
0.365293 0.522801 0.124224 68 1 84
0.437906 0.460014 0.182111 68 1 84
0.090082 0.264488 -0.253768 68 1 84
-0.333654 0.168318 -0.132185 68 1 84
-0.500025 0.172010 0.067493 71 15 98
-0.106941 -0.320733 -0.243813 68 1 84
0.650092 -0.198216 0.489516 34 137 141
0.302556 -0.111180 -0.177018 68 1 84
-0.326516 0.390972 -0.084838 68 1 84
-0.644819 -0.130580 0.537666 37 171 129
-0.091270 0.641331 -0.165378 68 1 84
-0.274143 0.387546 -0.131312 68 1 84
-0.462626 0.394722 0.168169 68 1 84
0.058569 -0.393596 -0.291371 68 1 84
0.127902 0.216881 -0.264125 68 1 84
0.643239 -0.311393 0.353562 42 118 142
-0.505243 0.127955 0.045768 72 29 111
-0.135804 -0.372707 -0.232961 68 1 84
0.322676 -0.500435 -0.280980 68 1 84
-0.607214 -0.070979 0.182983 70 14 97
0.645693 -0.074788 0.508715 81 196 104
0.084669 0.190993 -0.294256 68 1 84
0.636043 -0.109880 0.467939 75 194 108
0.409176 0.106858 -0.095838 68 1 84
-0.461696 0.347791 0.110603 68 1 84
0.198782 0.375312 -0.197042 68 1 84
-0.259107 -0.375765 -0.188334 68 1 84
-0.070115 0.058491 -0.307302 39 124 142
0.436632 -0.142040 -0.095107 68 1 84
0.173741 0.034041 -0.202010 68 1 84
-0.128488 -0.237934 -0.257474 71 39 119
0.527621 -0.458083 0.018516 68 1 84
-0.485959 0.360584 0.506661 48 103 141
0.130883 0.302288 -0.247555 68 1 84
-0.660381 -0.459038 0.264996 68 1 84
-0.370614 -0.375036 -0.197012 68 1 84
0.397744 -0.263139 -0.084101 68 1 84
0.068369 0.407528 -0.232062 68 1 84
-0.286694 0.167675 -0.160103 68 1 84
0.521964 -0.456133 0.001632 68 1 84
0.491724 -0.437562 -0.082959 68 1 84
0.026575 -0.192120 -0.386890 77 194 107
0.353900 -0.296237 -0.115809 68 1 84
-0.531668 -0.371551 -0.096190 68 1 84
-0.145034 0.262804 -0.220224 68 1 84
0.213254 0.243479 -0.177893 68 1 84
-0.230801 -0.378434 -0.180014 68 1 84
0.202535 -0.046343 -0.216482 68 1 84
0.136906 0.529169 -0.240612 68 1 84
-0.655206 -0.185196 0.502910 44 177 125
-0.577289 0.038931 0.218235 69 52 127
0.569842 0.024189 0.158433 68 1 84
0.651712 -0.341931 0.530528 72 30 112
-0.572846 0.117914 0.416713 34 139 141
-0.264411 -0.339522 -0.135912 68 1 84
0.614439 -0.153521 0.224908 71 37 117
0.604494 0.037561 0.304119 45 110 142
-0.302296 -0.121792 -0.149040 68 1 84
0.550653 0.312838 0.351406 70 9 92
0.003247 0.094824 -0.370273 44 113 142
0.227761 0.288852 -0.173979 68 1 84
0.059998 0.509068 -0.269918 68 1 84
0.215185 0.612905 -0.079424 68 1 84
-0.074233 0.474318 -0.250700 68 1 84
-0.083790 0.293618 -0.269550 60 77 138
-0.543384 -0.169324 0.010743 68 1 84
-0.364163 0.521289 0.225642 68 1 84
0.574773 -0.057424 0.134656 68 1 84
0.360481 0.503010 0.032257 68 1 84
-0.581399 0.086631 0.361479 31 162 134
0.516340 -0.393082 0.001195 68 1 84
-0.537254 0.126419 0.138957 69 6 90
-0.138004 -0.119726 -0.292148 31 150 139
0.582038 -0.483391 0.169550 68 1 84
0.625314 -0.461686 0.293668 68 1 84
0.071141 -0.052463 -0.392471 34 139 141
0.624567 -0.097786 0.312129 60 77 138
0.064522 0.035432 -0.326890 38 127 142
0.119686 -0.229367 -0.218379 68 1 84
-0.536673 -0.415413 -0.131455 68 1 84
-0.097339 -0.172520 -0.365459 79 195 105
-0.499748 0.224166 0.102947 71 38 118
0.647768 -0.454421 0.466512 43 115 142
0.193752 0.580002 -0.187928 68 1 84
0.183294 0.244506 -0.197365 68 1 84
0.121869 0.127966 -0.263171 68 1 84
-0.391505 0.286795 -0.043491 68 1 84
0.570852 0.222217 0.249996 68 1 84
0.420723 0.456118 0.094673 68 1 84
-0.129703 -0.336655 -0.184375 68 1 84
0.072315 0.497481 -0.265861 68 1 84
0.497024 0.306407 0.106465 68 1 84
0.282202 0.488918 -0.121690 68 1 84
-0.171615 -0.003564 -0.311241 73 193 109
-0.378017 0.432992 0.021720 68 1 84
0.170778 0.315016 -0.220016 68 1 84
0.014453 0.640934 -0.172129 68 1 84
-0.073514 0.456898 -0.243982 68 1 84
-0.422533 -0.495001 -0.255829 70 49 126
0.278604 0.357372 -0.152012 68 1 84
0.229828 -0.144040 -0.197334 68 1 84
-0.212820 0.611939 0.000082 68 1 84
0.653812 -0.205953 0.366508 38 129 142
-0.223407 0.597087 -0.053827 68 1 84
-0.182041 -0.232067 -0.161987 68 1 84
0.430602 0.036616 -0.097926 68 1 84
-0.651422 -0.150952 0.485516 56 185 118
-0.355879 -0.446390 -0.266682 46 109 142
-0.069045 0.406117 -0.228235 68 1 84
0.580123 0.038284 0.197074 71 15 98
-0.086196 0.068677 -0.427934 141 214 68
-0.307302 -0.186987 -0.118824 68 1 84
-0.496013 -0.284318 -0.022580 68 1 84
-0.024611 0.557080 -0.267253 68 1 84
-0.555634 0.207920 0.362983 33 141 140
0.187661 0.339291 -0.206167 68 1 84
0.106965 0.168634 -0.278062 68 1 84
0.018479 0.011260 -0.463472 50 181 122
-0.246560 0.590268 0.015359 68 1 84
-0.558291 0.058334 0.149669 70 12 95
-0.071813 0.041341 -0.324825 38 128 142
0.212954 -0.101664 -0.219583 68 1 84
-0.519810 0.332604 0.401055 39 173 128
-0.659840 -0.199330 0.409503 40 122 142
0.375435 -0.293715 -0.099180 68 1 84
-0.143822 -0.057238 -0.322006 41 175 127
-0.570585 0.099471 0.514774 64 189 114
-0.443547 0.313004 0.052618 68 1 84
-0.007120 0.032530 -0.472513 96 201 96
-0.574515 -0.435151 -0.044187 68 1 84
-0.456666 -0.194650 -0.054698 68 1 84
-0.530457 -0.234138 0.007618 68 1 84
-0.533574 0.284218 0.288335 33 142 140
-0.457816 0.430779 0.432731 70 45 124
0.571658 0.032917 0.167539 69 6 90
-0.607471 -0.080601 0.171343 68 1 84
0.296361 -0.082269 -0.189523 68 1 84
-0.083914 0.270280 -0.258289 72 26 108
0.478477 0.123387 0.000176 68 1 84
0.126060 0.256457 -0.231086 68 1 84
-0.185084 -0.431295 -0.321537 44 112 142
0.044919 0.394595 -0.231284 68 1 84
-0.116573 -0.168182 -0.327979 46 178 124
0.514316 0.314243 0.151000 68 1 84
-0.372263 0.518657 0.251385 68 1 84
-0.314622 -0.459110 -0.303977 49 100 141
0.106255 -0.268606 -0.182764 68 1 84
-0.412851 -0.297711 -0.093123 68 1 84
0.080206 -0.317020 -0.174599 68 1 84
-0.502542 -0.027264 -0.034621 71 22 105
-0.363309 -0.116328 -0.118953 68 1 84
-0.223948 -0.359824 -0.150105 68 1 84
0.158784 0.618737 -0.172220 68 1 84
0.107124 0.012027 -0.373898 38 127 142
-0.177908 -0.014648 -0.218134 56 86 139
-0.087249 0.054580 -0.357124 36 170 130
0.652757 -0.494369 0.477067 62 72 136
0.630168 -0.418509 0.377848 68 1 84
0.191841 0.311786 -0.204419 68 1 84
-0.268674 -0.461119 -0.316484 41 121 142
0.418048 0.110681 -0.085522 68 1 84
0.538420 0.281435 0.189067 68 1 84
-0.455270 0.252447 0.038660 72 25 107
0.025030 0.062356 -0.336214 44 113 142
-0.588079 -0.347785 0.061504 68 1 84
0.297304 0.180688 -0.164856 68 1 84
-0.071260 -0.436924 -0.342593 44 114 142
-0.658164 -0.265171 0.280851 69 50 127
-0.212642 0.190366 -0.209676 46 109 142
0.627130 -0.031863 0.390956 35 137 141
-0.606678 -0.136817 0.130184 70 9 92
-0.505231 0.349543 0.243141 55 89 140
0.046626 0.017311 -0.447505 44 177 125
0.507196 0.368997 0.204444 68 1 84
0.063387 -0.310360 -0.209981 68 3 87
-0.121120 -0.380371 -0.272458 68 1 84
-0.047974 0.072995 -0.338258 35 135 141
-0.065118 0.627999 -0.200387 68 1 84
-0.601218 -0.008731 0.511067 85 198 102
-0.521223 0.094933 0.059844 70 47 124
0.167031 -0.207495 -0.191586 68 1 84
0.422573 -0.200911 -0.089283 68 1 84
-0.446249 0.455395 0.366617 70 11 94
0.047488 0.577391 -0.254123 68 1 84
-0.299565 0.536724 -0.004942 68 1 84
-0.170008 0.123641 -0.232626 47 105 141
0.210017 -0.434431 -0.267906 68 1 84
-0.548593 0.084504 0.140227 71 40 120
0.268509 0.407867 -0.153511 68 1 84
-0.107382 -0.293285 -0.259432 68 1 84
-0.315840 0.542638 0.056906 68 1 84
-0.602012 0.017936 0.392334 40 122 142
-0.002874 -0.314318 -0.344525 38 128 142
0.066148 0.050915 -0.286433 71 40 120
0.473737 0.415315 0.183469 68 1 84
0.028181 0.279854 -0.274001 68 1 84
0.629842 -0.262770 0.245296 70 9 92
0.183624 0.592126 -0.186377 68 1 84
-0.231227 0.268223 -0.159585 68 1 84
0.555038 -0.310672 0.059563 68 1 84
0.633828 0.005416 0.569455 69 54 129
-0.033116 0.265298 -0.269444 70 9 92
-0.272083 0.023859 -0.184456 71 39 119
-0.162727 0.555301 -0.201981 68 1 84
-0.637136 -0.185265 0.228998 70 14 97
-0.183201 -0.469940 -0.336762 36 132 141
-0.488704 0.024325 -0.042685 71 21 103
-0.140506 0.554767 -0.218081 68 1 84
-0.111543 0.056365 -0.400314 233 228 25
0.338892 0.252949 -0.129881 68 1 84
0.592238 0.199067 0.451677 71 22 105
0.569014 -0.404107 0.104275 68 1 84
0.466881 0.171558 0.004314 68 1 84
-0.479165 -0.380257 -0.149438 71 39 119
0.656723 -0.263744 0.427166 35 136 141
0.312658 0.031221 -0.179625 68 1 84
0.446279 -0.335610 -0.042132 68 1 84
-0.110130 -0.324171 -0.231721 68 1 84
0.120816 -0.349958 -0.150030 68 1 84
-0.370040 0.009284 -0.151881 71 22 105
-0.653771 -0.170112 0.506423 51 182 121
0.366699 0.088848 -0.136577 68 1 84
-0.375712 -0.223734 -0.100977 68 1 84
0.656658 -0.213027 0.384608 44 113 142
0.198167 -0.117482 -0.222724 68 1 84
-0.613302 -0.219138 0.137221 68 1 84
-0.166643 0.606641 -0.163973 68 1 84
0.514298 0.144968 0.067246 68 1 84
-0.611177 -0.164498 0.137940 68 1 84
0.030567 -0.176914 -0.387659 73 193 109
-0.649149 -0.130734 0.374812 45 111 142
-0.294860 0.331185 -0.132655 68 1 84
-0.655758 -0.309286 0.468997 43 116 142
-0.228177 0.126108 -0.191265 61 76 137
0.134126 0.127390 -0.255095 68 1 84
-0.097805 0.045568 -0.339361 32 144 140
-0.186856 0.055379 -0.195590 70 14 97
-0.620942 -0.245583 0.160466 68 1 84
0.554494 -0.318142 0.060464 68 1 84
0.435187 0.153960 -0.047519 68 1 84
0.474137 0.421473 0.213239 68 1 84
0.575890 -0.111955 0.097523 68 1 84
0.485934 0.407154 0.358842 68 1 84
0.530107 0.152469 0.101029 68 1 84
-0.565086 0.156915 0.326063 36 133 141
0.236096 -0.090062 -0.213515 68 1 84
-0.234490 -0.365457 -0.161894 68 1 84
-0.599508 -0.172239 0.104294 68 1 84
-0.199884 -0.141816 -0.209543 61 76 137
0.492110 -0.184748 -0.046139 68 1 84
0.452092 0.448810 0.287983 68 1 84
-0.333261 0.525009 0.058049 68 1 84
-0.620452 -0.298055 0.163760 68 1 84
0.284577 0.558525 -0.039961 68 1 84
-0.567727 -0.377273 -0.042600 68 1 84
-0.490841 0.060419 -0.025033 71 24 106
-0.183987 0.327018 -0.200589 71 15 98
0.617731 0.039763 0.411371 30 159 136
-0.397005 -0.019462 -0.134333 69 8 91
0.638683 -0.430991 0.447768 62 73 137
-0.308049 -0.195456 -0.117681 68 1 84
0.576456 0.236784 0.507284 68 1 84
0.595848 0.157018 0.338922 70 49 126
-0.220140 -0.064214 -0.205373 70 49 126
0.470850 -0.447259 -0.131374 68 1 84
0.291581 0.170041 -0.168314 68 1 84
0.497634 -0.287320 -0.009661 68 1 84
0.608421 -0.334381 0.187001 68 1 84
-0.018496 -0.218324 -0.399627 116 208 84
0.605654 -0.140472 0.198484 71 21 103
-0.319803 -0.220764 -0.118985 68 1 84
-0.493278 -0.244331 -0.020661 68 1 84
0.396523 -0.021504 -0.140404 68 1 84
-0.492398 0.390166 0.275029 46 109 142
0.087241 0.087779 -0.271598 71 40 120
-0.141221 0.040530 -0.374128 253 231 36
-0.006974 0.074080 -0.453009 66 190 113
-0.248371 0.395041 -0.149661 68 1 84
0.130341 -0.345836 -0.143159 68 1 84
-0.114060 0.130583 -0.278053 67 58 131
0.403860 0.352322 -0.029515 68 1 84
-0.560037 0.178445 0.313767 37 130 142
0.365045 0.206283 -0.106264 68 1 84
-0.338098 -0.202949 -0.108851 68 1 84
0.646639 -0.423148 0.501069 62 73 137
-0.588802 -0.396179 0.048711 68 1 84
-0.244298 -0.405632 -0.225237 68 1 84
-0.548344 0.185064 0.520730 42 176 126
0.363314 0.410737 -0.060296 68 1 84
0.264545 -0.336715 -0.144951 68 1 84
0.427918 0.381081 0.029390 68 1 84
0.098180 -0.156721 -0.296623 61 74 137
-0.458456 0.378992 0.136295 68 1 84
-0.268103 0.585105 0.119289 68 1 84
-0.386228 0.214871 -0.075894 68 1 84
-0.593225 -0.235815 0.092648 68 1 84
-0.555491 0.091897 0.175687 69 50 127
-0.217065 -0.411707 -0.269591 72 26 108
-0.044879 0.012722 -0.474622 141 214 68
0.505370 -0.261090 -0.012939 68 1 84
-0.684556 -0.488475 0.366427 72 25 107
-0.521048 -0.490974 -0.168539 68 1 84
0.455942 -0.478974 -0.170449 68 1 84
0.225852 -0.506828 -0.326322 64 68 135
-0.654027 -0.204249 0.543873 38 172 129
-0.383045 0.510957 0.283080 68 1 84
-0.253833 0.431579 -0.136652 68 1 84
-0.270362 0.176109 -0.172058 70 9 92
0.133628 -0.177153 -0.248068 71 42 121
0.129544 -0.331196 -0.141848 68 1 84
-0.315536 0.490644 -0.036101 68 1 84
-0.519857 0.305055 0.475700 103 204 92
-0.104461 0.532606 -0.242828 68 1 84
-0.111403 -0.115686 -0.359708 56 185 118
0.581859 0.217507 0.311425 71 22 105
-0.614783 -0.295618 0.147531 68 1 84
0.428769 -0.534812 -0.198180 68 1 84
0.561713 0.287976 0.327847 72 29 111
0.554115 0.194285 0.176187 68 1 84
0.087429 0.029817 -0.282839 70 48 125
-0.506592 0.324605 0.210598 49 101 141
0.532931 0.191766 0.120946 68 1 84
0.553724 0.208936 0.182594 68 1 84
-0.353803 -0.180658 -0.103021 68 1 84
-0.619454 -0.036839 0.362293 40 123 142
0.653464 -0.175591 0.389154 60 77 138
0.165090 -0.346762 -0.139676 68 1 84
0.495203 -0.006463 -0.026203 68 1 84
-0.635021 -0.227353 0.207711 69 8 91
0.146905 -0.196006 -0.218693 68 1 84
0.498297 0.388605 0.219295 68 1 84
0.517654 0.150774 0.075568 68 1 84
-0.080501 0.059292 -0.362982 48 180 122
0.560482 0.243911 0.228418 68 1 84
-0.346867 -0.454862 -0.281680 46 109 142
0.561676 0.288895 0.334904 71 22 105
-0.443819 0.459280 0.348681 70 48 125
0.563224 -0.113090 0.062312 68 1 84
0.647897 -0.226109 0.334221 51 97 141
0.305320 -0.218234 -0.132757 68 1 84
-0.346096 -0.352418 -0.149737 68 1 84
-0.472647 -0.324964 -0.072920 68 1 84
0.218443 0.500209 -0.190081 68 1 84
0.598887 -0.417783 0.194846 68 1 84
