ply
format ascii 1.0
element vertex 1246
property float x
property float y
property float z
property uchar red
property uchar green
property uchar blue
end_header
-0.271875 0.073383 -0.205146 68 1 84
0.361393 -0.404276 -0.221066 59 186 117
0.423228 0.418725 0.132075 98 202 95
0.524314 -0.340585 -0.032826 131 211 75
-0.301838 0.466286 -0.049074 71 42 121
0.639452 -0.437660 0.256562 56 86 139
0.311119 0.292172 -0.111529 42 118 142
0.335685 -0.269118 -0.152782 49 102 141
-0.466795 0.408757 0.237050 43 115 142
-0.097375 0.571691 -0.177845 68 1 84
-0.466191 -0.287386 -0.033188 33 140 141
-0.542496 0.059652 0.087874 33 142 140
0.083206 0.014111 -0.282242 68 1 84
0.587562 0.063703 0.281424 48 103 141
0.552997 -0.046652 0.046985 30 153 138
-0.553334 -0.006118 0.100868 33 166 133
-0.096064 0.528966 -0.202792 68 1 84
-0.590959 -0.014031 0.236215 39 126 142
-0.557012 -0.410643 0.155190 30 152 138
-0.591245 -0.261357 0.173537 53 92 140
-0.575677 0.223857 0.461975 49 100 141
-0.026500 -0.052589 -0.445538 68 1 84
0.597437 -0.215348 0.137496 44 113 142
-0.071083 -0.372115 -0.224221 72 33 114
0.591367 0.016912 0.243287 44 112 142
0.120853 0.348927 -0.200103 68 1 84
-0.177546 0.574323 -0.120045 68 1 84
0.571154 0.109280 0.508862 66 64 133
0.095316 -0.240453 -0.319169 68 1 84
-0.477341 -0.069195 -0.071743 34 139 141
-0.630169 -0.170380 0.382313 71 39 119
0.160038 0.035789 -0.211976 68 1 84
-0.116934 0.095127 -0.253151 68 1 84
-0.656039 -0.266891 0.445448 65 66 134
-0.616991 -0.451272 0.330840 71 38 118
0.113804 -0.165288 -0.305428 68 1 84
0.424630 0.024974 -0.132072 30 157 136
0.460822 -0.141015 -0.095921 31 148 139
0.107873 -0.167696 -0.317468 68 1 84
-0.581041 0.175338 0.420240 71 39 119
0.538955 0.186122 0.169318 49 102 141
-0.088149 0.101279 -0.271785 68 1 84
-0.642871 -0.530466 0.405590 72 35 116
0.068791 0.045199 -0.280715 68 1 84
-0.532402 0.317342 0.370163 55 88 140
0.446787 0.037315 -0.107119 30 157 136
0.321502 -0.177887 -0.145861 69 54 129
0.555214 0.040619 0.103698 39 124 142
0.459210 0.055065 -0.086546 33 140 141
0.664644 -0.251113 0.443203 67 59 131
-0.227334 -0.352060 -0.160221 64 67 135
-0.442207 0.409628 0.130161 59 80 138
-0.445183 -0.142460 -0.102743 60 78 138
-0.605084 0.039512 0.341845 35 135 141
-0.527206 0.224627 0.132868 32 145 140
0.232678 -0.404584 -0.246843 40 122 142
-0.348263 -0.183707 -0.153416 68 1 84
-0.435348 -0.482684 -0.117067 72 34 115
-0.603537 -0.371774 0.274465 64 68 135
-0.536708 0.254772 0.211907 38 128 142
0.080338 0.155894 -0.284539 68 1 84
0.515638 0.177770 0.071471 57 185 118
0.343613 -0.291376 -0.145138 31 150 139
0.646908 -0.439132 0.276730 44 113 142
-0.545275 0.292522 0.457668 40 122 142
0.266026 -0.346969 -0.159664 34 138 141
-0.451304 0.308836 0.033290 66 61 132
-0.447163 0.412507 0.153340 69 52 127
-0.304338 -0.260966 -0.145332 67 60 132
0.571051 -0.272034 0.067635 44 177 125
-0.301838 0.353035 -0.104769 68 1 84
-0.572204 -0.297428 0.140339 37 130 142
-0.369608 0.516652 0.155026 32 164 133
-0.185139 0.057938 -0.218207 68 1 84
0.673547 -0.355259 0.389886 71 24 106
-0.626842 -0.117566 0.501028 69 53 128
-0.629177 -0.156064 0.364445 67 59 131
-0.601176 -0.266148 0.195866 50 99 141
0.251864 0.117877 -0.195004 68 1 84
-0.254955 -0.544187 -0.269481 68 1 84
-0.602724 -0.088200 0.254377 53 92 140
-0.596754 -0.405681 0.275471 48 104 141
0.504786 0.100197 -0.000196 30 153 138
0.599008 0.063249 0.384153 67 58 131
0.440810 0.151099 -0.072464 33 167 132
-0.277259 -0.185462 -0.166974 69 53 128
0.238966 -0.425953 -0.280162 42 119 142
0.422393 0.352021 0.031356 40 174 127
0.644591 -0.170084 0.307746 58 83 139
-0.591441 -0.534126 0.290878 66 61 132
-0.406162 -0.400665 -0.115908 47 106 141
-0.589186 -0.029393 0.222394 48 104 141
0.486179 0.336921 0.481410 51 97 141
-0.619907 -0.199046 0.262367 64 67 135
-0.542089 -0.411251 0.112861 31 149 139
-0.376871 0.385495 -0.009359 71 40 120
0.326506 -0.443553 -0.258370 30 151 138
-0.450404 -0.155608 -0.096671 57 84 139
0.218620 -0.400013 -0.244788 39 126 142
0.476982 -0.326314 -0.080013 149 215 63
0.347778 -0.056695 -0.174137 64 67 135
-0.520231 -0.363902 0.043607 46 178 124
0.098361 -0.360133 -0.296569 68 1 84
0.222942 0.537162 -0.047521 67 59 131
0.644512 -0.157777 0.316393 59 81 138
-0.130585 0.537745 -0.184262 68 1 84
-0.635203 -0.382532 0.345850 69 54 129
-0.520520 0.345360 0.372948 41 121 142
-0.051088 0.624717 -0.090908 72 25 107
-0.141470 -0.363648 -0.149371 64 68 135
-0.514986 0.293573 0.181686 43 116 142
-0.315140 0.316031 -0.114688 68 1 84
0.073883 -0.017306 -0.366964 68 1 84
-0.425501 -0.068692 -0.127506 61 74 137
0.699133 -0.516989 0.493897 68 1 84
0.337445 0.502432 0.089100 30 151 138
-0.323396 -0.533402 -0.226255 68 1 84
0.517837 -0.065716 -0.030295 30 153 138
-0.645167 -0.501692 0.404450 70 12 95
0.621795 -0.416237 0.212624 51 96 141
-0.105931 0.616970 -0.090036 68 1 84
0.512807 -0.377144 -0.082715 191 223 36
-0.502624 0.370386 0.346758 53 92 140
-0.383148 0.489376 0.119154 32 145 140
-0.217274 0.581675 -0.030074 70 49 126
0.099556 -0.021423 -0.380539 68 1 84
0.480829 0.355715 0.284206 42 176 126
-0.308658 0.322480 -0.115455 68 1 84
-0.295163 -0.231041 -0.149918 67 59 131
-0.196583 0.469932 -0.152379 68 1 84
0.476199 0.053505 -0.063117 31 163 134
-0.596599 0.050438 0.286260 39 125 142
-0.403564 -0.228098 -0.107806 50 98 141
0.347511 0.229079 -0.113390 49 100 141
0.654555 -0.197758 0.411711 71 22 105
0.000518 0.099314 -0.288611 68 1 84
0.478035 0.216525 0.020495 59 186 117
-0.057594 -0.006703 -0.302356 68 1 84
0.480996 -0.101328 -0.081033 31 146 140
-0.126455 -0.196584 -0.237120 68 1 84
0.625796 -0.077708 0.342545 68 57 130
0.089217 -0.047793 -0.432694 68 1 84
0.088141 -0.141505 -0.391415 68 1 84
-0.560656 0.022563 0.131271 38 127 142
0.041491 0.291605 -0.264166 68 1 84
-0.374532 -0.221773 -0.125584 71 42 121
-0.395071 0.211756 -0.095839 65 65 134
0.631113 -0.326310 0.253366 65 65 134
-0.029904 -0.429644 -0.312129 51 96 141
0.382931 0.294151 -0.053592 56 185 118
0.553863 0.035654 0.093782 34 137 141
-0.077238 -0.252925 -0.254609 68 1 84
0.449425 -0.027721 -0.110583 32 143 140
-0.347490 -0.405237 -0.171906 69 53 128
0.108292 -0.198241 -0.303341 68 1 84
-0.181710 -0.139601 -0.217813 68 1 84
0.496442 0.315982 0.194126 44 177 125
-0.140725 0.539152 -0.177528 68 1 84
-0.401247 0.148381 -0.120814 68 1 84
-0.061803 -0.477654 -0.321007 69 50 127
0.523790 0.259078 0.509950 72 28 110
0.637978 -0.366671 0.267232 67 60 132
0.611433 -0.013698 0.456032 72 33 114
0.300194 0.233920 -0.146642 69 5 88
0.564722 0.032280 0.138118 39 126 142
0.092580 -0.276815 -0.316938 68 1 84
-0.120571 0.489760 -0.201974 68 1 84
0.373179 -0.291370 -0.128430 31 149 139
0.126520 -0.220574 -0.268983 68 1 84
-0.108199 0.508507 -0.204561 68 1 84
-0.585090 0.169099 0.463625 67 59 131
0.515104 -0.300602 -0.014706 48 180 122
-0.114119 -0.149140 -0.263816 68 1 84
0.164915 0.113928 -0.225065 68 1 84
-0.517384 -0.509995 0.099531 31 150 139
-0.170672 0.412686 -0.169188 68 1 84
0.593407 0.071681 0.338793 56 86 139
-0.601914 0.002200 0.289488 40 122 142
-0.388399 -0.069701 -0.156368 69 54 129
0.489051 0.113629 -0.021425 32 164 133
0.229900 0.208087 -0.180770 68 1 84
-0.055811 0.138607 -0.296982 68 1 84
-0.414877 0.156912 -0.104523 68 1 84
0.383494 -0.314200 -0.116768 35 136 141
0.256139 -0.102034 -0.194718 70 49 126
-0.609514 0.012424 0.489302 60 78 138
-0.496805 0.353558 0.227181 34 139 141
-0.260002 -0.204185 -0.163589 67 58 131
-0.491202 -0.338168 0.000186 30 155 137
-0.537630 0.192489 0.139443 48 104 141
0.630396 -0.421598 0.234833 44 113 142
-0.113929 0.122841 -0.265698 68 1 84
0.086491 0.607706 -0.108844 57 84 139
0.370412 -0.005513 -0.170894 35 136 141
0.625514 -0.411227 0.224011 41 120 142
-0.169449 -0.017855 -0.219263 68 1 84
0.273931 0.480973 -0.037836 46 109 142
0.464402 0.213769 -0.003919 83 197 103
0.168538 -0.083730 -0.236982 68 1 84
-0.561676 -0.175031 0.091242 38 128 142
-0.525327 0.323304 0.342542 42 118 142
0.008991 0.339469 -0.234153 68 1 84
-0.273716 0.239413 -0.169828 68 1 84
-0.619723 -0.103316 0.479266 70 47 124
-0.488875 0.388207 0.350337 31 147 139
0.590836 -0.173048 0.120814 30 152 138
0.477739 -0.284296 -0.036637 44 112 142
-0.272086 0.392583 -0.109704 68 1 84
0.561579 0.141072 0.225092 36 132 141
-0.146929 0.597034 -0.113930 68 1 84
0.602061 0.005206 0.493281 72 29 111
0.565496 0.039206 0.150464 42 176 126
-0.478129 -0.259983 -0.034244 49 100 141
-0.107634 0.596120 -0.142517 68 1 84
-0.572936 0.204048 0.406842 66 64 133
0.535311 0.253268 0.366397 39 125 142
0.557614 0.103617 0.172945 40 123 142
0.295062 -0.138539 -0.166958 47 106 141
0.183047 -0.208110 -0.196977 68 1 84
-0.023891 0.179246 -0.295428 68 1 84
0.319368 -0.265177 -0.156816 65 65 134
-0.187601 0.032094 -0.213794 68 1 84
-0.506157 0.145509 0.030104 72 28 110
0.119277 -0.292077 -0.253676 68 1 84
0.428893 -0.364059 -0.160021 91 200 98
-0.169463 -0.075834 -0.227613 68 1 84
0.527610 0.264044 0.417262 45 110 142
0.512249 0.024831 -0.015374 32 143 140
0.147791 -0.401297 -0.292285 70 49 126
0.104158 -0.014904 -0.327868 68 1 84
-0.071968 -0.028092 -0.363754 68 1 84
-0.050860 -0.438755 -0.313497 50 98 141
-0.252301 -0.226110 -0.158749 68 1 84
0.563918 -0.124955 0.053994 31 149 139
0.230156 0.266626 -0.138527 72 35 116
-0.537371 0.047759 0.067307 36 170 130
-0.391067 -0.336586 -0.072604 37 131 141
-0.073939 0.363954 -0.212631 68 1 84
0.582926 -0.412054 0.114045 54 184 119
0.608100 0.009841 0.330459 59 81 138
-0.255844 0.532500 -0.054926 68 1 84
-0.334789 -0.256688 -0.129132 58 83 139
0.058744 -0.317008 -0.329704 68 1 84
-0.285780 0.044742 -0.206324 68 1 84
0.682560 -0.329050 0.515038 68 1 84
-0.218981 0.129099 -0.221223 68 1 84
-0.329153 0.347726 -0.087856 68 1 84
0.594350 -0.031418 0.218907 37 131 141
-0.630903 -0.189063 0.387562 72 34 115
-0.294658 -0.372270 -0.158512 44 113 142
-0.285250 0.504320 -0.038857 68 1 84
-0.658591 -0.279629 0.469732 66 62 133
-0.092600 -0.030960 -0.358785 68 1 84
-0.384356 0.274038 -0.075449 71 39 119
-0.485101 0.344217 0.154388 42 119 142
-0.558750 -0.138368 0.085973 31 149 139
0.111081 0.599401 -0.102495 57 85 139
0.024270 0.280722 -0.274564 68 1 84
-0.197019 0.436882 -0.153335 68 1 84
-0.440814 -0.506993 -0.097320 70 14 97
-0.337945 0.537775 0.139669 43 177 125
0.061837 0.479887 -0.210539 68 1 84
0.053231 0.429491 -0.209409 68 1 84
-0.565139 0.179418 0.231218 45 110 142
-0.486626 0.389212 0.292787 32 144 140
-0.065845 0.355441 -0.218416 68 1 84
-0.541608 0.224348 0.188638 42 119 142
0.686689 -0.508841 0.390644 56 86 139
-0.535329 0.215493 0.153915 34 137 141
-0.548825 -0.064656 0.069669 34 137 141
-0.363017 0.423933 0.006194 68 1 84
0.606420 0.026404 0.357409 60 78 138
-0.030190 -0.481050 -0.324062 68 1 84
-0.010261 0.413946 -0.221055 68 1 84
-0.648959 -0.249385 0.354148 72 28 110
0.560508 0.143819 0.222857 43 115 142
-0.287629 0.513324 -0.022961 71 44 123
0.068688 -0.011393 -0.409001 68 1 84
0.606077 -0.404881 0.178285 42 117 142
0.390388 0.468312 0.310090 41 121 142
0.423447 -0.369745 -0.168618 175 220 46
0.087342 0.374546 -0.201476 68 1 84
0.018720 0.087950 -0.287504 68 1 84
0.693655 -0.489008 0.424317 67 60 132
-0.525814 0.011650 0.025013 39 126 142
0.583613 -0.357521 0.107748 51 182 121
0.393905 -0.038829 -0.152678 51 96 141
0.372116 0.125804 -0.149815 52 95 141
-0.208629 0.539420 -0.116911 68 1 84
-0.520603 0.226651 0.114155 38 127 142
0.341679 0.507638 0.113109 33 167 132
-0.342582 -0.356559 -0.121526 51 96 141
-0.117583 0.095908 -0.253058 68 1 84
-0.416119 -0.407339 -0.112899 54 90 140
-0.209508 0.396153 -0.148412 68 1 84
-0.185506 -0.076435 -0.223460 68 1 84
-0.239633 0.576442 0.003988 51 97 141
-0.212837 0.552068 -0.098093 68 1 84
-0.435474 0.126209 -0.092711 71 38 118
-0.119842 0.593223 -0.139957 68 1 84
0.647407 -0.495835 0.268118 56 86 139
-0.456177 -0.469564 -0.081161 46 109 142
0.584219 -0.206669 0.096717 32 145 140
0.231107 0.556834 -0.000518 58 82 139
-0.128889 0.606781 -0.105587 68 1 84
-0.372541 -0.500159 -0.190957 72 30 112
0.455857 0.129244 -0.063897 30 152 138
0.383500 -0.476111 -0.231884 33 140 141
0.475596 -0.058872 -0.084075 33 140 141
0.183003 -0.212122 -0.193200 68 1 84
0.400261 0.328321 -0.013590 39 173 128
0.637257 -0.344137 0.268169 70 48 125
-0.352776 0.462135 0.027180 72 29 111
0.580817 -0.380567 0.104579 39 173 128
-0.146369 0.010097 -0.224789 68 1 84
0.270762 0.507823 -0.016107 55 89 140
0.158710 0.519621 -0.135345 72 35 116
-0.547898 0.155828 0.149164 38 127 142
0.574043 0.054702 0.206995 34 137 141
-0.626510 -0.081536 0.417582 69 52 127
0.357423 -0.091094 -0.160634 44 114 142
-0.316130 0.123610 -0.185532 68 1 84
0.588680 -0.297213 0.112932 31 146 140
-0.664241 -0.221659 0.485590 69 5 88
0.168535 -0.394715 -0.272649 60 77 138
0.523059 -0.419966 -0.061626 54 184 119
0.560657 0.124068 0.205953 48 104 141
0.275378 -0.187386 -0.153809 65 66 134
0.531067 -0.406302 -0.043428 89 199 100
0.683705 -0.338298 0.502215 68 1 84
-0.595922 -0.074447 0.229194 44 114 142
0.370660 0.041069 -0.170186 30 153 138
-0.330227 -0.245983 -0.133041 54 90 140
0.400482 -0.021420 -0.150604 36 133 141
0.017502 0.016285 -0.351999 68 1 84
0.578639 0.131670 0.374036 54 90 140
0.506532 -0.030539 -0.040148 30 160 135
-0.409397 0.365266 0.016636 39 126 142
0.626685 -0.114476 0.295810 41 120 142
0.566650 0.028790 0.144861 34 137 141
0.229337 -0.208415 -0.158400 63 71 136
-0.659713 -0.291320 0.470233 62 72 136
0.437142 0.411646 0.172878 62 188 115
0.116256 -0.015828 -0.352295 68 1 84
-0.575093 -0.046510 0.159280 40 122 142
-0.472974 0.402575 0.249883 55 89 140
-0.570199 -0.242094 0.117697 31 148 139
0.549753 -0.107748 0.024355 38 172 129
-0.029965 0.599000 -0.161256 68 1 84
0.168968 -0.179354 -0.228966 68 1 84
0.653319 -0.475914 0.287795 44 113 142
-0.156106 -0.380351 -0.168641 61 74 137
0.034431 0.474794 -0.220220 68 1 84
0.543497 0.235194 0.327709 37 130 142
-0.486825 -0.431325 -0.009541 69 191 111
-0.075426 0.446818 -0.219144 68 1 84
-0.261626 -0.401188 -0.209314 39 126 142
-0.504945 0.306760 0.165035 37 130 142
-0.612591 -0.037652 0.332213 56 87 140
0.378176 -0.000257 -0.166634 38 129 142
-0.114174 0.516517 -0.200060 68 1 84
0.014251 0.025921 -0.326335 68 1 84
0.541048 -0.274873 0.020998 32 145 140
0.377707 0.078921 -0.159957 31 146 140
0.386273 -0.024612 -0.159941 42 117 142
0.168743 -0.186227 -0.226587 68 1 84
-0.232272 0.537863 -0.087526 68 1 84
-0.347416 0.149905 -0.160731 68 1 84
0.069548 0.223982 -0.256046 68 1 84
0.160769 0.296767 -0.190137 68 1 84
0.538984 -0.453597 -0.007025 77 194 107
-0.466332 0.192387 -0.016544 66 62 133
0.162804 0.232981 -0.182137 68 1 84
0.429886 0.410349 0.135773 66 190 113
-0.088992 0.119060 -0.277663 68 1 84
0.475260 -0.199351 -0.060846 39 125 142
0.537888 -0.170171 0.002411 47 179 123
-0.618386 -0.114118 0.316906 61 74 137
-0.565735 0.154416 0.208795 42 117 142
0.649439 -0.170145 0.410624 69 6 90
-0.528697 0.128296 0.080218 42 119 142
0.011998 -0.385194 -0.308516 71 21 103
-0.371862 -0.172084 -0.147440 72 25 107
0.003184 0.135433 -0.297921 68 1 84
0.235162 0.287288 -0.135101 66 64 133
0.024407 0.451963 -0.221490 68 1 84
-0.333320 0.500921 0.041228 66 62 133
0.328233 0.533072 0.195995 34 138 141
0.626550 -0.176206 0.254708 54 90 140
-0.357717 -0.394733 -0.151123 54 90 140
0.525084 0.193206 0.116847 36 133 141
-0.523342 -0.052894 0.008103 36 134 141
0.295257 0.553773 0.163622 38 129 142
0.462293 -0.058561 -0.098309 33 166 133
0.036769 -0.180343 -0.396806 68 1 84
-0.362434 -0.224399 -0.129202 70 12 95
0.102885 0.606051 -0.093739 47 106 141
-0.655526 -0.259144 0.412317 67 60 132
-0.518090 -0.492639 0.091265 30 152 138
-0.523331 -0.136865 -0.000516 31 162 134
0.119731 -0.020028 -0.362432 68 1 84
-0.492962 0.314381 0.130528 41 120 142
0.402986 0.366716 0.017223 31 162 134
0.591935 -0.155025 0.129706 46 108 142
-0.574866 0.196058 0.401287 67 60 132
-0.263396 0.104263 -0.204897 68 1 84
-0.622891 -0.075084 0.377631 66 61 132
0.637499 -0.311754 0.272777 63 69 135
0.654516 -0.332420 0.320975 69 52 127
-0.007492 0.287018 -0.275032 68 1 84
0.265914 -0.403031 -0.234341 37 131 141
-0.428168 0.073037 -0.117035 71 21 103
0.533092 -0.427115 -0.028150 154 216 60
0.337462 -0.215794 -0.138210 59 81 138
0.372270 -0.267388 -0.132289 48 103 141
0.619895 -0.433240 0.202682 39 124 142
0.121566 -0.311351 -0.240790 68 1 84
-0.531681 -0.078632 0.021925 40 123 142
-0.172038 0.309136 -0.194554 68 1 84
-0.601174 0.075049 0.459366 64 68 135
-0.338573 0.538134 0.147003 37 171 129
0.601602 -0.030518 0.251657 61 75 137
0.352765 0.371571 -0.035514 62 188 115
0.054842 0.429896 -0.208848 68 1 84
-0.580578 -0.521151 0.271327 44 113 142
0.281653 0.463002 -0.043503 45 110 142
-0.298256 -0.011361 -0.204660 68 1 84
-0.488103 -0.465990 0.007891 136 213 71
0.688554 -0.371496 0.493125 71 15 98
0.590836 -0.080142 0.159943 41 120 142
0.029293 0.004877 -0.406640 68 1 84
-0.321330 0.084889 -0.190986 68 1 84
0.682732 -0.336022 0.476766 68 1 84
-0.017905 0.235461 -0.279255 68 1 84
0.512244 0.247228 0.136271 32 164 133
0.100147 -0.143413 -0.366497 68 1 84
-0.165892 0.037393 -0.219253 68 1 84
-0.549689 -0.235887 0.065468 34 137 141
-0.566029 -0.378164 0.162158 33 142 140
0.401325 0.465074 0.264497 34 137 141
-0.334489 0.180660 -0.159058 68 1 84
0.350783 -0.309064 -0.138687 35 136 141
0.043364 0.097316 -0.287473 68 1 84
0.601470 0.038249 0.337575 50 99 141
-0.159290 0.417128 -0.174885 68 1 84
0.683165 -0.334023 0.518916 68 1 84
-0.042391 0.155458 -0.299550 68 1 84
0.529818 -0.294742 0.004235 42 176 126
0.532159 0.248169 0.232867 32 165 133
0.248154 0.329880 -0.124486 49 102 141
0.571418 0.065024 0.204034 36 133 141
-0.520614 0.267995 0.165152 31 146 140
0.125121 0.083348 -0.236094 68 1 84
-0.257433 0.306900 -0.141891 68 1 84
-0.015083 -0.294678 -0.318521 68 1 84
-0.482738 -0.040388 -0.062614 36 133 141
-0.623227 -0.141276 0.314810 60 77 138
-0.329087 -0.366290 -0.135303 60 77 138
-0.633766 -0.445067 0.362970 70 9 92
-0.422626 0.428384 0.109356 46 107 142
0.613486 -0.431372 0.182251 39 124 142
0.531192 0.213112 0.168091 37 130 142
-0.092059 0.592533 -0.156459 68 1 84
0.028601 -0.159692 -0.416532 68 1 84
-0.286664 0.292129 -0.138367 68 1 84
0.571329 0.154369 0.366486 51 96 141
-0.093698 -0.239980 -0.243321 68 1 84
0.051398 -0.471846 -0.327591 68 1 84
-0.543899 0.213963 0.185012 37 130 142
-0.009754 -0.290506 -0.325155 68 1 84
-0.258408 -0.062901 -0.209999 68 1 84
0.505688 -0.027517 -0.040758 33 167 132
0.535292 -0.416278 -0.027181 71 192 110
0.596430 -0.100698 0.170158 43 115 142
0.540420 -0.350989 -0.004043 44 177 125
0.499827 -0.060482 -0.055387 30 160 135
-0.287451 -0.004919 -0.208063 68 1 84
0.164089 0.192958 -0.223303 68 1 84
0.561313 -0.063770 0.064055 37 131 141
-0.493248 0.126604 -0.004754 59 81 138
0.334256 -0.438373 -0.251305 54 184 119
-0.083199 -0.376430 -0.206908 54 91 140
0.577077 -0.242011 0.078478 30 160 135
0.605760 0.036571 0.403658 66 64 133
0.570918 0.146631 0.441002 55 89 140
0.357431 0.503515 0.151679 40 174 127
-0.443258 0.445116 0.299833 46 108 142
0.430222 -0.336669 -0.121182 33 142 140
0.526864 0.055194 0.024885 41 175 127
-0.259845 -0.402255 -0.215935 46 107 142
0.508255 0.308810 0.311484 33 167 132
-0.355884 0.508964 0.091147 36 134 141
-0.005956 -0.032173 -0.445881 68 1 84
-0.522310 0.304529 0.238948 40 122 142
0.489068 0.337684 0.343339 31 148 139
-0.587764 0.061779 0.243948 34 139 141
-0.124013 0.161736 -0.268672 68 1 84
-0.242865 0.557378 -0.038728 71 17 99
-0.301336 0.448674 -0.062095 68 1 84
-0.334064 -0.438375 -0.203965 68 55 129
0.048202 -0.009626 -0.428436 68 1 84
-0.508582 0.305761 0.177081 33 142 140
0.421872 -0.422532 -0.199856 109 206 88
0.296369 -0.453984 -0.280114 48 104 141
-0.608146 -0.046693 0.298153 63 71 136
-0.283638 0.505483 -0.040216 68 1 84
0.106753 0.563657 -0.154366 68 1 84
-0.537770 0.096790 0.089282 30 151 138
-0.123482 -0.424381 -0.267781 64 67 135
0.602511 -0.416288 0.162213 49 102 141
0.311022 0.542789 0.145683 34 139 141
0.373587 -0.273981 -0.130898 42 117 142
-0.088343 -0.241078 -0.249366 68 1 84
0.369390 0.005881 -0.171967 33 140 141
0.523465 0.279582 0.337382 31 150 139
-0.619705 -0.074029 0.355332 68 57 130
0.213156 0.312295 -0.142825 68 1 84
-0.472724 -0.164044 -0.072496 50 98 141
-0.545854 -0.476568 0.157523 38 127 142
-0.003826 0.461263 -0.225853 68 1 84
-0.438122 -0.058199 -0.116225 57 85 139
-0.149000 0.061481 -0.229236 68 1 84
0.293563 -0.390721 -0.222848 50 181 122
0.431191 0.416387 0.373178 33 141 140
0.678298 -0.437603 0.373705 59 80 138
0.069022 0.228966 -0.258601 68 1 84
-0.000687 0.610344 -0.141631 68 1 84
-0.584135 -0.279005 0.166110 56 86 139
-0.480834 0.276418 0.061781 46 108 142
-0.237961 0.177362 -0.210222 68 1 84
-0.430309 -0.475815 -0.126685 55 88 140
0.190049 -0.112772 -0.224581 68 1 84
-0.069197 -0.264595 -0.255356 68 1 84
-0.384461 0.235226 -0.094455 72 35 116
-0.534117 0.203016 0.136219 36 132 141
-0.022987 0.484086 -0.225241 68 1 84
0.500703 -0.454306 -0.107871 136 213 71
-0.396488 0.406633 0.035751 70 49 126
-0.140147 -0.071331 -0.246644 68 1 84
-0.234511 -0.324922 -0.166294 50 99 141
0.002123 0.158473 -0.304543 68 1 84
0.455354 0.349206 0.095322 41 175 127
-0.475202 0.405807 0.328537 30 152 138
-0.658284 -0.362657 0.418668 72 35 116
-0.288689 -0.153057 -0.174979 71 21 103
0.068400 -0.010812 -0.403295 68 1 84
0.606065 -0.160646 0.180332 38 128 142
0.102744 0.332673 -0.217799 68 1 84
0.099079 -0.125422 -0.391843 68 1 84
0.350809 0.512392 0.162927 32 165 133
-0.428863 0.169751 -0.081192 58 83 139
-0.630590 -0.172837 0.395474 71 37 117
0.265102 0.482608 -0.047173 42 119 142
-0.132386 -0.375010 -0.161886 69 53 128
0.402729 -0.483299 -0.219663 30 156 137
-0.165970 -0.211766 -0.192586 68 1 84
0.087412 -0.138910 -0.395142 68 1 84
0.099481 -0.174348 -0.333403 68 1 84
-0.268699 0.564745 0.039293 55 88 140
0.469793 0.301576 0.075137 54 184 119
0.677143 -0.422975 0.375139 63 71 136
0.677135 -0.442690 0.367737 71 43 122
0.022182 -0.342231 -0.319679 68 1 84
-0.531197 -0.470658 0.110002 33 140 141
0.445968 0.405393 0.304851 31 146 140
-0.528553 0.079270 0.053272 31 149 139
-0.596896 -0.034567 0.252953 49 101 141
0.213831 0.400087 -0.122638 64 67 135
0.052821 0.109280 -0.287826 68 1 84
-0.368956 -0.186248 -0.145061 69 8 91
-0.533023 0.142248 0.099502 32 144 140
-0.110937 0.159150 -0.274415 68 1 84
-0.556828 -0.558070 0.227648 65 66 134
0.566808 -0.038394 0.090316 36 132 141
-0.005376 0.250403 -0.284428 68 1 84
-0.167521 -0.287727 -0.159378 71 24 106
0.053974 -0.406680 -0.316099 68 1 84
-0.622765 -0.448532 0.341601 72 33 114
-0.282611 0.427829 -0.092300 68 1 84
0.158894 0.302987 -0.190320 68 1 84
0.543132 -0.050571 0.022522 31 150 139
0.096459 0.613004 -0.077011 44 114 142
0.624618 -0.097661 0.478380 68 1 84
-0.532872 0.306177 0.344519 43 116 142
0.184601 -0.131337 -0.226114 68 1 84
0.124013 0.360506 -0.192240 68 1 84
0.139430 -0.035566 -0.348508 68 1 84
0.513592 -0.160292 -0.034638 32 145 140
0.569272 -0.478468 0.073156 34 138 141
0.222179 -0.435165 -0.297323 56 86 139
-0.661357 -0.353580 0.435748 71 38 118
0.224690 -0.057552 -0.212672 68 1 84
-0.589839 -0.388883 0.240852 52 95 141
0.505778 0.092565 -0.002228 42 176 126
0.417924 0.404714 0.088352 43 177 125
0.572974 0.039366 0.188372 41 121 142
0.627267 -0.263724 0.238737 71 37 117
-0.622703 -0.087937 0.457497 72 29 111
0.054500 -0.062664 -0.458822 68 1 84
0.661452 -0.277297 0.362874 62 73 137
-0.100921 -0.366683 -0.169288 61 75 137
-0.593156 -0.229047 0.162877 39 124 142
-0.544347 0.192966 0.165626 41 121 142
0.392344 -0.322090 -0.111339 30 158 136
-0.650087 -0.524498 0.431613 68 1 84
0.647395 -0.195684 0.515226 69 54 129
-0.181534 -0.183442 -0.201128 68 1 84
0.032021 0.296368 -0.262749 68 1 84
-0.622188 -0.127917 0.331347 56 86 139
0.154270 -0.209419 -0.234039 68 1 84
-0.442075 -0.252556 -0.070174 53 92 140
0.087064 0.276766 -0.255091 68 1 84
0.447458 -0.381032 -0.160684 212 225 26
0.482779 0.353452 0.403077 35 135 141
0.051002 -0.218793 -0.368560 68 1 84
-0.069479 -0.284528 -0.233089 68 1 84
-0.532271 0.098898 0.072989 40 123 142
-0.359782 0.046721 -0.177149 68 1 84
-0.618539 -0.516448 0.344311 66 64 133
0.136754 0.057038 -0.222189 68 1 84
0.282759 -0.010255 -0.203390 68 1 84
0.135397 -0.168048 -0.270356 68 1 84
0.175628 -0.394933 -0.266338 51 96 141
0.050764 -0.078697 -0.457823 68 1 84
0.408222 0.436053 0.121351 71 192 110
-0.577298 -0.401959 0.208486 38 127 142
-0.539318 0.098979 0.095231 35 137 141
0.490120 0.019373 -0.053859 44 177 125
0.255430 0.491806 -0.051521 42 118 142
-0.588122 0.109660 0.507744 54 91 140
0.169333 0.559097 -0.088864 58 83 139
0.404141 0.461834 0.233713 33 140 141
-0.289794 -0.025290 -0.206151 68 1 84
-0.080447 -0.148038 -0.306498 68 1 84
0.498733 0.302794 0.168658 30 158 136
0.392913 0.448670 0.103860 43 177 125
-0.537678 -0.084791 0.034836 30 157 136
0.358915 -0.469665 -0.248941 42 119 142
-0.121134 -0.390411 -0.184721 56 87 140
0.247085 -0.412861 -0.254999 43 116 142
-0.342895 0.365155 -0.064742 68 1 84
0.505273 -0.169295 -0.043041 30 156 137
-0.115255 0.246406 -0.247391 68 1 84
-0.209857 -0.167001 -0.195748 68 1 84
0.361015 -0.425310 -0.231590 30 155 137
-0.033485 0.015897 -0.309329 68 1 84
-0.442613 -0.257924 -0.067169 61 74 137
0.020655 0.010308 -0.375429 68 1 84
0.421860 -0.149652 -0.118205 45 111 142
0.431275 -0.383488 -0.173691 175 220 46
0.577856 0.086536 0.511282 63 69 135
-0.546209 0.257742 0.264087 61 76 137
-0.339498 0.284083 -0.112052 71 18 101
-0.519974 -0.115300 -0.005302 32 165 133
0.583865 0.079008 0.281303 43 115 142
0.320508 0.531173 0.127069 30 156 137
0.369689 0.260129 -0.081856 31 148 139
0.610876 -0.109153 0.227545 44 113 142
-0.109674 0.383353 -0.196214 68 1 84
0.484108 0.194034 0.017349 68 190 112
-0.662507 -0.322270 0.461326 72 32 113
-0.582520 0.165476 0.381245 71 43 122
-0.066805 0.513897 -0.214542 68 1 84
-0.571727 -0.096717 0.134119 32 143 140
-0.538300 0.310115 0.426158 44 113 142
-0.486446 -0.519551 0.024321 31 161 135
-0.652161 -0.317513 0.383516 62 73 137
0.095639 0.190397 -0.260223 68 1 84
-0.058095 0.571200 -0.185796 68 1 84
0.013609 -0.086733 -0.460386 68 1 84
0.668098 -0.274618 0.424283 71 39 119
0.496432 0.190584 0.039009 94 201 97
0.534945 0.246273 0.423046 50 98 141
-0.303063 -0.381696 -0.162395 32 145 140
0.107082 0.601883 -0.100785 55 89 140
-0.605940 -0.185078 0.203265 50 99 141
-0.070086 0.160445 -0.291110 68 1 84
0.454840 0.394006 0.236448 30 157 136
0.563820 -0.233932 0.051234 71 192 110
0.605885 0.010547 0.315757 58 82 139
0.524656 0.106657 0.047164 33 166 133
0.153398 0.231829 -0.191929 68 1 84
-0.359259 0.116306 -0.163921 68 1 84
-0.324815 -0.189104 -0.157738 72 29 111
-0.609696 -0.121295 0.266115 52 95 141
-0.547331 0.296047 0.417239 40 122 142
0.637560 -0.136295 0.475366 72 32 113
-0.623150 -0.122219 0.476130 72 28 110
0.407096 0.021366 -0.147113 39 126 142
0.119033 -0.213767 -0.282279 68 1 84
0.354904 -0.299656 -0.138976 33 142 140
0.022928 0.002672 -0.413188 68 1 84
-0.527909 0.285449 0.225581 35 136 141
0.288426 0.555427 0.127724 43 115 142
0.286681 0.044802 -0.200823 68 1 84
0.506334 0.280902 0.161838 30 153 138
0.311596 0.522781 0.080632 32 143 140
0.278483 0.157084 -0.182040 68 1 84
-0.069379 -0.439499 -0.310493 62 73 137
0.480572 0.165621 -0.006644 37 171 129
-0.488903 -0.538567 0.034190 44 112 142
0.517935 0.244866 0.154380 37 131 141
0.131784 0.095106 -0.236281 68 1 84
0.576341 -0.236859 0.076338 35 137 141
-0.584952 0.150298 0.347194 68 1 84
-0.493347 0.281117 0.091774 38 128 142
0.320170 0.500915 0.052027 40 122 142
-0.593805 -0.372643 0.246574 68 55 129
-0.481331 0.036945 -0.053964 57 84 139
-0.510502 -0.387949 0.033185 81 196 104
-0.566965 -0.533016 0.252224 49 100 141
-0.627817 -0.098278 0.394094 65 65 134
0.576055 0.069078 0.228882 38 129 142
-0.513698 0.338087 0.297274 36 134 141
-0.622443 -0.059259 0.474278 57 84 139
-0.578783 0.001826 0.192534 43 116 142
-0.542248 -0.056286 0.052311 32 144 140
-0.495074 -0.151697 -0.045916 30 156 137
0.638393 -0.497626 0.239850 52 95 141
-0.037931 -0.026583 -0.382376 68 1 84
-0.059461 0.502132 -0.218887 68 1 84
0.013299 -0.310130 -0.330562 68 1 84
-0.645418 -0.284571 0.346355 69 52 127
-0.387865 0.498343 0.155637 31 149 139
-0.644892 -0.160187 0.459559 71 21 103
0.171566 -0.384650 -0.248850 60 78 138
-0.365930 0.513151 0.125016 33 140 141
0.388071 0.471181 0.153183 41 175 127
-0.641400 -0.579439 0.422304 71 37 117
-0.225386 -0.416086 -0.227346 71 24 106
-0.562409 -0.132299 0.098261 42 117 142
0.647379 -0.301173 0.301701 60 77 138
0.206697 -0.370235 -0.181476 30 152 138
-0.451723 0.305184 0.031065 71 42 121
-0.609259 -0.118128 0.266067 54 91 140
-0.332918 -0.220051 -0.142738 61 76 137
-0.587003 -0.132113 0.175391 39 126 142
0.054020 0.023656 -0.309265 68 1 84
-0.026258 0.529499 -0.212862 68 1 84
-0.096577 -0.292755 -0.182464 68 1 84
0.471961 -0.164744 -0.078994 31 147 139
-0.415311 0.012899 -0.138301 57 85 139
-0.304145 0.507207 -0.000694 69 54 129
0.093414 -0.033290 -0.416053 68 1 84
-0.441603 -0.051165 -0.112845 39 125 142
-0.640217 -0.417434 0.369599 68 1 84
-0.017496 -0.278065 -0.322377 68 1 84
0.014345 0.451493 -0.223150 68 1 84
-0.488615 0.237156 0.052212 49 101 141
-0.520944 0.252600 0.142272 30 154 137
-0.529097 -0.430910 0.088779 30 156 137
-0.602815 -0.331539 0.258661 64 68 135
0.445389 -0.060134 -0.113026 34 139 141
-0.409129 -0.307582 -0.064697 48 104 141
0.396832 -0.156530 -0.127424 35 137 141
0.565792 0.010175 0.123370 38 127 142
0.266713 -0.404119 -0.235710 38 129 142
-0.656095 -0.338570 0.407433 69 54 129
0.249277 -0.411724 -0.251989 38 127 142
0.692579 -0.507983 0.415462 70 47 124
-0.376525 0.291425 -0.074872 71 15 98
0.443859 0.331563 0.048924 43 177 125
0.644545 -0.207969 0.303343 55 88 140
-0.111641 0.026609 -0.245697 68 1 84
0.005068 0.449701 -0.223750 68 1 84
-0.305257 0.313019 -0.121950 68 1 84
0.557023 0.142823 0.206797 55 89 140
0.698023 -0.431424 0.501385 62 73 137
-0.566803 -0.478337 0.238531 30 160 135
0.368830 -0.366416 -0.203874 69 191 111
-0.432675 -0.512309 -0.109182 71 38 118
0.231276 -0.202425 -0.160619 71 43 122
0.487248 0.347461 0.415547 40 122 142
-0.475643 -0.285487 -0.025485 35 136 141
-0.405878 0.212541 -0.084254 71 24 106
-0.551880 -0.420860 0.145573 31 148 139
-0.614815 -0.003559 0.431458 72 28 110
-0.009890 -0.008174 -0.373672 68 1 84
-0.049305 0.025840 -0.289913 68 1 84
-0.336975 0.421529 -0.033128 68 1 84
-0.195508 -0.125109 -0.215941 68 1 84
0.318165 -0.053465 -0.187377 63 71 136
0.080747 -0.017613 -0.376848 68 1 84
0.243344 -0.076741 -0.205668 68 1 84
-0.052014 -0.252394 -0.290666 68 1 84
0.230462 0.220283 -0.171618 68 1 84
0.114736 -0.298688 -0.267886 68 1 84
-0.149527 0.517195 -0.180489 68 1 84
-0.443730 -0.036668 -0.110537 58 83 139
0.468766 0.066896 -0.068760 31 163 134
-0.195759 0.036200 -0.213031 68 1 84
0.335975 0.525877 0.163561 30 153 138
0.412232 0.452898 0.263281 33 140 141
-0.556827 -0.024444 0.106461 34 137 141
-0.452647 0.190167 -0.037640 63 69 135
0.368981 0.500688 0.213765 31 146 140
0.520290 -0.048085 -0.022064 47 179 123
-0.397692 0.162183 -0.117993 72 28 110
0.104889 0.503471 -0.184398 68 1 84
0.180837 -0.449150 -0.318119 68 1 84
0.641571 -0.258497 0.284627 60 77 138
0.515813 -0.001546 -0.016953 30 157 136
-0.299023 -0.296763 -0.162263 71 43 122
-0.546110 0.283057 0.376216 52 95 141
0.480226 0.358684 0.409113 35 136 141
-0.051706 -0.210787 -0.310773 68 1 84
0.346666 -0.486080 -0.259535 61 76 137
0.304155 -0.392535 -0.224853 30 153 138
-0.610304 0.016594 0.364126 42 117 142
0.625915 -0.046579 0.405043 71 42 121
-0.411893 0.315457 -0.019009 52 94 141
0.106153 -0.470294 -0.327830 68 1 84
-0.358066 -0.314694 -0.114131 69 54 129
0.675260 -0.300135 0.459650 70 9 92
0.559996 -0.005772 0.085843 40 122 142
-0.374677 -0.384931 -0.118321 64 68 135
0.665165 -0.507551 0.317074 49 100 141
0.359921 -0.095682 -0.158280 49 100 141
0.428782 0.086166 -0.113727 35 169 130
0.461446 -0.307368 -0.064408 38 172 129
0.128604 0.598814 -0.080399 53 92 140
-0.426525 0.434109 0.130602 51 96 141
0.507385 0.304956 0.393900 33 141 140
-0.457624 -0.112995 -0.093396 38 128 142
0.256848 -0.221067 -0.152117 57 85 139
0.373161 -0.045651 -0.164341 63 69 135
-0.334995 0.284188 -0.115668 69 6 90
-0.576758 -0.166764 0.133605 36 133 141
0.097840 0.574014 -0.151588 68 1 84
-0.630746 -0.279719 0.268597 69 54 129
0.144936 0.041616 -0.217947 68 1 84
-0.596419 -0.511655 0.297038 56 87 140
0.184573 0.193317 -0.210058 68 1 84
-0.306467 -0.406810 -0.203909 62 72 136
-0.377945 0.230466 -0.102523 66 64 133
0.339053 -0.486894 -0.263997 65 66 134
0.321829 0.318938 -0.092785 30 156 137
-0.344706 -0.090961 -0.176489 68 1 84
-0.421802 -0.292404 -0.063470 40 122 142
0.130432 -0.078683 -0.359257 68 1 84
0.044715 0.255119 -0.277608 68 1 84
-0.005174 -0.040665 -0.453326 68 1 84
0.571105 -0.129030 0.071079 38 127 142
0.416671 -0.220058 -0.090007 42 117 142
0.052312 0.398712 -0.207143 68 1 84
0.487782 -0.368256 -0.112636 253 231 36
0.475487 0.136895 -0.031560 40 174 127
-0.647388 -0.386933 0.381603 71 42 121
0.257713 0.560401 0.061392 45 110 142
0.133772 -0.413451 -0.305194 68 1 84
0.256383 -0.283255 -0.158336 68 1 84
-0.011383 -0.299457 -0.319662 68 1 84
-0.644726 -0.303202 0.345569 63 69 135
0.136731 0.344357 -0.192446 68 1 84
-0.593311 -0.115400 0.202196 40 123 142
0.188147 -0.201511 -0.196508 68 1 84
0.011591 -0.462767 -0.324858 68 1 84
0.659023 -0.236976 0.374713 68 55 129
0.295158 0.515319 0.032614 46 109 142
-0.552857 -0.077162 0.079035 31 161 135
-0.146801 -0.305778 -0.151807 65 65 134
0.522324 -0.206344 -0.010759 32 164 133
0.603302 0.034983 0.347201 59 81 138
-0.311777 0.229289 -0.158695 68 1 84
0.629786 -0.341586 0.246420 61 76 137
0.555231 0.168382 0.228042 40 123 142
-0.553645 0.246407 0.305277 69 52 127
-0.129866 -0.239015 -0.199819 68 1 84
0.011618 -0.467581 -0.325309 68 1 84
0.019824 -0.311890 -0.331891 68 1 84
-0.255359 0.349307 -0.132381 68 1 84
-0.533546 -0.202278 0.027792 31 147 139
0.214749 0.460713 -0.106223 48 103 141
-0.256253 0.345762 -0.132854 68 1 84
0.054429 0.594852 -0.155317 68 1 84
-0.267718 -0.137708 -0.187068 68 1 84
-0.460720 -0.264500 -0.048988 44 112 142
0.677638 -0.311195 0.462342 68 1 84
0.095061 0.418861 -0.187648 68 1 84
-0.331575 -0.358137 -0.131631 49 101 141
-0.119945 -0.056482 -0.317950 68 1 84
-0.334313 -0.012197 -0.190993 68 1 84
0.545994 -0.266616 0.027399 38 172 129
-0.070862 -0.163181 -0.312594 68 1 84
-0.379929 -0.354030 -0.083244 45 110 142
-0.242322 -0.184096 -0.174408 68 1 84
-0.275451 -0.398691 -0.199658 45 110 142
0.352757 0.236204 -0.105869 55 89 140
0.332344 0.490284 0.055548 30 152 138
-0.614160 -0.022248 0.512174 69 52 127
-0.566570 0.233947 0.488824 36 132 141
-0.116392 0.331692 -0.217873 68 1 84
-0.046259 -0.214293 -0.315701 68 1 84
0.534456 0.173458 0.133138 35 136 141
0.622968 -0.115785 0.275489 48 103 141
0.174781 0.236525 -0.169832 68 1 84
0.627367 -0.270106 0.239698 62 72 136
0.037272 0.619835 -0.110228 67 58 131
0.227419 -0.145725 -0.195942 68 1 84
-0.412245 0.345086 0.003980 44 114 142
-0.391925 0.285375 -0.061090 60 78 138
-0.120222 0.003037 -0.300419 68 1 84
0.428411 0.059122 -0.122214 32 164 133
-0.539611 -0.569116 0.181705 59 80 138
0.234894 -0.387888 -0.215092 34 137 141
0.021720 0.037527 -0.310434 68 1 84
0.063296 0.234702 -0.264123 68 1 84
-0.263182 0.364229 -0.123711 68 1 84
-0.418762 -0.371473 -0.070290 63 69 135
-0.325314 0.212499 -0.155187 68 1 84
0.425260 0.291781 -0.006439 30 151 138
0.517102 0.289428 0.434401 46 109 142
0.588387 -0.459258 0.121745 71 192 110
-0.478446 -0.526875 0.000985 37 130 142
-0.298527 0.489024 -0.033624 72 34 115
-0.308402 0.250648 -0.150066 68 1 84
0.144458 0.301808 -0.203533 68 1 84
0.347265 -0.238738 -0.141471 43 115 142
-0.455193 0.032172 -0.090855 43 115 142
0.491085 -0.094745 -0.069588 30 156 137
-0.389770 0.055244 -0.156382 68 1 84
0.659203 -0.224982 0.438733 65 66 134
-0.569090 0.085438 0.183213 46 107 142
-0.606573 0.015744 0.500615 69 52 127
0.566267 -0.033734 0.090827 38 128 142
-0.338435 0.007181 -0.189622 68 1 84
-0.100832 -0.078677 -0.341803 68 1 84
-0.592000 0.054251 0.262041 42 118 142
-0.351891 0.141978 -0.160485 68 1 84
0.419660 -0.074755 -0.131225 33 141 140
0.206008 0.518603 -0.085704 63 69 135
0.239592 0.212330 -0.177400 68 1 84
-0.437425 0.355226 0.050581 36 132 141
0.590736 -0.025877 0.207474 43 116 142
-0.185340 0.326364 -0.180016 68 1 84
-0.088037 -0.122697 -0.312935 68 1 84
-0.572286 -0.300329 0.141467 36 132 141
0.657677 -0.474268 0.299970 47 106 141
0.660234 -0.229675 0.426569 69 54 129
0.388280 -0.319056 -0.114124 30 152 138
0.563522 -0.432709 0.062782 165 218 53
-0.074429 -0.393665 -0.261916 72 35 116
0.543564 -0.064850 0.019870 35 168 131
0.368013 -0.183898 -0.127802 42 118 142
-0.383498 0.407629 0.018202 71 38 118
-0.097260 0.406817 -0.200329 68 1 84
-0.485427 -0.050703 -0.059568 33 141 140
0.488384 -0.225788 -0.037324 30 156 137
-0.506022 0.365285 0.394116 38 128 142
0.326264 0.017043 -0.192129 52 94 141
-0.067709 -0.034840 -0.381490 68 1 84
0.495082 0.277871 0.115462 35 168 131
-0.604931 -0.015693 0.297275 45 110 142
-0.412199 -0.358011 -0.062966 48 103 141
-0.547833 -0.042623 0.071740 30 154 137
-0.490771 -0.038001 -0.049803 35 137 141
0.405826 0.454156 0.171321 79 195 105
-0.092758 -0.254309 -0.230980 68 1 84
0.152608 0.505343 -0.146542 70 12 95
-0.178563 -0.191876 -0.197986 68 1 84
-0.294909 0.527730 0.011184 66 64 133
0.632194 -0.095704 0.367934 72 34 115
-0.087040 0.025761 -0.267304 68 1 84
0.661554 -0.238749 0.524091 72 30 112
0.300548 -0.365441 -0.196046 30 153 138
0.402076 -0.194035 -0.107743 36 132 141
-0.628577 -0.551790 0.372292 71 43 122
-0.070157 0.081132 -0.274239 68 1 84
0.651486 -0.265261 0.320041 58 83 139
-0.594087 -0.137339 0.199728 40 122 142
-0.469535 0.367552 0.142656 57 85 139
-0.303538 -0.502615 -0.237347 68 1 84
0.308024 0.365645 -0.079497 38 129 142
0.064631 0.192342 -0.267763 68 1 84
0.329219 0.216626 -0.132696 49 100 141
0.171998 -0.208990 -0.211022 68 1 84
0.031840 -0.268577 -0.352272 68 1 84
0.083509 0.011148 -0.283700 68 1 84
-0.572711 0.106522 0.202595 71 43 122
0.595843 0.011654 0.548438 71 44 123
-0.591158 0.124737 0.492094 66 61 132
0.149607 0.601315 -0.034304 52 95 141
-0.157883 -0.195226 -0.211658 68 1 84
-0.531686 -0.199524 0.023887 37 130 142
-0.445517 -0.320524 -0.037234 38 127 142
-0.446255 -0.008306 -0.106558 44 112 142
-0.184306 0.049774 -0.217145 68 1 84
0.606486 -0.148747 0.186273 33 142 140
-0.445214 0.341945 0.050959 34 137 141
0.282182 -0.195599 -0.150662 56 87 140
-0.142826 -0.303302 -0.152385 71 18 101
0.169095 -0.039296 -0.229392 68 1 84
-0.400808 0.271746 -0.058323 63 69 135
0.374472 0.462795 0.086766 54 184 119
0.574496 0.137980 0.433465 59 81 138
-0.104764 -0.022170 -0.340856 68 1 84
0.497098 -0.348346 -0.083355 212 225 26
-0.281620 -0.481743 -0.242528 71 21 103
-0.627457 -0.151331 0.333205 61 74 137
0.652589 -0.498015 0.283337 50 98 141
0.517025 0.295766 0.464265 64 67 135
-0.054601 -0.432399 -0.309242 46 107 142
-0.513073 0.358499 0.371854 45 110 142
0.314406 0.384385 -0.063157 30 158 136
0.196057 -0.088722 -0.222302 68 1 84
0.590085 0.035046 0.545659 71 38 118
0.443089 0.409225 0.311868 35 135 141
0.667439 -0.383090 0.354197 71 44 123
-0.182963 -0.268208 -0.160458 68 1 84
0.642941 -0.130255 0.356751 60 77 138
-0.210502 0.554550 -0.098613 68 1 84
0.267909 -0.062657 -0.200966 66 62 133
-0.620367 -0.037532 0.429527 69 54 129
0.283462 0.533129 0.044927 38 128 142
0.216051 -0.028099 -0.212706 68 1 84
0.541294 0.234553 0.399573 43 115 142
0.579632 -0.051010 0.132815 39 124 142
-0.117716 0.586127 -0.151838 68 1 84
0.115474 0.275064 -0.235792 68 1 84
-0.312126 -0.510376 -0.233432 68 1 84
-0.231400 0.552396 -0.068981 68 1 84
0.000936 -0.273831 -0.338931 68 1 84
-0.606265 0.038519 0.352861 36 133 141
-0.549188 -0.237749 0.064738 31 149 139
0.390851 0.038716 -0.157915 33 142 140
0.637394 -0.120962 0.435531 70 45 124
0.600605 -0.207064 0.150814 31 150 139
-0.139735 -0.267226 -0.163470 72 32 113
-0.567685 0.075378 0.175908 39 126 142
-0.641466 -0.238397 0.328557 68 55 129
0.309147 -0.238783 -0.151959 63 69 135
0.480350 0.322135 0.127825 36 170 130
-0.650508 -0.261354 0.357454 72 26 108
0.113532 0.202937 -0.237348 68 1 84
-0.512810 0.272869 0.141408 37 131 141
-0.140594 -0.187143 -0.229470 68 1 84
-0.376490 0.042691 -0.166850 68 1 84
-0.426506 -0.426467 -0.116403 48 104 141
0.262366 0.053313 -0.201493 68 1 84
0.117748 0.498683 -0.175956 68 1 84
-0.549868 -0.434340 0.145892 34 138 141
0.492770 -0.476896 -0.119389 50 181 122
0.670638 -0.435014 0.347562 71 40 120
0.217801 -0.242867 -0.152458 54 91 140
0.475868 -0.142464 -0.081644 30 153 138
-0.626943 -0.220781 0.273170 69 53 128
0.277652 0.176301 -0.177935 69 8 91
-0.244272 0.288473 -0.149009 68 1 84
0.414577 0.450079 0.268601 33 140 141
-0.206744 0.524260 -0.129513 68 1 84
0.610157 -0.323428 0.183754 38 129 142
-0.550370 0.024350 0.100694 33 140 141
-0.302156 0.177404 -0.181348 68 1 84
0.161412 0.355719 -0.170680 68 1 84
0.201076 -0.459332 -0.316007 69 6 90
-0.616507 -0.013771 0.421969 63 71 136
0.589951 -0.303684 0.117032 31 163 134
0.651931 -0.183914 0.378536 70 48 125
-0.034904 0.238637 -0.279085 68 1 84
0.534355 -0.069912 -0.000631 32 164 133
-0.664410 -0.338492 0.465471 65 65 134
0.427465 0.353063 0.040868 46 178 124
-0.191120 0.291623 -0.182140 68 1 84
-0.133981 -0.112759 -0.250019 68 1 84
0.033562 0.252378 -0.279624 68 1 84
0.629102 -0.067180 0.396004 66 64 133
0.104855 -0.340547 -0.289759 71 17 99
0.140100 0.606740 -0.025694 60 77 138
0.129934 0.075101 -0.230906 68 1 84
0.504139 -0.336406 -0.061061 167 219 51
0.622299 -0.086320 0.474342 71 18 101
-0.337136 0.535215 0.118768 35 169 130
-0.284161 -0.118375 -0.189529 68 1 84
-0.196849 0.347478 -0.167124 68 1 84
0.679072 -0.455475 0.371083 60 78 138
-0.483770 -0.529108 0.017248 37 131 141
-0.285488 0.412258 -0.095256 68 1 84
0.616771 -0.063145 0.290231 58 83 139
-0.215865 0.298408 -0.163180 68 1 84
-0.644766 -0.307723 0.347010 66 64 133
0.128208 -0.240463 -0.259674 68 1 84
0.150219 -0.375052 -0.254156 69 52 127
-0.567648 -0.247853 0.112410 33 141 140
-0.560889 -0.151679 0.090507 42 117 142
-0.161379 0.121170 -0.242455 68 1 84
0.298100 -0.333752 -0.149437 59 81 138
0.612171 0.007801 0.425460 68 57 130
-0.413691 0.087603 -0.129615 68 1 84
0.178242 -0.181848 -0.218909 68 1 84
-0.649581 -0.386940 0.388525 69 52 127
-0.275733 -0.479865 -0.244324 70 14 97
0.385065 0.481519 0.251357 36 132 141
-0.333706 -0.041214 -0.189211 68 1 84
-0.281944 0.383317 -0.106589 68 1 84
-0.047751 0.573097 -0.185020 68 1 84
0.089340 0.278287 -0.253152 68 1 84
0.468008 0.344544 0.125088 103 204 92
0.000678 0.613175 -0.136146 71 18 101
-0.552954 0.262977 0.380251 57 85 139
-0.659552 -0.341590 0.427152 69 52 127
0.325530 -0.313749 -0.143576 31 146 140
-0.482491 -0.447376 -0.016703 85 198 102
0.400248 0.397261 0.042764 42 176 126
0.187180 0.399135 -0.138826 68 1 84
-0.648319 -0.475447 0.407124 72 28 110
0.125242 0.464521 -0.170719 68 1 84
-0.523893 -0.220597 0.014377 33 142 140
-0.362865 0.218615 -0.120206 72 33 114
0.618232 -0.341358 0.212445 56 86 139
-0.606516 0.013048 0.508084 67 58 131
0.511045 -0.148128 -0.040533 31 148 139
0.587462 0.095056 0.440997 64 68 135
0.404078 0.458170 0.299382 32 145 140
0.145671 0.340247 -0.188163 68 1 84
0.600853 -0.324173 0.152409 40 174 127
-0.111909 -0.445768 -0.300880 72 34 115
0.228188 0.457263 -0.097596 56 87 140
0.041669 -0.067592 -0.462311 68 1 84
-0.071681 -0.395797 -0.268612 55 88 140
-0.529364 0.239945 0.158056 35 135 141
-0.256319 0.121418 -0.207052 68 1 84
-0.159059 0.587472 -0.120766 68 1 84
0.481107 -0.099737 -0.080834 31 148 139
-0.533406 0.234041 0.167798 38 127 142
0.159462 0.191789 -0.226732 68 1 84
0.280117 -0.365705 -0.191634 96 201 96
0.616288 -0.053078 0.297377 49 102 141
-0.635907 -0.296241 0.310998 70 49 126
-0.087508 -0.258146 -0.233837 68 1 84
0.514347 0.279961 0.200464 31 163 134
0.507099 -0.415968 -0.103689 131 211 75
-0.656023 -0.484688 0.441788 71 37 117
0.108809 -0.064357 -0.414127 68 1 84
-0.497479 0.354367 0.232287 37 130 142
0.072641 -0.485949 -0.327959 68 1 84
-0.533645 0.017214 0.046783 32 164 133
-0.400734 0.311979 -0.035505 66 62 133
0.664214 -0.250108 0.435206 72 26 108
-0.376800 0.110139 -0.154276 68 1 84
-0.508175 0.342104 0.259741 36 133 141
-0.176818 0.592406 -0.085944 69 5 88
-0.020381 -0.213946 -0.349343 68 1 84
0.117286 -0.155666 -0.301344 68 1 84
-0.519381 -0.415498 0.060843 134 212 73
0.518480 -0.080759 -0.031658 33 142 140
0.200556 -0.312486 -0.137667 68 1 84
-0.083631 0.177303 -0.278227 68 1 84
-0.108742 0.330855 -0.222064 68 1 84
0.537890 -0.433446 -0.010476 103 204 92
0.202966 -0.311929 -0.137902 68 1 84
0.603409 -0.105086 0.199202 61 76 137
0.485950 0.058087 -0.047199 38 172 129
-0.579951 -0.022863 0.186812 39 126 142
-0.341603 0.521041 0.082790 44 112 142
0.543791 0.111605 0.115366 42 118 142
-0.539874 0.282866 0.308939 45 110 142
0.313158 -0.156011 -0.154961 62 73 137
-0.161116 0.601922 -0.077314 69 50 127
0.122258 -0.067753 -0.390119 68 1 84
-0.484052 -0.468330 -0.002531 100 203 93
-0.586745 0.116240 0.282236 69 52 127
-0.341752 -0.111652 -0.172485 68 1 84
-0.355238 0.467574 0.036504 71 39 119
0.576539 -0.416869 0.098168 59 186 117
-0.510508 -0.086065 -0.020673 30 156 137
-0.572964 0.123204 0.212701 55 89 140
-0.417617 -0.063356 -0.134901 66 61 132
-0.503782 0.333205 0.213377 42 117 142
0.205434 -0.319996 -0.137022 68 1 84
-0.645654 -0.325203 0.355932 55 88 140
0.698282 -0.490515 0.464709 72 26 108
-0.462190 -0.029977 -0.088924 49 102 141
0.655060 -0.404919 0.308252 52 95 141
-0.412914 0.230990 -0.066686 67 60 132
-0.446052 0.341834 0.052312 35 137 141
0.159469 0.360426 -0.170309 68 1 84
0.367109 0.500742 0.234062 33 141 140
0.294260 0.212247 -0.158844 71 15 98
-0.350509 0.229265 -0.125743 68 1 84
-0.289507 0.432544 -0.084712 68 1 84
0.255984 0.399362 -0.098583 55 88 140
-0.469736 -0.511463 -0.026529 36 170 130
0.564475 -0.296456 0.056120 89 199 100
0.640594 -0.291577 0.284538 67 60 132
0.478152 0.039260 -0.065340 30 158 136
0.243677 -0.361510 -0.173600 31 162 134
0.665769 -0.263293 0.416404 70 9 92
-0.575960 -0.351816 0.176967 36 134 141
-0.557887 0.254507 0.397452 61 74 137
0.611486 -0.267000 0.188719 53 93 140
-0.624737 -0.125920 0.354670 67 58 131
-0.167879 -0.430909 -0.242316 72 29 111
-0.631046 -0.199050 0.297860 69 54 129
0.028114 0.473711 -0.221825 68 1 84
0.177513 -0.307997 -0.143634 68 1 84
0.431375 0.127283 -0.095654 35 137 141
-0.606285 -0.177106 0.217868 48 104 141
-0.484389 -0.448394 -0.010937 81 196 104
0.439366 0.228860 -0.028335 34 137 141
-0.223867 -0.397223 -0.188115 34 137 141
0.342106 -0.115216 -0.159423 67 58 131
0.461621 0.373714 0.173386 43 177 125
-0.539352 -0.050539 0.045739 35 137 141
-0.232730 0.568029 -0.036709 71 21 103
-0.365534 -0.099844 -0.164452 68 1 84
0.197289 0.449710 -0.122007 72 32 113
0.559979 0.065441 0.147760 44 112 142
-0.135189 0.529005 -0.185424 68 1 84
0.536046 0.253835 0.334695 38 127 142
-0.297486 0.021100 -0.204934 68 1 84
-0.474795 -0.537236 -0.008294 51 97 141
0.482841 -0.268747 -0.029824 47 105 141
0.037059 -0.383797 -0.314306 68 1 84
-0.534891 -0.301606 0.051728 40 122 142
0.357087 0.257430 -0.092320 30 157 136
-0.401043 0.489796 0.183210 30 155 137
0.403007 -0.152767 -0.126115 34 139 141
-0.037252 -0.030482 -0.411667 68 1 84
-0.462131 -0.292151 -0.034566 31 147 139
-0.064504 -0.032234 -0.378488 68 1 84
-0.156103 0.271813 -0.214655 68 1 84
-0.551964 -0.241652 0.071747 35 136 141
-0.134659 0.304926 -0.221486 68 1 84
0.079897 0.517753 -0.196591 68 1 84
-0.469430 0.013265 -0.074366 44 113 142
-0.080215 -0.374133 -0.208549 56 86 139
-0.078339 0.601042 -0.148843 68 1 84
-0.059943 -0.377483 -0.254495 69 53 128
-0.498830 -0.520283 0.059746 30 157 136
0.553080 0.020234 0.078990 31 150 139
-0.318520 -0.046316 -0.194793 70 9 92
0.618055 -0.140605 0.236932 36 132 141
0.164011 -0.305581 -0.154351 68 1 84
-0.011324 -0.308544 -0.316342 68 1 84
-0.115043 -0.459772 -0.308348 71 18 101
-0.644307 -0.549502 0.418956 72 32 113
0.161957 0.588436 -0.052126 49 102 141
-0.107959 0.117275 -0.266838 68 1 84
0.558540 0.170478 0.248296 39 125 142
0.297231 0.416476 -0.057908 30 153 138
0.025305 0.419581 -0.216560 68 1 84
0.601350 0.051247 0.372405 67 58 131
0.453595 0.386110 0.430782 52 94 141
-0.556369 0.009875 0.115089 31 161 135
-0.550031 0.206846 0.200568 53 93 140
-0.265134 -0.417247 -0.226315 66 61 132
