ply
format ascii 1.0
element vertex 1243
property float x
property float y
property float z
property uchar red
property uchar green
property uchar blue
end_header
-0.589707 0.020646 0.165972 31 163 134
0.478524 0.305124 0.028605 31 146 140
-0.477475 -0.295408 -0.078073 59 80 138
0.309265 -0.000846 -0.209026 69 53 128
-0.047765 0.016105 -0.348785 68 1 84
-0.050833 0.269340 -0.249462 68 1 84
-0.206727 0.088139 -0.177360 68 1 84
-0.634176 -0.319543 0.203606 30 159 136
0.521394 -0.531519 -0.020910 44 112 142
-0.575336 -0.057182 0.016046 34 137 141
-0.353508 -0.216687 -0.172280 68 1 84
0.117059 0.476092 -0.216214 68 1 84
0.055380 -0.370944 -0.303438 68 1 84
0.483780 0.193596 -0.012541 40 122 142
-0.171270 -0.171269 -0.223221 68 1 84
0.250671 0.563323 0.000422 60 78 138
-0.661805 -0.260476 0.500938 91 200 98
0.635937 -0.124677 0.507847 250 230 34
-0.056339 0.283159 -0.240080 68 1 84
0.628511 -0.221852 0.267204 98 202 95
-0.237148 -0.242201 -0.194867 68 1 84
0.651707 -0.443998 0.361860 141 214 68
-0.461231 -0.113646 -0.135030 49 102 141
-0.214087 -0.302297 -0.204850 68 1 84
-0.703752 -0.536124 0.466157 30 152 138
-0.150625 -0.328262 -0.176553 68 1 84
0.552933 0.295819 0.305437 83 197 103
0.071664 -0.474426 -0.324273 72 25 107
0.535641 -0.467533 0.007501 41 121 142
0.603622 -0.041875 0.267489 39 173 128
-0.582644 0.273222 0.365325 85 198 102
-0.486383 -0.219239 -0.105014 47 106 141
-0.279422 -0.161640 -0.185625 68 1 84
-0.042783 -0.433725 -0.314687 68 1 84
-0.305846 -0.096339 -0.206094 68 1 84
-0.316288 -0.391108 -0.235682 68 1 84
0.507925 0.216728 0.029616 36 134 141
0.489684 -0.324445 -0.039902 56 86 139
-0.176945 0.266293 -0.180419 68 1 84
-0.574718 -0.052163 0.017345 31 147 139
0.079977 0.242577 -0.240124 68 1 84
-0.616168 -0.162742 0.125490 41 175 127
-0.395588 0.000884 -0.176447 70 45 124
0.061891 -0.235028 -0.327195 68 1 84
0.518066 0.314973 0.464042 154 216 60
-0.324000 0.180808 -0.110665 68 1 84
-0.087264 0.048288 -0.262103 68 1 84
0.205464 -0.083562 -0.222761 68 1 84
-0.109898 -0.377734 -0.219733 68 1 84
0.438430 0.379424 0.034559 36 132 141
-0.218743 -0.468304 -0.304731 69 6 90
0.198097 -0.213374 -0.196745 68 1 84
-0.437432 -0.120447 -0.150806 61 74 137
0.374321 0.209532 -0.097320 68 55 129
0.521138 -0.485199 -0.025061 42 117 142
-0.492861 0.347153 0.075280 31 147 139
0.028397 0.014232 -0.325475 68 1 84
0.649673 -0.438541 0.358008 131 211 75
0.178679 0.429353 -0.167470 68 3 87
-0.213865 0.429188 -0.148545 68 1 84
-0.195989 -0.312014 -0.194589 68 1 84
-0.630148 0.054938 0.518128 121 209 81
0.406054 -0.417272 -0.227480 70 48 125
0.629832 -0.218394 0.294712 114 207 85
0.013935 0.571965 -0.235927 71 15 98
-0.413352 -0.005125 -0.167204 69 53 128
-0.390031 0.540771 0.144167 35 135 141
-0.470480 -0.194804 -0.123575 43 116 142
-0.623127 0.131146 0.421658 112 206 86
0.455881 0.102310 -0.071480 46 108 142
-0.065687 0.287942 -0.235552 68 1 84
0.621824 -0.340052 0.232803 42 176 126
0.603861 -0.208015 0.126150 33 166 133
0.045685 0.015536 -0.299509 68 1 84
0.057443 0.479866 -0.248770 68 1 84
0.627565 -0.039739 0.487583 175 220 46
0.043175 0.004585 -0.356622 68 1 84
0.632619 -0.304488 0.284688 42 176 126
-0.638737 -0.004656 0.563706 77 194 107
0.039060 0.024489 -0.414052 68 1 84
0.066463 0.001786 -0.361393 68 1 84
-0.614010 0.165215 0.311856 66 190 113
-0.161156 -0.122332 -0.241217 68 1 84
-0.034373 0.244359 -0.254979 68 1 84
0.547895 0.013482 0.035706 39 125 142
-0.403120 0.368211 -0.016308 53 93 140
0.442251 -0.263712 -0.121039 70 48 125
0.461701 0.177858 -0.038321 43 116 142
-0.423801 0.382299 0.015277 44 112 142
-0.513183 0.398820 0.228728 43 177 125
-0.566415 0.033461 0.065114 36 170 130
-0.653005 -0.090262 0.402159 134 212 73
-0.548125 -0.114105 -0.047568 33 140 141
0.063775 -0.220855 -0.331647 68 1 84
0.363021 0.224752 -0.098512 69 54 129
0.013726 -0.229391 -0.385094 68 1 84
0.540241 -0.164675 -0.046143 40 123 142
-0.644716 -0.192636 0.317818 68 190 112
0.326127 -0.352588 -0.195418 70 12 95
-0.620033 -0.139213 0.196228 43 177 125
-0.075670 -0.209854 -0.338533 68 1 84
-0.661715 -0.164736 0.532323 61 187 116
0.486537 0.113184 -0.032123 37 130 142
0.516355 -0.199954 -0.073538 49 101 141
-0.018685 0.293081 -0.235323 68 1 84
-0.506975 -0.137236 -0.096360 39 126 142
-0.558331 0.298845 0.200062 66 190 113
-0.158088 0.344428 -0.183939 68 1 84
-0.423000 -0.406127 -0.213339 68 57 130
0.100255 -0.452692 -0.317501 68 1 84
-0.577445 0.276884 0.400751 89 199 100
0.582360 0.051906 0.200605 33 167 132
-0.641302 -0.509330 0.249574 47 179 123
-0.228826 0.458678 -0.143573 68 1 84
-0.100675 -0.166004 -0.305102 68 1 84
0.448092 0.463054 0.210878 31 163 134
0.160667 0.074577 -0.199065 68 1 84
-0.191047 -0.161304 -0.217153 68 1 84
0.483728 -0.166080 -0.114940 59 81 138
0.492039 0.049195 -0.050218 43 115 142
0.434449 -0.313295 -0.100327 70 48 125
0.617329 -0.290582 0.205497 41 175 127
0.634951 -0.296789 0.476716 250 230 34
-0.419545 0.486077 0.101722 43 116 142
0.393496 -0.448270 -0.243629 67 59 131
0.629973 -0.256284 0.291285 94 201 97
0.061247 0.647834 -0.121547 65 65 134
0.638906 -0.112024 0.427220 162 218 55
0.435327 0.022033 -0.133559 56 87 140
-0.654548 -0.221208 0.386095 141 214 68
0.031670 0.582557 -0.227342 72 26 108
0.343140 -0.402355 -0.242853 71 44 123
0.148097 0.444921 -0.188481 68 1 84
0.389402 -0.535665 -0.249231 71 18 101
0.284628 0.560316 0.048934 50 99 141
0.008284 0.161000 -0.270064 68 1 84
-0.027755 0.129572 -0.259882 68 1 84
0.096517 -0.412386 -0.295247 68 1 84
-0.571193 0.291864 0.397905 94 201 97
0.689097 -0.529678 0.456263 43 177 125
0.086366 -0.301375 -0.243076 68 1 84
0.290731 -0.525446 -0.310087 53 92 140
-0.430945 -0.393784 -0.194337 66 64 133
-0.150360 -0.383197 -0.212757 68 1 84
0.177266 -0.135637 -0.229906 68 1 84
0.015144 -0.225772 -0.386379 68 1 84
0.179346 -0.100054 -0.227280 68 1 84
0.293253 0.564761 0.066081 47 106 141
-0.324341 0.513771 0.017840 56 87 140
0.581272 -0.557917 0.145001 39 126 142
0.330119 -0.459913 -0.277643 70 45 124
-0.411864 -0.114779 -0.165903 71 40 120
0.455172 0.042802 -0.101442 54 91 140
0.638971 -0.139818 0.511090 236 228 26
-0.092369 -0.079581 -0.415796 68 1 84
0.139464 0.326064 -0.193142 68 1 84
0.528961 -0.107331 -0.058744 43 116 142
0.558393 0.223731 0.191832 62 188 115
-0.600431 -0.035914 0.189572 30 157 136
0.644251 -0.158223 0.437099 170 219 50
0.376569 -0.132305 -0.185862 58 83 139
0.492338 -0.118112 -0.104929 52 95 141
0.640596 -0.390274 0.469950 202 224 30
-0.602313 -0.075019 0.143506 34 139 141
0.006741 0.037015 -0.422029 68 1 84
-0.659585 -0.078407 0.435070 144 214 67
-0.059602 0.361338 -0.216503 68 1 84
-0.264451 -0.498708 -0.319067 69 53 128
0.624480 -0.011646 0.390865 89 199 100
-0.215538 -0.464113 -0.301267 68 1 84
-0.205926 0.098691 -0.178688 68 1 84
0.539772 -0.151791 -0.046792 42 119 142
-0.442186 -0.376500 -0.160166 68 57 130
-0.618816 -0.107424 0.233919 31 163 134
0.179966 -0.130742 -0.229493 68 1 84
-0.098854 0.518741 -0.239679 71 15 98
0.142955 0.082163 -0.210346 68 1 84
-0.500362 0.009770 -0.067513 42 118 142
-0.012665 0.451642 -0.256981 68 1 84
0.199853 -0.479280 -0.323688 65 66 134
-0.197434 -0.326616 -0.189738 68 1 84
0.006064 0.042695 -0.347240 68 1 84
-0.022508 0.142153 -0.265743 68 1 84
-0.672510 -0.397004 0.331430 71 192 110
0.416077 -0.160371 -0.165981 47 106 141
0.436037 0.471521 0.141521 33 141 140
0.338131 -0.427161 -0.265935 70 49 126
0.422742 0.488958 0.136743 31 149 139
0.442579 0.116705 -0.078289 50 98 141
0.163460 0.178013 -0.214636 68 1 84
0.639343 -0.192649 0.394490 144 214 67
0.164582 0.040958 -0.191150 68 1 84
-0.584915 -0.434060 0.087972 30 152 138
-0.192163 0.160282 -0.199713 68 1 84
-0.305358 0.516943 -0.009217 55 88 140
0.469140 -0.504746 -0.150735 63 71 136
-0.625423 -0.030694 0.281077 36 170 130
-0.679342 -0.446579 0.357558 89 199 100
0.405016 0.190199 -0.082520 63 69 135
0.311987 0.555732 0.070596 49 100 141
-0.420104 0.527975 0.221603 30 153 138
0.169739 0.026134 -0.186225 68 1 84
-0.519508 -0.131134 -0.083379 35 135 141
-0.636816 0.009551 0.555464 50 181 122
0.564855 0.001173 0.099619 32 144 140
0.444119 0.185556 -0.051040 47 105 141
-0.379753 0.041345 -0.174401 72 33 114
-0.327360 -0.363608 -0.203546 68 1 84
0.242264 0.086707 -0.157619 68 1 84
-0.134682 -0.080337 -0.278853 68 1 84
-0.571962 0.293601 0.264180 83 197 103
-0.463194 0.474956 0.213107 31 162 134
-0.521673 0.378343 0.204520 34 167 132
0.309627 0.560165 0.075761 44 112 142
0.138061 0.612985 -0.137636 56 86 139
-0.498480 0.407319 0.171935 36 170 130
0.642547 -0.200442 0.420579 139 213 70
-0.167318 0.053497 -0.196984 68 1 84
-0.219946 -0.403874 -0.252781 68 1 84
0.611504 -0.248219 0.172504 33 140 141
-0.553734 0.326784 0.419441 62 188 115
0.204745 -0.075199 -0.221027 68 1 84
-0.654610 -0.381965 0.446451 81 196 104
0.410071 0.024131 -0.157150 61 76 137
-0.646124 -0.060620 0.517843 119 208 82
-0.073594 0.635577 -0.177855 72 32 113
0.516413 0.351049 0.378207 139 213 70
-0.326305 0.026806 -0.198071 68 1 84
-0.545252 -0.330594 0.004216 48 104 141
-0.634974 -0.007941 0.323288 119 208 82
-0.084610 -0.114886 -0.401240 68 1 84
-0.445301 0.495415 0.184120 30 157 136
0.639591 -0.258824 0.482341 243 229 30
-0.616563 -0.173557 0.123139 35 169 130
0.220445 -0.082086 -0.222443 68 1 84
-0.240136 -0.298642 -0.211014 68 1 84
-0.559178 -0.528413 0.052845 35 136 141
0.629809 -0.211087 0.293774 119 208 82
0.585445 -0.438049 0.132484 31 147 139
-0.270566 0.388260 -0.102104 68 1 84
0.293404 0.202559 -0.113767 70 9 92
-0.657097 -0.332230 0.483207 96 201 96
0.550145 -0.134416 -0.027665 31 148 139
-0.453559 -0.339019 -0.108309 70 47 124
0.138519 0.616061 -0.120806 63 71 136
0.173965 -0.030869 -0.195682 68 1 84
-0.482166 0.449467 0.243111 30 160 135
-0.553913 0.298438 0.499629 31 161 135
0.241319 -0.030871 -0.215627 68 1 84
0.313460 0.457087 -0.040347 60 77 138
-0.612048 0.119681 0.523693 75 194 108
-0.060866 -0.490337 -0.326828 66 61 132
0.561340 0.268514 0.352538 109 206 88
-0.546044 -0.000780 -0.011775 40 123 142
-0.534064 -0.377512 -0.006839 56 87 140
-0.627065 -0.175856 0.205647 41 175 127
-0.636142 0.069022 0.449475 139 213 70
-0.016949 -0.116915 -0.444781 68 1 84
0.647663 -0.473449 0.328203 85 198 102
-0.408621 0.374779 -0.005549 56 86 139
0.000574 -0.449654 -0.323981 68 1 84
-0.597031 0.197640 0.507797 51 182 121
0.575234 0.129003 0.187631 71 192 110
0.106300 0.478210 -0.223912 68 1 84
-0.435951 -0.292424 -0.122622 69 53 128
0.574219 0.138434 0.187602 73 193 109
-0.664828 -0.234424 0.478135 89 199 100
0.130788 0.254809 -0.203602 68 1 84
-0.631876 0.081953 0.357866 124 210 79
-0.417233 0.116305 -0.110962 66 62 133
0.429067 0.145160 -0.077663 61 74 137
0.480983 0.040842 -0.069035 44 112 142
-0.650138 -0.062848 0.506404 131 211 75
-0.417155 0.107224 -0.116465 65 65 134
0.371534 0.410184 -0.010703 54 90 140
-0.495688 -0.215743 -0.097953 43 115 142
-0.643364 -0.382837 0.224877 46 178 124
0.514565 -0.388934 -0.017644 32 144 140
0.566073 -0.270920 0.034584 33 140 141
0.625265 -0.165317 0.298139 62 188 115
0.151738 0.438611 -0.185612 68 1 84
0.509378 0.028585 -0.034084 44 114 142
0.533754 -0.161035 -0.056108 45 111 142
-0.189456 0.000890 -0.183394 68 1 84
0.390698 -0.509621 -0.251193 71 43 122
-0.134565 -0.130325 -0.260648 68 1 84
0.021618 -0.067908 -0.471742 68 1 84
0.563882 -0.023855 0.058070 34 139 141
-0.307213 0.412981 -0.072510 68 3 87
-0.115378 -0.484415 -0.327059 70 14 97
0.590214 0.180951 0.367985 112 206 86
0.573693 -0.407595 0.092271 35 168 131
0.335327 0.014470 -0.200183 69 50 127
-0.612041 -0.097291 0.201498 30 155 137
0.557546 0.074588 0.109775 31 161 135
0.637734 -0.394471 0.424215 107 205 89
0.184017 0.351145 -0.163726 68 1 84
0.412043 0.038614 -0.149978 72 34 115
-0.062472 0.004338 -0.351299 68 1 84
-0.639111 -0.426886 0.213012 35 169 130
0.581565 0.127821 0.208262 51 182 121
0.656187 -0.430193 0.417189 173 220 48
0.312554 0.494323 -0.004301 59 81 138
0.641618 -0.192055 0.410618 134 212 73
-0.164024 -0.155687 -0.235731 68 1 84
-0.248366 0.214677 -0.115369 68 1 84
-0.407310 0.507935 0.112842 31 146 140
-0.633952 -0.326278 0.203961 30 158 136
-0.082262 0.646721 -0.137311 72 35 116
-0.466415 0.284568 -0.010619 40 122 142
0.584419 -0.339236 0.099565 33 167 132
0.237316 0.314619 -0.124518 68 1 84
0.689518 -0.506494 0.436340 151 216 62
-0.620493 -0.106239 0.244062 30 157 136
0.518801 0.337124 0.415435 144 214 67
-0.151753 -0.391984 -0.223516 68 1 84
-0.530740 -0.037376 -0.049132 37 131 141
-0.587881 0.070030 0.166436 56 185 118
0.201109 0.035064 -0.174428 68 1 84
0.437985 0.406017 0.060192 38 128 142
0.598251 -0.252725 0.116561 30 158 136
-0.135398 0.199152 -0.216180 68 1 84
-0.142865 0.514726 -0.215788 68 1 84
-0.170499 -0.099386 -0.231650 68 1 84
0.469009 -0.469852 -0.145256 67 60 132
0.298057 0.361895 -0.086460 62 72 136
0.251065 0.160939 -0.143219 68 1 84
-0.527672 -0.431050 -0.029521 48 103 141
-0.044723 0.360726 -0.219408 68 1 84
0.468510 -0.267468 -0.093823 52 95 141
-0.535966 0.121142 0.031870 36 133 141
0.211710 0.104127 -0.171262 68 1 84
-0.220005 0.503924 -0.150699 68 1 84
0.538318 -0.377866 0.020068 32 144 140
0.413875 -0.349481 -0.128418 71 39 119
-0.159753 0.419377 -0.182791 68 1 84
0.339546 0.034323 -0.193230 70 48 125
0.026720 0.628501 -0.192827 70 47 124
0.484776 -0.438302 -0.102915 57 85 139
0.629521 -0.157085 0.355423 112 206 86
-0.150231 -0.019179 -0.284344 68 1 84
-0.089363 0.411411 -0.224329 68 1 84
-0.192651 0.343342 -0.161356 68 1 84
0.641832 -0.392437 0.478537 189 222 38
-0.629252 0.094808 0.344740 103 204 92
0.223660 -0.097664 -0.222046 68 1 84
0.549945 -0.473410 0.041486 35 136 141
0.597520 -0.419132 0.166884 30 151 138
-0.556750 0.161723 0.085738 32 165 133
-0.041107 0.637685 -0.184469 72 29 111
-0.059339 -0.343010 -0.303907 68 1 84
-0.173577 -0.481352 -0.327746 68 1 84
0.300179 0.561233 0.066971 48 104 141
-0.604664 -0.199695 0.064948 31 161 135
-0.467625 0.109666 -0.070913 52 94 141
0.027028 -0.275552 -0.356537 68 1 84
0.260209 0.379555 -0.106976 72 25 107
0.437406 0.217247 -0.048206 49 102 141
-0.541804 0.278787 0.116123 47 179 123
0.005832 -0.362246 -0.324232 68 1 84
-0.478254 -0.307971 -0.073217 55 89 140
0.264044 0.413527 -0.105058 66 64 133
-0.487045 -0.517985 -0.124724 32 143 140
0.557586 -0.314336 0.036130 35 136 141
0.308884 0.135864 -0.138583 69 6 90
0.537996 -0.472724 0.013147 41 121 142
0.596054 0.156682 0.369929 131 211 75
-0.181601 0.451189 -0.177297 68 1 84
0.578374 0.222246 0.280343 103 204 92
-0.625648 0.119097 0.429543 112 206 86
0.522866 0.338741 0.381425 136 213 71
0.201900 0.246097 -0.134703 68 1 84
-0.605582 -0.462669 0.144557 30 160 135
0.101762 0.027040 -0.247187 68 1 84
-0.457863 0.485222 0.235917 30 156 137
-0.197220 -0.349621 -0.188433 68 1 84
-0.207339 0.278334 -0.148317 68 1 84
0.467183 -0.396421 -0.120382 50 98 141
0.641347 -0.181843 0.408672 134 212 73
-0.085273 0.241122 -0.243308 68 1 84
0.015999 0.298577 -0.234822 68 1 84
0.623539 -0.044922 0.500948 199 224 31
0.143166 0.439950 -0.190341 68 1 84
-0.437370 -0.430973 -0.201940 67 59 131
-0.607533 -0.139818 0.084455 30 154 137
-0.351425 0.405775 -0.032644 70 47 124
-0.231098 -0.245890 -0.196366 68 1 84
0.266272 -0.022121 -0.216514 68 1 84
-0.568222 -0.423517 0.048254 36 132 141
0.101135 -0.382831 -0.251826 68 1 84
-0.625147 -0.269476 0.159156 35 169 130
0.576283 0.153708 0.496633 112 206 86
-0.207885 0.203925 -0.157575 68 1 84
0.165076 0.534976 -0.182293 72 34 115
0.534088 0.158625 0.070070 30 153 138
0.459221 0.447446 0.261574 51 182 121
0.609330 -0.240873 0.159284 34 138 141
0.062125 0.094250 -0.257310 68 1 84
-0.644655 0.027495 0.440802 109 206 88
0.581742 -0.070572 0.115953 31 162 134
-0.591614 0.093024 0.181904 47 179 123
-0.000359 -0.362439 -0.325187 68 1 84
-0.370951 -0.134953 -0.181449 70 12 95
0.553785 0.294938 0.285067 89 199 100
-0.655735 -0.524952 0.277013 71 192 110
-0.684443 -0.446771 0.385297 85 198 102
0.448853 -0.181015 -0.144966 49 100 141
-0.654421 -0.084791 0.410271 141 214 68
0.568473 0.065149 0.148930 30 157 136
0.624571 -0.132871 0.341617 71 192 110
-0.226335 0.016832 -0.179905 68 1 84
-0.173493 -0.409803 -0.245719 68 1 84
0.552338 0.213749 0.157707 44 177 125
0.541376 -0.180278 -0.042174 38 127 142
-0.223725 0.196400 -0.152237 68 1 84
-0.391284 -0.274959 -0.167274 70 48 125
-0.452761 0.487005 0.191627 32 165 133
-0.414130 0.003758 -0.164744 69 52 127
-0.091104 0.270035 -0.240822 68 1 84
0.309075 -0.402943 -0.210623 72 29 111
-0.412073 0.263425 -0.061896 71 21 103
0.570761 0.017546 0.155211 36 170 130
-0.272743 0.212107 -0.109903 68 1 84
0.633553 -0.134125 0.384867 134 212 73
-0.499251 -0.491689 -0.098873 52 94 141
-0.521001 -0.278567 -0.042517 49 101 141
-0.540152 -0.472926 -0.005068 33 141 140
-0.630085 0.100473 0.379021 83 197 103
0.278623 0.489641 -0.058934 69 50 127
-0.597824 -0.164633 0.044569 31 163 134
0.140170 0.440040 -0.192231 68 1 84
0.042066 0.507810 -0.252215 68 1 84
0.597079 0.145564 0.290540 116 208 84
0.345695 0.444818 -0.011016 63 69 135
0.610903 -0.299183 0.181052 42 176 126
-0.449428 0.450933 0.110887 30 151 138
-0.605811 -0.004370 0.216511 31 147 139
-0.606105 0.133270 0.238970 54 184 119
0.581204 0.154792 0.476398 162 218 55
0.426449 -0.519483 -0.210771 72 32 113
0.640671 -0.238324 0.420288 165 218 53
-0.571666 0.239685 0.176939 51 182 121
-0.221876 0.520342 -0.144079 68 1 84
0.383772 -0.272322 -0.163319 64 68 135
-0.531272 -0.154837 -0.071106 35 137 141
0.528542 0.330287 0.213173 56 185 118
0.235273 0.557338 -0.050841 58 82 139
0.254944 0.069216 -0.166102 68 1 84
0.326756 -0.354755 -0.194720 71 21 103
-0.491466 -0.127865 -0.110593 40 122 142
-0.244256 0.174852 -0.142761 68 1 84
0.630158 -0.251875 0.312765 116 208 84
-0.151515 0.601304 -0.161235 67 58 131
-0.621405 0.142453 0.401335 94 201 97
-0.359090 -0.144965 -0.181600 68 1 84
-0.547503 -0.408946 0.008303 50 99 141
0.034033 -0.081342 -0.460610 68 1 84
-0.081842 0.353778 -0.210318 68 1 84
0.286358 0.128396 -0.139882 68 1 84
-0.191648 0.604264 -0.065676 58 83 139
0.562604 0.271024 0.289378 81 196 104
-0.048668 0.025700 -0.323782 68 1 84
0.535706 0.246969 0.122996 31 162 134
0.314113 -0.246145 -0.190178 70 11 94
-0.020440 0.644074 -0.174414 71 44 123
-0.086286 0.646456 -0.132234 69 53 128
0.555914 -0.430049 0.053417 32 143 140
-0.606297 -0.376402 0.131503 32 145 140
-0.475641 -0.119977 -0.124081 46 107 142
0.181604 0.368217 -0.163762 68 1 84
-0.115000 0.620027 -0.173007 71 39 119
0.616151 -0.020892 0.534535 136 213 71
-0.655247 -0.212581 0.389702 124 210 79
0.182055 0.121840 -0.193476 68 1 84
0.594367 -0.072057 0.222500 31 148 139
-0.530855 0.082851 0.009611 40 122 142
-0.522748 -0.021238 -0.052762 46 109 142
-0.063152 -0.353660 -0.298925 68 1 84
-0.615911 -0.155763 0.128066 39 173 128
-0.263364 0.578928 0.029729 64 67 135
-0.202707 -0.144815 -0.220505 68 1 84
-0.376020 -0.309063 -0.181915 68 2 85
0.483767 0.393971 0.396758 89 199 100
0.683827 -0.493110 0.395578 178 221 44
0.448709 -0.312854 -0.084667 71 22 105
-0.596079 -0.045956 0.151397 35 136 141
0.439865 -0.415499 -0.185902 59 81 138
0.385421 -0.330990 -0.162426 72 34 115
-0.143987 0.613117 -0.152612 72 30 112
0.636244 -0.197927 0.375142 100 203 93
0.177725 -0.061533 -0.211891 68 1 84
-0.211011 0.200502 -0.160345 68 1 84
-0.199515 0.524044 -0.165076 69 5 88
0.099553 0.183603 -0.244202 68 1 84
0.048811 -0.146677 -0.405433 68 1 84
0.229421 -0.419891 -0.267161 68 1 84
-0.182448 -0.200082 -0.197031 68 1 84
-0.613501 -0.109277 0.193540 30 155 137
0.636959 -0.332932 0.392081 141 214 68
-0.371861 -0.346989 -0.182419 68 1 84
0.382203 0.293331 -0.072429 52 95 141
0.629423 -0.269084 0.269703 73 193 109
-0.454259 0.486815 0.264377 31 148 139
0.353734 -0.014574 -0.199680 62 72 136
0.106925 0.586917 -0.198595 71 39 119
0.250405 -0.441394 -0.283471 68 1 84
-0.081304 0.134366 -0.259826 68 1 84
-0.097136 -0.037805 -0.415948 68 1 84
-0.039634 0.645709 -0.168914 68 55 129
0.479404 0.414270 0.217229 50 181 122
0.386191 0.064574 -0.158996 65 66 134
-0.100253 0.427249 -0.224090 68 1 84
0.417577 -0.372307 -0.152531 57 85 139
-0.533017 -0.020923 -0.039338 37 131 141
-0.195107 0.038471 -0.180154 68 1 84
0.644548 -0.180228 0.482727 212 225 26
-0.262585 0.520823 -0.086812 60 77 138
0.544089 -0.208942 -0.030794 42 117 142
0.045042 0.616645 -0.200814 71 43 122
-0.691402 -0.522772 0.381358 170 219 50
-0.303365 0.563270 0.061037 39 124 142
-0.392986 -0.108614 -0.176395 71 40 120
-0.629343 -0.473487 0.217668 31 149 139
-0.357417 0.044989 -0.183333 70 12 95
-0.185274 0.325749 -0.167752 68 1 84
-0.588502 0.170114 0.189157 56 185 118
0.650162 -0.450684 0.348722 124 210 79
-0.153476 -0.044049 -0.271628 68 1 84
-0.580926 -0.487150 0.087371 30 156 137
0.253356 -0.401159 -0.255282 68 1 84
0.494915 0.386029 0.369560 107 205 89
0.613874 -0.085717 0.299425 68 190 112
0.455288 -0.225860 -0.129361 58 83 139
-0.631181 0.097348 0.412446 85 198 102
0.204108 0.167324 -0.180085 68 1 84
-0.437129 -0.420095 -0.200442 69 54 129
-0.246513 0.563053 -0.052533 62 72 136
-0.416277 -0.479389 -0.229048 54 91 140
0.605074 -0.143403 0.158771 64 189 114
0.579669 0.220275 0.287745 96 201 96
-0.313556 -0.159368 -0.183356 68 1 84
-0.260636 -0.337344 -0.203288 68 1 84
0.450719 -0.105677 -0.141457 65 65 134
-0.661864 -0.115373 0.478055 105 204 91
0.102040 0.270316 -0.228183 68 1 84
-0.594870 -0.048372 0.135702 31 148 139
0.379033 -0.543249 -0.258190 70 11 94
0.597126 -0.203435 0.097259 30 156 137
-0.445759 -0.133561 -0.144938 60 77 138
0.174223 0.085150 -0.192581 68 1 84
0.020374 -0.020074 -0.477503 68 1 84
0.009122 -0.246969 -0.379498 68 1 84
0.570516 0.182876 0.480304 194 223 34
-0.354764 -0.335716 -0.193198 68 2 85
0.626404 -0.407367 0.239746 32 164 133
-0.665077 -0.556607 0.301436 129 211 76
-0.630516 -0.145308 0.273351 37 171 129
0.499380 0.383056 0.218947 62 188 115
0.629934 -0.222844 0.300464 107 205 89
-0.065657 -0.413640 -0.302323 68 1 84
-0.631171 -0.146749 0.276626 33 166 133
-0.414481 0.308633 -0.043182 66 62 133
-0.048100 0.326795 -0.216726 68 1 84
0.552981 0.277393 0.383458 159 217 56
0.131610 0.484817 -0.207786 68 1 84
-0.452505 -0.293427 -0.104746 66 61 132
0.430966 -0.345333 -0.111766 71 42 121
-0.087129 -0.096678 -0.413017 68 1 84
-0.219766 -0.199240 -0.184109 68 1 84
-0.618088 0.145181 0.310980 73 193 109
0.526158 0.256466 0.098679 38 172 129
0.243290 0.430932 -0.123595 71 44 123
0.129990 -0.017315 -0.316666 68 1 84
0.682313 -0.461686 0.451521 189 222 38
-0.293200 -0.124804 -0.200671 68 1 84
0.574782 -0.019540 0.165222 31 149 139
0.369502 0.025496 -0.184332 63 71 136
0.550655 -0.217923 -0.016806 41 121 142
0.597561 -0.367571 0.147544 30 158 136
-0.631134 -0.153756 0.269996 47 179 123
-0.007784 0.654497 -0.148474 64 67 135
-0.405247 0.533044 0.159848 34 139 141
0.117818 0.025346 -0.219548 68 1 84
-0.558734 -0.157249 -0.036566 35 135 141
0.317098 0.336916 -0.088543 55 89 140
0.581313 -0.068835 0.115885 30 158 136
-0.225783 0.232445 -0.120467 68 1 84
-0.078528 -0.359287 -0.280813 68 1 84
-0.059767 0.425829 -0.244913 68 1 84
0.549258 0.248629 0.180199 46 178 124
0.100968 0.483586 -0.227871 68 1 84
-0.292040 0.057956 -0.185375 68 1 84
0.416782 0.397608 0.024092 49 100 141
-0.325884 -0.100655 -0.200488 68 2 85
-0.406306 -0.490548 -0.240029 52 95 141
-0.468627 0.336477 0.021770 42 117 142
-0.186632 0.180095 -0.202680 68 1 84
-0.101729 -0.012281 -0.376301 68 1 84
0.596761 0.130240 0.273246 112 206 86
0.392622 0.531344 0.161529 39 173 128
-0.483948 0.258918 -0.003410 35 136 141
0.493086 0.375546 0.421173 124 210 79
0.236754 -0.143800 -0.210926 68 1 84
0.126909 0.242125 -0.204761 68 1 84
-0.200641 -0.142176 -0.222726 68 1 84
-0.341065 -0.441291 -0.269110 72 26 108
-0.601993 0.194477 0.265124 68 190 112
0.220695 0.244767 -0.126686 68 1 84
0.636477 -0.386956 0.427077 144 214 67
-0.640392 -0.002754 0.352565 116 208 84
0.097904 0.507420 -0.231032 68 1 84
-0.609987 0.163690 0.467588 83 197 103
-0.271049 0.526675 -0.062551 60 77 138
0.648524 -0.522315 0.320195 57 185 118
0.504914 -0.126434 -0.092334 46 108 142
0.220478 -0.033325 -0.211392 68 1 84
-0.030691 0.578086 -0.236851 71 20 102
-0.093674 0.463968 -0.238077 68 1 84
0.628050 -0.230384 0.259716 119 208 82
-0.656838 -0.240502 0.405926 79 195 105
0.510233 -0.539757 -0.048481 55 88 140
0.072999 0.644322 -0.125974 56 87 140
-0.648362 -0.285081 0.282410 64 189 114
0.636530 -0.097115 0.478979 175 220 46
0.398944 0.520589 0.142637 31 149 139
-0.622587 -0.068182 0.265370 30 154 137
0.579085 -0.292360 0.070185 40 122 142
-0.525128 0.014819 -0.033699 40 123 142
0.593695 0.147231 0.419871 167 219 51
0.657364 -0.436864 0.400081 173 220 48
-0.008335 0.581963 -0.234627 72 28 110
0.628778 -0.118947 0.371791 103 204 92
0.563976 -0.231105 0.011666 31 149 139
0.609423 -0.259951 0.166188 30 153 138
-0.620697 0.010246 0.265795 46 178 124
0.558566 0.241732 0.209290 51 182 121
0.079479 0.579117 -0.216787 72 35 116
0.497181 -0.221279 -0.089511 49 102 141
0.095481 -0.370205 -0.238881 68 1 84
0.384740 -0.346569 -0.159202 71 37 117
-0.534924 -0.023458 -0.037936 36 134 141
0.641847 -0.163988 0.511236 220 226 24
-0.147987 0.461192 -0.203622 68 1 84
-0.390432 0.266809 -0.076295 70 48 125
0.575130 0.116923 0.184040 32 165 133
0.594728 0.134816 0.444939 170 219 50
0.039598 0.020790 -0.422561 68 1 84
-0.143594 0.130233 -0.231443 68 1 84
0.157990 0.417195 -0.178449 68 1 84
-0.463889 0.357076 0.035290 43 116 142
-0.555583 -0.529736 0.044740 37 130 142
-0.463206 0.291960 -0.010497 45 111 142
-0.642385 -0.029602 0.358766 109 206 88
-0.195114 -0.497632 -0.330679 68 3 87
0.606184 0.004829 0.290412 81 196 104
0.525730 0.240736 0.083722 31 148 139
0.088646 -0.051011 -0.397241 68 1 84
-0.532326 -0.276096 -0.031725 54 91 140
-0.438382 0.490968 0.146734 31 148 139
-0.022563 0.650304 -0.160964 61 76 137
0.447094 -0.036697 -0.140165 49 102 141
-0.111353 -0.107794 -0.305572 68 1 84
0.632904 -0.106254 0.511104 212 225 26
0.248676 0.583184 0.057868 65 65 134
-0.048467 -0.174459 -0.400219 68 1 84
0.454953 0.308259 -0.001915 41 120 142
0.374916 0.485188 0.047782 42 117 142
-0.498384 0.260861 0.014276 36 134 141
0.189173 0.128106 -0.189004 68 1 84
0.607926 -0.098767 0.265173 35 168 131
0.298046 0.491268 -0.027671 61 76 137
0.518755 0.002225 -0.032425 38 128 142
-0.146988 -0.441933 -0.303775 68 1 84
-0.161218 -0.033995 -0.217920 68 1 84
0.259554 -0.520708 -0.319328 65 66 134
0.396599 0.447742 0.041667 50 99 141
-0.004499 0.313706 -0.224780 68 1 84
-0.656172 -0.352828 0.410580 136 213 71
-0.606904 -0.118564 0.094955 31 161 135
-0.539069 0.064012 0.016145 41 120 142
0.212087 0.377150 -0.141694 68 1 84
0.024355 -0.303105 -0.343971 68 1 84
0.626443 -0.208935 0.253100 59 186 117
-0.538343 0.293333 0.124034 37 171 129
0.454332 0.148664 -0.054011 44 114 142
-0.616708 -0.293222 0.129656 33 141 140
-0.485706 -0.517537 -0.128182 33 142 140
0.262331 0.514584 -0.059036 61 75 137
0.180543 -0.414477 -0.260544 68 1 84
0.593527 0.111033 0.246894 157 217 58
0.076376 -0.073204 -0.417285 68 1 84
0.050754 0.048078 -0.278016 68 1 84
-0.089265 -0.018563 -0.420900 68 1 84
0.548690 0.293983 0.364048 136 213 71
0.557661 -0.304273 0.032465 36 134 141
-0.516229 -0.432424 -0.050484 43 115 142
-0.585002 0.075518 0.157309 42 176 126
0.433730 -0.355154 -0.120099 70 45 124
-0.545062 -0.060491 -0.038980 35 136 141
-0.561853 -0.354042 0.029105 38 129 142
-0.622015 -0.450073 0.182074 30 157 136
-0.321237 0.267077 -0.090848 68 1 84
0.580375 0.181278 0.237063 73 193 109
-0.336972 0.546501 0.074516 40 123 142
0.357735 0.175642 -0.114551 65 65 134
-0.577099 -0.427495 0.068427 31 150 139
-0.527320 0.123733 0.016701 39 124 142
0.241612 0.554481 -0.040571 57 84 139
0.068791 -0.132492 -0.389439 68 1 84
-0.191598 -0.127062 -0.228018 68 1 84
-0.522257 -0.428782 -0.038571 53 92 140
0.268317 -0.203877 -0.186241 72 25 107
-0.466970 -0.335853 -0.087888 66 64 133
-0.475445 0.288124 -0.000395 36 134 141
0.348184 -0.190871 -0.177451 69 50 127
0.558959 0.095480 0.121324 30 153 138
0.273119 0.125248 -0.141950 68 3 87
-0.469078 -0.442431 -0.154107 52 94 141
0.343507 -0.456341 -0.272674 67 58 131
-0.370241 -0.147266 -0.177985 68 1 84
0.083285 -0.088911 -0.391537 68 1 84
-0.672519 -0.513003 0.321114 85 198 102
0.661400 -0.435483 0.455657 202 224 30
0.503999 0.239746 0.032491 33 142 140
-0.338572 -0.310010 -0.203990 68 1 84
0.012225 -0.210028 -0.395068 68 1 84
-0.343698 -0.239251 -0.183195 68 1 84
-0.373008 0.217696 -0.097551 71 22 105
-0.604477 -0.375872 0.125733 31 148 139
-0.154245 0.440578 -0.192640 68 1 84
0.026067 0.019271 -0.325341 68 1 84
-0.514764 -0.246131 -0.067411 49 101 141
-0.708223 -0.466967 0.437443 94 201 97
0.067407 0.551018 -0.234544 71 15 98
0.481486 0.414572 0.268521 42 176 126
-0.424457 -0.468524 -0.219817 50 99 141
0.198890 0.594439 -0.012147 62 72 136
-0.657757 -0.372316 0.294149 83 197 103
-0.433357 0.033533 -0.141757 61 75 137
-0.682042 -0.493076 0.351077 71 192 110
0.075905 -0.307190 -0.266766 68 1 84
0.105739 -0.435377 -0.308233 68 1 84
0.019760 0.430597 -0.250821 68 1 84
0.490318 0.001067 -0.074869 44 112 142
-0.406965 -0.407034 -0.229495 68 57 130
-0.092476 -0.319374 -0.215859 68 1 84
0.274838 -0.262862 -0.206605 68 1 84
0.573269 -0.051537 0.077561 30 151 138
-0.642480 -0.185997 0.311585 54 184 119
0.392380 0.470175 0.053350 45 110 142
-0.378971 0.080360 -0.160205 72 35 116
0.399597 -0.055140 -0.180714 57 85 139
-0.576731 0.237886 0.193537 50 181 122
0.572323 0.236492 0.268763 48 180 122
-0.663158 -0.115611 0.456708 146 215 65
0.183664 0.225969 -0.157425 68 1 84
-0.243332 0.224381 -0.111186 68 1 84
0.581125 -0.006296 0.196098 30 154 137
0.451269 0.449264 0.147092 31 146 140
-0.399197 -0.118354 -0.172043 71 38 118
0.507999 0.056904 -0.023273 49 101 141
0.533336 0.008751 -0.002118 39 125 142
0.579178 -0.261175 0.059757 31 163 134
0.343373 -0.507837 -0.288668 71 42 121
0.522224 -0.444863 -0.022357 41 120 142
-0.580045 -0.443116 0.076322 30 158 136
0.222492 0.305817 -0.134808 68 1 84
-0.044537 -0.270227 -0.355192 68 1 84
-0.019857 0.338138 -0.218871 68 1 84
0.291591 -0.207966 -0.182771 72 35 116
-0.612764 -0.201091 0.096895 34 167 132
-0.443454 0.469429 0.121408 39 125 142
-0.561487 -0.097113 -0.024924 30 154 137
0.373925 0.287622 -0.079982 57 84 139
0.014720 -0.132672 -0.434047 68 1 84
0.596905 -0.409283 0.160986 31 146 140
-0.007083 -0.478983 -0.330322 71 37 117
-0.345595 0.574104 0.162592 32 145 140
-0.091477 -0.396661 -0.280995 68 1 84
0.535295 -0.001266 -0.004446 39 125 142
-0.663990 -0.383729 0.294785 105 204 91
0.419553 -0.436413 -0.217857 56 86 139
-0.360619 0.517738 0.067018 40 122 142
0.599743 0.043260 0.262333 42 176 126
-0.380374 -0.033925 -0.188796 71 22 105
-0.473251 0.364579 0.059342 31 149 139
0.665090 -0.467099 0.380110 186 222 39
0.602336 -0.543264 0.221801 33 141 140
-0.410910 -0.534336 -0.237594 46 107 142
0.467793 -0.045048 -0.120762 56 86 139
-0.543527 0.264699 0.106294 35 168 131
-0.019046 -0.041842 -0.482313 68 1 84
-0.675361 -0.453498 0.332208 53 183 120
0.401516 0.329037 -0.042753 51 96 141
0.392366 0.210919 -0.086558 54 90 140
0.490148 0.328045 0.076533 31 146 140
-0.526761 0.366627 0.197499 46 178 124
0.611096 -0.167330 0.174162 30 158 136
0.589892 -0.414187 0.139588 31 147 139
0.149558 0.152186 -0.223617 68 1 84
-0.560836 0.254309 0.151572 43 177 125
0.594551 0.136925 0.264754 116 208 84
-0.349309 -0.255013 -0.188413 70 14 97
-0.617876 -0.078946 0.244564 31 161 135
-0.646220 -0.019317 0.385445 121 209 81
-0.301873 -0.394847 -0.248741 68 1 84
-0.205132 0.416959 -0.152537 68 1 84
-0.513938 0.310103 0.077610 30 156 137
0.243388 0.088371 -0.157021 68 1 84
-0.266341 -0.308371 -0.210285 68 1 84
-0.088184 0.631112 -0.176596 71 21 103
-0.636321 -0.475041 0.237134 36 170 130
-0.042863 0.520189 -0.254751 70 12 95
-0.064940 -0.173843 -0.383286 68 1 84
-0.450145 0.488721 0.184369 31 163 134
0.335612 -0.403679 -0.243792 72 28 110
0.561815 0.194993 0.180306 40 174 127
0.194478 0.563581 -0.129966 64 67 135
0.561040 0.035651 0.105504 32 143 140
0.461616 0.276319 -0.009739 41 120 142
0.576291 0.102816 0.184971 36 170 130
0.623874 0.023534 0.448355 231 228 25
-0.262863 -0.181560 -0.180187 68 1 84
0.171383 0.071763 -0.192437 68 1 84
-0.645160 -0.107499 0.362212 96 201 96
-0.666392 -0.186780 0.477727 114 207 85
0.638631 -0.178288 0.392960 112 206 86
0.399828 0.013064 -0.169177 67 60 132
0.188395 0.059390 -0.180581 68 1 84
-0.250140 0.581796 0.009746 68 57 130
0.204419 -0.053102 -0.214617 68 1 84
-0.137910 -0.453094 -0.314942 68 1 84
-0.375524 0.293880 -0.075903 71 24 106
-0.445218 0.500422 0.203720 31 162 134
0.126311 -0.023221 -0.323539 68 1 84
0.645083 -0.412367 0.376457 121 209 81
0.602068 -0.232953 0.123254 32 164 133
0.472951 0.249199 -0.007562 46 107 142
0.098727 0.404199 -0.208744 68 1 84
-0.517850 0.388757 0.219482 47 179 123
-0.653497 -0.261510 0.364290 91 200 98
-0.410638 0.156220 -0.097870 71 44 123
-0.589690 0.118663 0.179654 54 184 119
0.302057 0.439150 -0.064420 68 55 129
-0.334193 -0.392647 -0.244720 69 6 90
-0.066242 -0.225771 -0.349053 68 1 84
-0.661000 -0.098314 0.440305 141 214 68
-0.562714 0.075537 0.080985 30 159 136
0.326416 0.484198 0.001006 60 78 138
0.147388 -0.033909 -0.218448 68 1 84
0.054472 -0.017149 -0.452862 68 1 84
0.627798 -0.103490 0.375061 91 200 98
-0.660027 -0.383497 0.486121 69 191 111
0.207154 0.581408 -0.052026 57 85 139
-0.406942 0.229363 -0.076903 69 50 127
-0.544453 0.353846 0.281840 83 197 103
0.053507 -0.264562 -0.328450 68 1 84
0.622898 -0.032663 0.498690 207 225 28
-0.594272 -0.181643 0.034295 33 167 132
-0.638403 0.058470 0.408068 98 202 95
0.632142 -0.293092 0.287695 51 182 121
0.505451 -0.340266 -0.020541 46 109 142
-0.388705 -0.095489 -0.180288 71 38 118
0.619463 -0.540820 0.268090 31 162 134
-0.571519 -0.167937 -0.016732 33 140 141
0.088858 -0.096770 -0.365152 68 1 84
0.632340 -0.352518 0.439690 159 217 56
0.429688 0.487208 0.246709 41 175 127
-0.510408 -0.449653 -0.069369 42 117 142
-0.571433 0.290802 0.400226 105 204 91
0.392462 0.392817 -0.005772 44 114 142
-0.103338 0.640474 -0.143018 71 22 105
0.635175 -0.296186 0.483499 236 228 26
0.103890 -0.103637 -0.304358 68 1 84
0.198892 0.422389 -0.153512 69 8 91
0.541574 -0.262936 -0.011722 38 128 142
-0.614838 0.136523 0.279523 66 190 113
0.567695 -0.483986 0.088213 32 144 140
-0.527527 0.381255 0.267033 73 193 109
0.510057 0.371581 0.247952 68 190 112
-0.644407 -0.038580 0.563763 62 188 115
0.573233 0.003113 0.164421 30 160 135
-0.662746 -0.146407 0.426721 141 214 68
0.463988 0.422619 0.371696 73 193 109
0.419799 -0.297785 -0.125944 71 22 105
-0.260578 -0.407225 -0.270040 68 1 84
-0.350489 0.324599 -0.076259 68 2 85
-0.286352 -0.243113 -0.197468 68 1 84
0.495383 0.390943 0.318026 75 194 108
-0.641571 0.043440 0.442499 136 213 71
-0.495463 0.112265 -0.038898 48 103 141
-0.178050 0.469398 -0.184207 68 1 84
0.135928 0.413775 -0.189743 68 1 84
-0.465668 0.188857 -0.040220 44 114 142
-0.169176 0.163654 -0.221146 68 1 84
-0.667840 -0.387278 0.321867 56 185 118
0.425655 0.472065 0.105824 37 130 142
0.526392 0.275053 0.122233 33 167 132
-0.065370 0.643056 -0.166753 70 49 126
-0.560831 -0.270792 0.001304 31 149 139
-0.111732 0.343305 -0.203800 68 1 84
0.365986 0.011310 -0.189772 65 66 134
0.383408 -0.144600 -0.181401 52 95 141
-0.356786 0.384838 -0.041613 68 57 130
0.105910 0.189457 -0.237435 68 1 84
0.094687 0.482493 -0.231524 68 1 84
-0.013809 -0.094341 -0.457315 68 1 84
-0.363495 0.216367 -0.099910 68 2 85
-0.175594 0.432508 -0.176932 68 1 84
0.514355 0.345627 0.179923 56 185 118
0.374686 0.182340 -0.105390 69 54 129
-0.552554 0.297628 0.175249 48 180 122
0.617298 -0.474226 0.240351 30 153 138
0.630843 -0.218843 0.327376 109 206 88
0.252018 -0.265422 -0.209042 69 8 91
-0.537585 -0.370094 -0.001554 45 111 142
-0.600671 0.224514 0.340822 81 196 104
-0.555750 -0.498389 0.035430 31 149 139
-0.528437 0.342139 0.158110 38 172 129
0.449387 0.461203 0.222823 30 160 135
0.557323 -0.053518 0.013975 39 126 142
0.352894 -0.538399 -0.281616 70 47 124
0.605025 -0.295140 0.156430 35 168 131
0.142009 -0.178133 -0.242512 68 1 84
0.377216 0.037559 -0.176132 71 38 118
0.076401 0.119682 -0.253646 68 1 84
-0.652549 -0.269549 0.320486 94 201 97
-0.657981 -0.347424 0.390733 79 195 105
0.161403 0.262480 -0.173489 68 1 84
0.409157 0.170422 -0.085489 65 65 134
-0.289655 -0.257046 -0.205557 68 1 84
-0.565953 -0.520368 0.066474 33 140 141
-0.113034 -0.224060 -0.256540 68 1 84
0.602173 0.009559 0.270845 37 171 129
-0.516050 0.359192 0.147030 46 178 124
0.402219 -0.237504 -0.156570 71 44 123
0.621525 -0.112579 0.333456 43 177 125
0.542776 -0.211173 -0.032176 45 111 142
0.251283 -0.127427 -0.213539 68 1 84
0.567381 -0.002389 0.123733 30 151 138
0.375901 -0.227420 -0.167218 59 80 138
-0.199388 -0.115687 -0.226614 68 1 84
0.216047 -0.365772 -0.199303 68 1 84
0.120599 -0.114162 -0.267397 68 1 84
0.078722 0.414849 -0.222908 68 1 84
0.597668 -0.500603 0.196116 34 138 141
0.246731 -0.354542 -0.203538 68 1 84
0.290265 0.515964 -0.006686 64 67 135
0.414636 0.497982 0.130372 34 139 141
-0.590855 0.244707 0.398654 94 201 97
-0.467238 -0.198586 -0.125474 46 109 142
0.594254 0.117139 0.478930 141 214 68
-0.271338 0.244239 -0.097428 68 1 84
-0.121606 -0.422750 -0.287052 68 1 84
-0.618794 0.118760 0.499031 73 193 109
-0.697471 -0.522505 0.404645 146 215 65
-0.237530 0.526966 -0.123715 70 9 92
-0.079787 0.500812 -0.247595 69 5 88
-0.188887 0.481370 -0.177761 68 1 84
0.606493 -0.579723 0.229226 33 142 140
0.504356 0.228218 0.027819 39 124 142
0.515112 0.273442 0.082486 31 146 140
0.013928 0.280270 -0.247392 68 1 84
0.432450 0.487741 0.208247 31 163 134
0.514221 0.355985 0.205292 51 182 121
-0.634164 0.029603 0.530640 107 205 89
-0.690738 -0.516514 0.378987 162 218 55
-0.179782 -0.384163 -0.218037 68 1 84
0.490107 0.399347 0.310059 83 197 103
0.145128 -0.057565 -0.230203 68 1 84
-0.660811 -0.195734 0.415481 98 202 95
-0.132633 0.243935 -0.220506 68 1 84
-0.121888 0.634041 -0.135540 70 48 125
-0.536935 0.014731 -0.017412 39 126 142
-0.029754 0.316752 -0.221868 68 1 84
0.522445 -0.007567 -0.031364 34 137 141
0.483226 0.337200 0.070468 32 145 140
0.238955 0.366565 -0.122978 72 28 110
-0.627809 -0.428455 0.189093 31 162 134
-0.569965 0.006987 0.050790 34 139 141
0.329297 -0.512649 -0.297734 51 96 141
-0.466285 0.412170 0.102645 30 153 138
0.408945 -0.407314 -0.218020 68 57 130
0.470338 -0.090501 -0.124597 60 78 138
0.078331 0.392731 -0.215246 68 1 84
0.451070 0.413330 0.088343 35 137 141
-0.596261 0.189457 0.231164 50 181 122
0.640381 -0.242441 0.414170 167 219 51
-0.446884 0.300924 -0.021008 51 96 141
-0.608397 -0.327884 0.114063 33 141 140
0.627617 -0.081051 0.385518 112 206 86
0.597219 -0.382824 0.152079 32 164 133
-0.322970 -0.394524 -0.249589 68 1 84
0.385000 -0.355859 -0.159213 68 55 129
-0.634492 -0.348267 0.209256 30 153 138
0.633349 -0.357464 0.417141 119 208 82
-0.300927 0.033664 -0.198577 68 1 84
-0.291590 0.359026 -0.087696 68 1 84
0.382048 0.097867 -0.145577 61 75 137
0.435175 -0.386994 -0.165986 54 90 140
-0.291752 0.136961 -0.132345 68 1 84
0.408610 -0.360859 -0.141546 65 66 134
0.624602 -0.113007 0.353353 77 194 107
0.093270 0.548610 -0.225554 70 14 97
0.644258 -0.184629 0.435369 191 223 36
-0.501578 0.314961 0.054785 38 127 142
-0.131526 0.233549 -0.217470 68 1 84
0.210099 0.579019 -0.053265 58 83 139
-0.386921 -0.503642 -0.258985 56 86 139
-0.008555 0.202785 -0.241932 68 1 84
0.114677 0.526706 -0.220094 68 2 85
-0.486354 -0.522872 -0.125384 31 147 139
-0.596630 -0.029178 0.175762 35 137 141
0.467589 0.039456 -0.086988 56 87 140
0.566315 -0.393360 0.072234 30 160 135
-0.599008 -0.465824 0.127868 34 167 132
-0.618535 -0.134738 0.189996 36 170 130
0.464970 -0.281306 -0.086754 63 71 136
0.066881 0.212291 -0.234379 68 1 84
-0.621971 0.086227 0.285461 96 201 96
0.153969 -0.473825 -0.330552 68 1 84
0.580639 -0.319812 0.084191 30 156 137
0.571900 -0.300428 0.057585 35 137 141
0.149650 0.130212 -0.217021 68 1 84
0.596799 -0.135433 0.117844 30 155 137
-0.245159 -0.535762 -0.332501 58 82 139
-0.167870 0.268374 -0.190403 68 1 84
-0.363624 -0.004591 -0.192825 68 1 84
-0.442958 0.507018 0.238912 30 155 137
0.549044 0.303717 0.270305 91 200 98
0.407355 0.410211 0.024688 51 96 141
-0.443603 0.475563 0.130398 38 128 142
0.496139 -0.366364 -0.033894 51 97 141
-0.071932 -0.032837 -0.457351 68 1 84
-0.482658 -0.381242 -0.085569 64 67 135
0.636127 -0.374010 0.388966 91 200 98
0.629022 -0.237393 0.270551 100 203 93
0.600080 -0.141350 0.131012 50 181 122
0.300896 0.512845 0.003325 61 75 137
0.453680 -0.281596 -0.098116 59 80 138
0.427256 -0.408899 -0.199550 56 86 139
-0.247858 -0.295094 -0.212157 68 1 84
-0.461900 0.475616 0.204174 33 166 133
-0.420724 0.156098 -0.088890 66 62 133
0.280751 0.354379 -0.095573 70 48 125
0.101148 0.238858 -0.225916 68 1 84
0.078816 -0.084135 -0.405635 68 1 84
0.539200 0.310720 0.223614 38 172 129
-0.588227 -0.093942 0.032819 30 158 136
0.133596 0.359535 -0.193661 68 1 84
0.348638 -0.103596 -0.200704 65 65 134
-0.595610 -0.076453 0.068196 31 149 139
0.355691 -0.116940 -0.195874 66 61 132
0.634325 -0.408883 0.284218 68 190 112
0.415275 -0.537691 -0.221163 72 29 111
-0.581868 0.120098 0.152897 46 178 124
-0.090012 -0.129535 -0.372701 68 1 84
0.626517 -0.046697 0.493068 175 220 46
-0.247231 0.501323 -0.123765 71 22 105
-0.528660 0.371143 0.409843 54 184 119
-0.179154 0.546714 -0.175701 68 1 84
0.101802 -0.041220 -0.369522 68 1 84
0.140308 0.612436 -0.135071 61 76 137
-0.073201 -0.445223 -0.310195 68 1 84
0.565503 -0.013903 0.080413 30 157 136
-0.243983 0.098023 -0.156186 68 1 84
-0.531068 -0.434144 -0.024168 46 108 142
0.579184 -0.091282 0.063089 32 145 140
-0.394867 -0.375471 -0.194096 72 33 114
-0.651845 -0.100973 0.393634 77 194 107
-0.321314 -0.088352 -0.204354 71 22 105
0.114363 -0.339526 -0.200305 68 1 84
-0.253201 0.210834 -0.116695 68 1 84
-0.540144 -0.287480 -0.016754 49 101 141
-0.521950 0.221650 0.032631 31 147 139
-0.656285 -0.304668 0.442507 71 192 110
-0.397832 -0.265778 -0.161398 71 44 123
0.156408 0.245756 -0.174033 68 1 84
0.575143 -0.113321 0.039214 32 145 140
-0.004060 -0.052538 -0.481088 68 1 84
-0.425646 -0.169931 -0.153761 66 62 133
-0.612434 -0.105910 0.188711 31 161 135
-0.705516 -0.495174 0.448524 119 208 82
0.301319 0.193308 -0.113321 68 1 84
-0.239302 -0.223587 -0.186129 68 1 84
-0.123629 -0.021946 -0.335337 68 1 84
0.640730 -0.333259 0.308989 149 215 63
-0.110513 0.331989 -0.207652 68 1 84
-0.252416 0.019028 -0.190590 68 1 84
-0.537534 0.240853 0.071488 35 168 131
0.580710 -0.262743 0.064207 30 156 137
-0.309722 -0.354352 -0.204294 68 1 84
-0.429539 -0.227353 -0.144288 53 92 140
-0.347928 -0.078392 -0.198272 70 14 97
-0.292180 0.262529 -0.091340 68 1 84
-0.707864 -0.480635 0.447540 124 210 79
0.638863 -0.263548 0.462708 225 227 24
-0.655472 -0.363411 0.416880 61 187 116
0.174225 0.600018 -0.060401 58 82 139
-0.660444 -0.278849 0.503723 100 203 93
0.566627 0.199117 0.471341 186 222 39
0.602052 0.088502 0.485488 197 223 33
-0.274587 0.176266 -0.123318 68 1 84
0.292087 -0.342304 -0.202785 68 3 87
-0.389654 -0.386926 -0.222935 65 66 134
0.486268 0.399500 0.355992 77 194 107
-0.474626 0.460395 0.286033 38 129 142
-0.563092 0.223400 0.131916 39 173 128
0.350667 0.453768 0.000870 65 65 134
-0.551578 0.319141 0.206604 62 188 115
0.336372 0.469163 -0.002232 63 69 135
-0.643064 -0.011883 0.520987 109 206 88
-0.613756 -0.269039 0.111739 30 160 135
-0.609446 -0.168933 0.086452 31 163 134
0.125996 0.617822 -0.144682 59 81 138
0.616012 -0.159812 0.226573 32 165 133
-0.572998 -0.302569 0.030540 42 119 142
-0.069090 0.004180 -0.362234 68 1 84
0.414554 0.511298 0.217643 46 178 124
0.480047 -0.515287 -0.122084 63 71 136
0.347091 -0.531681 -0.286604 70 48 125
-0.608165 -0.105716 0.123839 30 160 135
0.628092 -0.317851 0.259150 100 203 93
0.093929 -0.139766 -0.311150 68 1 84
-0.482822 0.144868 -0.037907 43 116 142
0.443098 0.207150 -0.045901 53 93 140
-0.383555 -0.262084 -0.170910 71 38 118
0.410820 -0.335467 -0.127300 71 24 106
-0.661569 -0.164355 0.536227 79 195 105
-0.184258 -0.104684 -0.229168 68 1 84
-0.136031 0.249677 -0.219432 68 1 84
0.479730 -0.257843 -0.089273 61 76 137
-0.372358 -0.080755 -0.189414 72 26 108
-0.547335 -0.546050 0.020213 36 132 141
0.319945 -0.170062 -0.187401 70 47 124
0.307441 -0.096142 -0.211539 71 43 122
0.571010 0.212283 0.230206 75 194 108
-0.612947 -0.509475 0.169689 40 174 127
-0.142843 -0.025649 -0.302749 68 1 84
-0.631629 -0.313036 0.191403 41 120 142
-0.388003 -0.247912 -0.165939 66 61 132
-0.545775 0.340394 0.233243 81 196 104
0.354175 0.558216 0.168913 34 138 141
0.427029 0.241672 -0.051199 53 92 140
-0.565251 -0.125234 -0.024448 30 151 138
0.166802 0.306051 -0.174212 68 1 84
-0.604912 0.193226 0.424774 105 204 91
-0.336187 -0.418613 -0.266896 71 22 105
0.160126 -0.407191 -0.254477 68 1 84
-0.020702 0.442768 -0.254656 68 1 84
0.562595 0.124741 0.141035 38 172 129
-0.081942 -0.302569 -0.270340 68 1 84
-0.700131 -0.538280 0.422306 141 214 68
-0.363164 0.145858 -0.130548 68 1 84
0.229116 0.560493 -0.058862 63 71 136
0.559923 -0.213258 -0.001257 38 128 142
0.376138 -0.073246 -0.193012 62 72 136
0.509996 0.118097 0.004162 45 111 142
0.323015 0.107289 -0.159915 71 24 106
0.457375 0.413803 0.102452 34 138 141
-0.637264 0.012473 0.541685 94 201 97
0.657117 -0.498247 0.342679 87 198 101
0.197529 0.073533 -0.176830 68 1 84
-0.203927 -0.372076 -0.206610 68 1 84
-0.624606 -0.513633 0.200833 50 181 122
-0.337244 -0.283089 -0.203010 68 1 84
-0.360019 0.168548 -0.118740 70 14 97
-0.303136 0.224246 -0.100008 68 1 84
-0.453437 0.392331 0.060242 39 126 142
-0.588519 0.245046 0.261469 77 194 107
-0.550094 -0.302458 0.001090 42 119 142
0.484683 0.303989 0.038217 32 143 140
0.144535 0.422097 -0.186537 68 1 84
0.513720 -0.384140 -0.016808 32 144 140
0.516714 -0.162237 -0.079437 44 113 142
-0.062837 -0.073584 -0.454554 68 1 84
0.121237 -0.142566 -0.266473 68 1 84
0.598495 -0.210573 0.103357 30 157 136
0.402532 -0.266889 -0.150422 71 39 119
-0.539888 0.362858 0.328670 71 192 110
0.622522 -0.017895 0.376757 139 213 70
-0.145291 0.297404 -0.202853 68 1 84
-0.086770 0.636375 -0.167812 72 25 107
0.635136 -0.210380 0.365435 107 205 89
-0.120061 -0.160942 -0.273782 68 1 84
0.276260 -0.402587 -0.230105 68 1 84
0.375112 0.118816 -0.137927 65 65 134
-0.049562 0.130143 -0.259899 68 1 84
-0.660686 -0.372362 0.322615 105 204 91
0.520996 -0.534127 -0.022081 49 100 141
-0.659692 -0.128840 0.500041 116 208 84
0.373374 -0.394249 -0.220339 72 32 113
-0.614734 -0.310661 0.128409 38 128 142
-0.175452 0.267642 -0.181899 68 1 84
-0.666242 -0.192918 0.484504 116 208 84
-0.242117 0.405960 -0.124214 68 2 85
0.534913 0.319127 0.220494 40 174 127
-0.598095 -0.365547 0.102432 30 154 137
-0.485841 -0.126827 -0.115632 43 116 142
-0.655881 -0.336461 0.479760 105 204 91
0.645370 -0.510833 0.313930 64 189 114
0.396846 0.272093 -0.067679 55 89 140
0.135394 0.506439 -0.207642 68 1 84
0.537615 0.063240 0.041531 36 133 141
0.535428 -0.323900 0.007715 33 142 140
0.425016 0.466868 0.095807 42 118 142
-0.525231 0.184048 0.026996 31 148 139
0.262475 -0.080947 -0.219231 68 1 84
-0.196445 0.400940 -0.156459 68 1 84
-0.522450 -0.512095 -0.037885 52 94 141
-0.189068 0.510794 -0.177680 68 1 84
0.502511 -0.505557 -0.065080 53 93 140
-0.027664 0.033487 -0.433902 68 1 84
-0.061125 0.123488 -0.259667 68 1 84
-0.289269 0.495645 -0.062472 67 60 132
0.472444 -0.166610 -0.125112 49 102 141
-0.528580 -0.487390 -0.027844 40 122 142
-0.641837 -0.042166 0.537824 112 206 86
-0.480907 -0.344182 -0.067671 52 95 141
0.484086 0.085918 -0.045204 43 116 142
-0.259481 -0.429516 -0.277025 68 1 84
0.344277 0.558682 0.124404 31 148 139
-0.622165 -0.400388 0.176188 30 159 136
0.453134 -0.293738 -0.089666 68 55 129
0.168795 -0.451703 -0.312160 68 1 84
-0.202017 -0.084488 -0.221932 68 1 84
0.585210 -0.091359 0.098165 30 157 136
-0.009592 0.494254 -0.259925 68 1 84
0.030639 0.411444 -0.243106 68 1 84
0.652609 -0.444652 0.364549 178 221 44
0.152642 0.609450 -0.096703 61 75 137
0.010524 -0.070058 -0.472840 68 1 84
-0.323565 -0.268912 -0.203842 68 1 84
-0.612496 0.127954 0.513029 73 193 109
0.360288 -0.100954 -0.196906 62 72 136
-0.019628 -0.108884 -0.448820 68 1 84
0.538148 0.303146 0.400244 186 222 39
-0.107373 -0.024770 -0.381236 68 1 84
0.592902 -0.238602 0.090137 30 155 137
-0.105236 -0.024000 -0.385999 68 1 84
0.454465 -0.525794 -0.171386 69 52 127
-0.422102 -0.359987 -0.154745 71 42 121
0.031308 0.526096 -0.250727 68 2 85
