ply
format ascii 1.0
element vertex 1259
property float x
property float y
property float z
property uchar red
property uchar green
property uchar blue
end_header
-0.560512 -0.412972 0.103858 67 59 131
0.327632 -0.354338 -0.234484 37 171 129
-0.304390 0.333527 -0.086784 68 1 84
-0.416440 0.258780 -0.024508 66 62 133
0.095518 -0.393721 -0.310687 43 115 142
0.406303 -0.506993 -0.239525 66 190 113
-0.267932 0.603986 0.054856 68 1 84
0.507825 -0.379288 -0.044577 50 181 122
-0.357294 0.400604 -0.007080 68 1 84
0.438752 -0.289086 -0.059494 30 153 138
0.721472 -0.390748 0.259793 45 111 142
-0.287216 -0.413687 -0.248847 60 78 138
0.488727 0.295649 0.440535 68 1 84
0.121541 0.057485 -0.213734 69 50 127
-0.670924 -0.384391 0.340070 68 1 84
-0.114459 -0.412788 -0.325290 71 38 118
0.408334 -0.070942 -0.110968 50 181 122
0.266848 -0.330238 -0.180416 253 231 36
-0.202975 0.622639 -0.086614 68 1 84
-0.582259 -0.482882 0.218031 68 1 84
0.732519 -0.363376 0.425464 68 1 84
0.260835 0.066102 -0.172708 32 165 133
0.562867 -0.468609 0.131258 37 131 141
0.325706 0.384642 -0.034353 49 102 141
0.412367 -0.272449 -0.089742 30 156 137
-0.207874 0.294193 -0.147052 68 1 84
0.612100 -0.200560 0.224499 58 83 139
-0.021086 0.029698 -0.494959 68 1 84
-0.099389 0.440557 -0.170988 68 1 84
-0.676657 -0.549950 0.292928 68 1 84
0.057472 -0.274998 -0.333743 68 1 84
-0.272074 0.186204 -0.165343 68 1 84
-0.529482 0.266733 0.371264 68 1 84
-0.548965 -0.534237 0.086368 71 39 119
0.128060 0.142911 -0.232611 68 1 84
0.192811 0.462158 -0.101461 68 1 84
-0.087091 -0.294392 -0.262695 32 143 140
0.204033 0.572794 -0.066833 68 1 84
0.689642 -0.259722 0.362951 66 64 133
0.168892 0.645607 0.028931 68 1 84
-0.523331 -0.167053 -0.019588 49 100 141
-0.583578 -0.487366 0.223236 72 35 116
0.537769 0.210585 0.320446 71 24 106
-0.195812 -0.401084 -0.253255 42 119 142
0.465313 -0.240804 -0.046204 30 158 136
-0.631361 -0.267503 0.270866 68 1 84
-0.056867 0.246135 -0.237894 68 1 84
0.544477 0.157580 0.437093 68 1 84
0.081441 0.244232 -0.215496 71 17 99
0.676506 -0.213213 0.337346 71 40 120
-0.143751 -0.108670 -0.262394 68 1 84
-0.562593 -0.539133 0.148173 70 14 97
-0.343567 0.294655 -0.080888 70 9 92
-0.149551 -0.067485 -0.262707 69 6 90
0.765106 -0.513839 0.388047 41 121 142
-0.124071 -0.183430 -0.269183 63 69 135
0.030893 0.044678 -0.392192 68 1 84
0.389587 0.410973 0.094472 52 95 141
-0.525094 0.289499 0.319544 68 1 84
-0.078618 -0.048962 -0.484112 68 1 84
0.054371 -0.003087 -0.469103 68 1 84
-0.583937 -0.064747 0.201742 72 30 112
-0.465813 0.155685 0.009515 68 57 130
-0.475461 0.115298 0.010737 70 45 124
-0.578654 0.045045 0.247329 68 1 84
0.358502 0.475207 0.109085 57 84 139
0.210632 0.598285 -0.035460 68 1 84
0.205169 0.306793 -0.133094 58 82 139
-0.412605 0.015136 -0.100773 69 54 129
-0.156882 -0.415448 -0.312548 69 54 129
0.297180 0.351922 -0.079395 42 118 142
0.105478 -0.214993 -0.249992 70 45 124
0.525235 -0.033495 0.050012 34 139 141
-0.350037 -0.215813 -0.142849 57 85 139
-0.487736 -0.487808 -0.140226 71 43 122
0.598377 -0.323718 0.201407 58 83 139
0.440000 -0.472644 -0.208767 59 186 117
-0.534535 -0.509114 0.035283 57 84 139
0.023868 0.504092 -0.192642 68 1 84
-0.514164 -0.519466 -0.055810 71 18 101
0.272020 -0.331520 -0.179629 246 230 31
0.259630 0.066884 -0.173047 42 176 126
-0.154388 0.272154 -0.188613 68 1 84
0.502867 0.223515 0.517625 68 1 84
0.388101 -0.321768 -0.147256 53 183 120
0.535925 -0.120368 0.040672 32 165 133
0.310781 0.533839 0.139534 72 28 110
0.553442 -0.487601 0.096395 31 162 134
0.548745 -0.130081 0.071316 30 153 138
0.705509 -0.479949 0.201645 30 154 137
0.574404 -0.058348 0.206569 61 76 137
-0.557308 -0.105755 0.073775 70 47 124
-0.071587 0.063631 -0.325606 68 1 84
0.595289 -0.012420 0.337630 68 1 84
0.674938 -0.201902 0.360305 71 38 118
0.376373 0.462892 0.274818 68 1 84
-0.102128 -0.094099 -0.418764 68 1 84
-0.571572 0.139500 0.359339 68 1 84
0.759330 -0.463979 0.338520 54 90 140
0.309302 0.319244 -0.087733 42 118 142
0.116875 0.004474 -0.346495 68 1 84
0.749769 -0.413099 0.418404 71 21 103
-0.631236 -0.451701 0.267317 68 1 84
0.130840 0.559997 -0.146631 68 1 84
0.314497 0.433059 -0.010235 55 88 140
0.342471 -0.232196 -0.142642 53 183 120
-0.606367 -0.034716 0.340725 68 1 84
0.469522 -0.189106 -0.059718 32 164 133
-0.069859 -0.309632 -0.312212 71 40 120
0.486757 0.143123 0.060997 30 153 138
-0.580772 -0.381185 0.163615 69 52 127
0.028774 -0.352695 -0.327849 52 95 141
-0.075747 -0.332742 -0.285274 46 108 142
-0.551285 0.208534 0.264466 68 1 84
-0.414232 0.445750 0.265472 66 64 133
-0.220645 -0.269807 -0.168463 33 141 140
-0.075136 0.502815 -0.187384 68 1 84
-0.555809 -0.146190 0.053838 64 67 135
-0.050511 -0.123793 -0.452780 68 1 84
0.454101 -0.002222 -0.041484 48 180 122
-0.412653 0.104983 -0.076277 70 49 126
-0.513352 -0.384570 -0.027987 68 57 130
-0.174956 -0.399465 -0.261659 47 106 141
-0.001142 0.079632 -0.343930 68 1 84
0.011307 -0.469563 -0.345802 71 20 102
-0.122872 0.136498 -0.261895 68 1 84
0.375909 -0.296944 -0.134626 68 190 112
0.640988 -0.318535 0.220840 50 99 141
0.426085 -0.191846 -0.091580 32 164 133
0.076449 0.262183 -0.214848 68 1 84
0.093856 -0.025931 -0.398640 68 1 84
0.627203 -0.180058 0.249121 71 43 122
0.083768 0.584088 -0.171190 68 1 84
0.674432 -0.203391 0.344704 72 28 110
0.117974 -0.414123 -0.331570 46 107 142
-0.127806 0.054930 -0.260613 68 1 84
0.655102 -0.143626 0.396245 72 26 108
-0.650070 -0.197914 0.319201 68 1 84
-0.066506 0.659299 -0.125410 68 1 84
0.164282 0.638287 -0.059847 68 1 84
0.720731 -0.341382 0.440611 68 1 84
-0.368485 0.305204 -0.056059 72 32 113
-0.167394 0.448122 -0.143011 68 1 84
-0.067845 0.129980 -0.294595 68 1 84
-0.147310 -0.068203 -0.267528 68 1 84
-0.650644 -0.269427 0.302289 68 1 84
-0.151732 0.600247 -0.144317 68 1 84
0.076671 -0.179863 -0.328052 68 1 84
-0.630563 -0.139259 0.503684 68 1 84
0.508913 -0.211331 -0.012083 31 146 140
-0.565777 -0.353538 0.103482 69 50 127
-0.410199 0.449198 0.165854 70 11 94
0.511620 0.047753 0.059476 33 142 140
-0.680550 -0.372567 0.376248 68 1 84
0.428590 0.210591 -0.008979 33 166 133
-0.273940 0.493545 -0.062672 68 1 84
0.294411 0.283821 -0.112949 43 115 142
-0.510954 -0.188553 -0.037637 63 69 135
0.193330 0.362584 -0.130168 66 62 133
-0.486022 -0.432975 -0.130555 66 61 132
-0.359386 -0.350504 -0.195562 70 45 124
-0.513804 -0.460340 -0.071007 68 55 129
-0.303555 -0.295965 -0.164570 40 122 142
-0.408530 -0.390847 -0.176712 68 3 87
-0.488937 0.344566 0.231034 68 1 84
0.279641 0.535031 0.020720 68 1 84
-0.093172 0.445525 -0.172366 68 1 84
0.430065 0.204416 -0.009478 36 170 130
-0.018039 -0.304267 -0.361080 68 1 84
0.195435 0.065037 -0.186825 34 137 141
-0.557404 0.165279 0.429816 68 1 84
-0.552987 -0.211036 0.037190 64 67 135
0.580877 0.029813 0.433761 68 1 84
-0.633923 -0.171678 0.265008 68 1 84
-0.430021 -0.357388 -0.119473 65 65 134
-0.211218 0.627639 -0.069576 68 1 84
0.670856 -0.241826 0.462514 68 1 84
-0.618308 -0.067605 0.342854 68 1 84
-0.421052 -0.429912 -0.202480 68 1 84
0.082898 0.166135 -0.262669 68 1 84
0.433543 0.033550 -0.052852 34 167 132
0.545960 -0.071545 0.086159 35 137 141
-0.339613 0.041950 -0.155243 64 67 135
0.016866 0.290801 -0.247396 68 1 84
-0.445025 -0.367146 -0.112554 63 71 136
-0.247072 0.617411 -0.010166 68 1 84
0.023066 -0.308606 -0.353434 68 1 84
-0.295920 0.574329 0.065629 68 1 84
-0.172960 0.551168 -0.144411 68 1 84
0.716033 -0.341478 0.367438 72 26 108
0.250483 0.522385 -0.031637 68 1 84
0.167368 -0.231814 -0.172943 43 177 125
0.589718 -0.046122 0.266491 72 32 113
0.497229 -0.087882 -0.023487 68 190 112
-0.543271 -0.237050 0.020588 65 66 134
0.468278 -0.330285 -0.050501 41 175 127
0.198621 0.246261 -0.145340 44 114 142
-0.323836 -0.115364 -0.174315 71 18 101
-0.536306 -0.440882 0.014773 57 85 139
-0.545430 -0.230799 0.023254 62 73 137
-0.099030 0.297830 -0.236644 68 1 84
0.555410 0.092394 0.226570 66 61 132
0.349328 0.387316 -0.002480 41 120 142
-0.281292 0.590662 0.057775 68 1 84
-0.164051 -0.015919 -0.251169 68 1 84
-0.568602 0.016321 0.174083 71 21 103
0.449197 0.366501 0.223506 59 80 138
-0.171788 -0.385136 -0.230912 39 126 142
-0.592812 0.002445 0.296293 68 1 84
0.065729 -0.117031 -0.385007 68 1 84
-0.476248 0.271261 0.085714 72 28 110
-0.176204 0.026740 -0.207210 68 1 84
0.543465 -0.451113 0.055582 41 175 127
0.110698 -0.067538 -0.291044 68 1 84
-0.123873 0.601299 -0.160639 68 1 84
0.110183 -0.199535 -0.251988 66 64 133
0.516885 0.239443 0.242988 69 52 127
0.589523 -0.322631 0.177309 56 86 139
0.701706 -0.298564 0.387934 71 39 119
-0.655668 -0.176197 0.386285 68 1 84
-0.436270 -0.390967 -0.151237 71 39 119
0.488430 -0.003077 0.002890 42 176 126
-0.088154 0.677207 -0.075612 68 1 84
-0.471832 0.346673 0.161138 68 1 84
0.499032 -0.415655 -0.109219 47 179 123
-0.185106 -0.361040 -0.194154 32 144 140
0.583967 0.005898 0.490504 68 1 84
-0.331483 0.529739 0.188050 68 1 84
-0.147509 0.089145 -0.234816 71 15 98
-0.456981 -0.089597 -0.087125 72 26 108
0.625836 -0.082906 0.381322 68 1 84
-0.674819 -0.252827 0.367396 68 1 84
0.491966 -0.411769 -0.119087 53 183 120
0.442353 -0.272211 -0.057114 33 140 141
-0.004517 0.536948 -0.196708 68 1 84
-0.426833 0.337170 0.046298 71 24 106
0.183793 0.002108 -0.195957 50 99 141
-0.619710 -0.259229 0.241670 68 1 84
-0.064114 0.335936 -0.241742 68 1 84
0.086349 -0.267128 -0.244490 40 122 142
0.241420 0.132242 -0.176612 35 136 141
0.382041 -0.182588 -0.121709 39 173 128
-0.676177 -0.399212 0.349915 68 1 84
-0.295115 -0.340772 -0.171568 40 122 142
0.068014 -0.017561 -0.450091 68 1 84
-0.347164 -0.486840 -0.273288 68 1 84
0.387240 0.422984 0.104728 49 102 141
-0.358728 -0.345652 -0.192565 70 11 94
-0.414008 -0.024090 -0.110393 69 53 128
-0.379844 0.233293 -0.075559 71 20 102
-0.245518 -0.012613 -0.199270 68 57 130
-0.114174 -0.300720 -0.192948 36 170 130
0.456104 0.079612 -0.011135 42 176 126
0.608052 -0.510914 0.212175 33 141 140
0.372918 0.080759 -0.100806 44 177 125
0.373056 0.467498 0.269151 68 1 84
-0.506835 -0.352597 -0.015069 65 65 134
-0.656423 -0.208536 0.341892 68 1 84
-0.571609 0.139601 0.357842 68 1 84
0.294759 -0.204966 -0.151461 30 159 136
-0.401063 -0.220536 -0.118697 62 72 136
0.075601 0.043868 -0.314189 70 9 92
0.531279 -0.398143 -0.001874 37 171 129
-0.139939 0.206433 -0.246246 68 1 84
-0.375517 -0.517726 -0.255866 68 1 84
-0.691939 -0.447380 0.373725 68 1 84
0.597181 -0.265709 0.196377 49 102 141
-0.072054 0.264405 -0.232931 68 1 84
0.348679 0.345889 -0.038438 48 104 141
-0.653780 -0.146366 0.395277 68 1 84
-0.579716 -0.108079 0.154429 71 43 122
0.442890 0.369623 0.189911 40 122 142
0.744876 -0.432141 0.334272 64 68 135
0.361618 0.139202 -0.101890 46 178 124
-0.183340 0.658937 -0.015371 68 1 84
0.516497 0.240992 0.244336 65 66 134
-0.212821 0.613238 -0.084049 68 1 84
-0.608566 -0.061411 0.516976 68 1 84
-0.534190 -0.041337 0.045881 71 42 121
0.190328 0.508845 -0.097195 68 1 84
-0.482825 0.352618 0.221211 68 1 84
0.100491 -0.207081 -0.265320 69 52 127
-0.558818 -0.548382 0.128756 72 29 111
-0.197234 0.174445 -0.209568 68 1 84
-0.563776 -0.179755 0.066690 66 61 132
-0.537779 0.004899 0.068795 69 50 127
0.498772 0.233398 0.163066 49 100 141
-0.482596 -0.420276 -0.122440 70 48 125
0.076478 0.173213 -0.266774 68 1 84
0.492065 -0.348677 -0.036206 30 160 135
0.167175 0.131744 -0.209672 57 85 139
0.555273 -0.126767 0.092534 31 150 139
0.476303 -0.397376 -0.127038 91 200 98
0.320719 -0.327320 -0.179420 105 204 91
0.506439 -0.364788 -0.029057 35 169 130
-0.591939 0.039863 0.379022 68 1 84
-0.664486 -0.225754 0.368077 68 1 84
0.283004 0.178205 -0.154253 31 162 134
0.584803 -0.436075 0.188911 47 106 141
0.333064 -0.078855 -0.153384 44 177 125
-0.454178 0.255531 0.035577 70 48 125
0.240283 -0.321843 -0.177322 210 225 27
0.186158 0.419867 -0.117029 69 8 91
0.463183 0.259309 0.090096 43 115 142
0.490692 -0.358480 -0.048662 44 177 125
0.040106 0.020428 -0.475324 68 1 84
-0.552521 -0.208518 0.035964 64 67 135
-0.520660 0.146435 0.103144 70 9 92
-0.537221 -0.260490 0.014656 66 64 133
-0.589005 -0.326699 0.172749 72 26 108
-0.122197 0.107890 -0.259288 68 1 84
0.035895 0.675622 -0.100787 68 1 84
-0.598264 -0.012584 0.445583 68 1 84
-0.416275 -0.101586 -0.126059 71 38 118
0.015926 -0.362877 -0.330271 66 61 132
-0.313310 0.310045 -0.091463 68 1 84
0.083499 -0.367489 -0.281411 35 135 141
-0.527072 -0.303574 0.010661 68 57 130
-0.107825 0.204072 -0.267458 68 1 84
-0.521840 0.231923 0.490431 68 1 84
-0.375067 0.248080 -0.074706 71 38 118
0.324027 0.522475 0.157368 71 43 122
-0.360687 -0.066093 -0.158675 66 61 132
-0.191721 -0.237042 -0.170936 31 146 140
0.161175 -0.232200 -0.175561 43 177 125
-0.506253 0.034905 0.027517 68 55 129
0.449643 -0.320495 -0.063839 51 182 121
0.669883 -0.307327 0.225969 50 98 141
0.133502 0.638012 -0.100780 68 1 84
-0.069560 0.358366 -0.224043 68 1 84
0.718925 -0.365185 0.297768 59 81 138
0.323560 0.466081 0.028802 71 38 118
0.563549 -0.124827 0.119051 35 135 141
0.444501 0.200076 0.013061 36 170 130
0.545569 0.001667 0.130083 40 122 142
-0.142394 -0.084709 -0.270723 68 1 84
0.341294 0.362261 -0.034076 42 119 142
-0.332221 -0.414622 -0.238733 71 40 120
-0.161806 0.501777 -0.148131 68 1 84
0.577288 0.057861 0.332192 68 1 84
0.535216 -0.118788 0.039478 33 166 133
-0.624005 -0.102212 0.461318 68 1 84
0.096694 0.153797 -0.253534 68 1 84
0.122192 -0.377375 -0.263895 35 137 141
-0.330364 0.534078 0.131574 68 1 84
-0.307259 0.556130 0.137618 68 1 84
-0.383576 0.231153 -0.073113 71 22 105
0.348364 0.065202 -0.122340 34 167 132
-0.553590 0.140612 0.486339 68 1 84
-0.105552 0.030943 -0.402327 68 1 84
0.461601 0.322827 0.169989 52 94 141
-0.415720 0.389722 0.073676 68 1 84
0.566904 0.039118 0.245048 72 28 110
0.182273 0.302803 -0.146323 48 103 141
-0.035153 0.524884 -0.196574 68 1 84
0.170753 0.068297 -0.194259 50 99 141
0.570986 -0.198674 0.121122 38 129 142
-0.244194 -0.385852 -0.235655 51 97 141
-0.678972 -0.305905 0.468193 68 1 84
-0.609013 -0.250343 0.215241 68 1 84
-0.551113 -0.001753 0.096072 69 52 127
-0.600138 -0.028467 0.503941 68 1 84
0.203195 0.528495 -0.082688 68 1 84
0.364202 0.468153 0.111863 53 93 140
0.197567 0.252910 -0.139978 44 113 142
0.445076 0.248723 0.043237 30 160 135
-0.293932 0.575690 0.046488 68 1 84
0.312628 0.177423 -0.134594 30 159 136
0.583629 -0.518875 0.186787 40 122 142
0.048005 0.123139 -0.287559 68 1 84
0.541804 0.185923 0.264767 72 28 110
-0.607689 -0.119786 0.249454 68 1 84
0.401965 0.395333 0.102842 50 98 141
0.354390 -0.149482 -0.142590 39 173 128
0.362518 -0.326155 -0.198078 71 192 110
0.641948 -0.182469 0.453938 68 1 84
-0.585535 -0.024156 0.234986 68 1 84
0.335675 0.511422 0.180676 72 30 112
0.539304 0.166165 0.226361 70 47 124
0.079646 -0.054830 -0.411254 68 1 84
-0.078601 -0.333174 -0.276933 45 111 142
-0.047749 0.457511 -0.183846 68 1 84
-0.644925 -0.499894 0.265855 68 1 84
-0.426206 -0.057212 -0.107310 66 61 132
-0.519138 -0.404406 -0.034722 71 42 121
0.093978 0.014537 -0.392430 68 1 84
0.081888 -0.368513 -0.285290 42 119 142
-0.568536 -0.031928 0.147549 69 54 129
0.688857 -0.267036 0.411042 70 14 97
-0.125440 -0.344502 -0.192318 30 152 138
0.305113 -0.330942 -0.218450 105 204 91
-0.540572 -0.463963 0.040925 61 75 137
-0.093345 0.487155 -0.177826 68 1 84
0.280721 0.557324 0.166017 68 1 84
-0.623582 -0.311775 0.248176 68 1 84
-0.575022 0.112727 0.400992 68 1 84
-0.214203 -0.407885 -0.257175 52 95 141
0.190826 -0.349779 -0.198372 136 213 71
0.505945 0.228253 0.501127 68 1 84
-0.584895 -0.337694 0.162051 70 47 124
0.578670 0.047529 0.323634 68 1 84
0.404915 -0.323793 -0.124941 62 188 115
-0.088635 -0.219581 -0.339523 68 1 84
-0.569798 -0.166472 0.091516 70 47 124
0.022713 -0.215627 -0.404641 68 1 84
0.382838 0.312882 -0.019063 39 124 142
0.369852 -0.059440 -0.132258 51 182 121
0.638207 -0.187915 0.256138 68 55 129
-0.611551 -0.093710 0.294487 68 1 84
0.355730 0.481077 0.113176 57 84 139
0.071850 -0.135178 -0.357639 68 1 84
-0.532618 -0.411967 -0.003091 65 65 134
0.246333 0.070008 -0.176420 33 141 140
0.464960 -0.384107 -0.125191 61 187 116
-0.206601 0.646987 -0.011845 68 1 84
-0.054660 0.147423 -0.290564 68 1 84
-0.491599 -0.521084 -0.122017 70 11 94
-0.079488 -0.389085 -0.308109 56 86 139
-0.001529 -0.152363 -0.442440 68 1 84
-0.074545 -0.068291 -0.477105 68 1 84
-0.521507 0.240737 0.479168 68 1 84
-0.588501 0.056385 0.364824 68 1 84
-0.146955 0.168141 -0.245602 68 1 84
-0.348227 -0.332572 -0.167777 51 96 141
-0.043296 -0.423526 -0.329731 64 67 135
0.509870 0.207922 0.513491 68 1 84
-0.479549 0.237532 0.070532 71 24 106
0.497188 0.142194 0.082708 35 137 141
-0.589068 -0.328679 0.173693 72 32 113
-0.540783 0.081390 0.115241 69 52 127
-0.704204 -0.499158 0.381022 68 1 84
-0.339764 -0.346121 -0.203276 66 61 132
0.077731 -0.171797 -0.328605 68 1 84
-0.503240 -0.325483 -0.012775 64 68 135
-0.650901 -0.203134 0.288895 68 1 84
0.156718 -0.357424 -0.200228 75 194 108
0.514945 0.123272 0.113762 33 140 141
0.391385 0.165965 -0.071503 64 189 114
-0.240622 0.481611 -0.092608 68 1 84
0.157325 0.653086 -0.008640 68 1 84
-0.617734 -0.097710 0.498298 68 1 84
0.617536 -0.457562 0.207812 30 156 137
-0.470647 0.370954 0.363214 68 1 84
0.022978 0.265804 -0.237689 68 1 84
-0.662156 -0.208256 0.390446 68 1 84
0.343004 0.031486 -0.132448 64 189 114
-0.219863 -0.140638 -0.204682 58 83 139
-0.229564 -0.306233 -0.166451 30 154 137
-0.632907 -0.354976 0.257356 68 1 84
-0.251969 -0.358957 -0.234756 41 121 142
0.682712 -0.380254 0.204945 30 159 136
0.457526 0.142728 0.008145 48 180 122
0.339495 0.498364 0.103205 61 74 137
0.730712 -0.358724 0.423800 69 5 88
-0.578933 -0.459006 0.196187 70 14 97
-0.548830 -0.296174 0.044233 66 61 132
-0.054499 0.424925 -0.182940 68 1 84
-0.643252 -0.114214 0.417231 68 1 84
-0.443132 -0.285733 -0.068244 61 75 137
-0.359272 -0.356075 -0.199284 72 34 115
0.417075 0.406748 0.167817 52 94 141
0.456984 0.099779 -0.005003 54 184 119
-0.138616 0.150341 -0.250678 68 1 84
-0.198343 -0.420726 -0.304178 71 40 120
0.057592 0.284398 -0.236893 68 1 84
-0.372873 -0.196847 -0.140005 52 95 141
-0.601672 -0.010411 0.410684 68 1 84
0.636878 -0.170653 0.466394 68 1 84
-0.014358 0.624347 -0.167823 68 1 84
-0.279136 0.213324 -0.152068 68 1 84
-0.149255 0.588575 -0.151547 68 1 84
0.268900 -0.088027 -0.176553 62 188 115
-0.435899 0.279252 0.019086 71 37 117
0.334003 -0.486715 -0.288769 33 167 132
-0.640329 -0.390022 0.281216 68 1 84
0.488232 -0.505877 -0.130366 39 173 128
-0.501141 -0.233949 -0.038848 59 80 138
0.288597 0.552502 0.113633 68 1 84
0.274949 0.348000 -0.093542 43 115 142
-0.641724 -0.147220 0.447433 68 1 84
0.579054 -0.275919 0.139901 46 108 142
0.338731 0.039974 -0.134058 77 194 107
0.292123 0.502458 0.010385 69 6 90
-0.163792 -0.017121 -0.239719 68 1 84
-0.218459 -0.277812 -0.168457 37 130 142
-0.636234 -0.155755 0.508852 68 1 84
0.504131 0.169689 0.118358 38 128 142
0.092299 -0.048460 -0.388040 68 1 84
0.243196 0.078411 -0.175824 32 145 140
-0.028884 0.445288 -0.184468 68 1 84
-0.428386 0.428834 0.285746 72 33 114
-0.550753 -0.442034 0.076048 66 64 133
-0.559427 0.017029 0.136999 72 35 116
0.553462 0.133977 0.426889 68 1 84
-0.148379 0.015768 -0.361740 68 1 84
0.513792 0.196842 0.513690 68 1 84
0.519373 -0.074300 0.021178 42 176 126
0.121318 0.232913 -0.210593 67 58 131
0.478898 -0.032363 -0.024058 47 179 123
-0.000840 0.680842 -0.083134 68 1 84
0.565977 -0.254885 0.102732 36 132 141
0.471737 0.292420 0.156135 41 120 142
-0.153550 0.348187 -0.188681 68 1 84
0.038029 -0.335069 -0.329109 69 52 127
0.525255 0.174246 0.503730 68 1 84
-0.155348 -0.048833 -0.262444 68 3 87
-0.576053 0.117873 0.318443 68 1 84
-0.393317 0.341856 -0.001512 70 11 94
0.402066 -0.347678 -0.163688 50 181 122
-0.683997 -0.259618 0.372211 68 1 84
0.507033 -0.307081 0.002473 30 157 136
0.461156 -0.479263 -0.182262 77 194 107
-0.548316 0.044831 0.114800 69 53 128
-0.698966 -0.547894 0.339969 68 1 84
-0.585676 -0.091764 0.188761 72 25 107
-0.548821 -0.130088 0.042739 67 58 131
-0.297530 0.544274 -0.008886 68 1 84
0.265999 -0.305885 -0.162364 175 220 46
0.390658 -0.222430 -0.106479 30 156 137
0.424510 0.178615 -0.028024 47 179 123
0.524601 0.153765 0.163804 54 90 140
-0.065160 0.477959 -0.184668 68 1 84
0.541417 -0.496631 0.050475 34 167 132
-0.584460 -0.121548 0.164697 71 20 102
-0.201117 0.545578 -0.122291 68 1 84
-0.654722 -0.175853 0.428152 68 1 84
0.761282 -0.474135 0.327651 59 80 138
0.159516 0.599691 -0.109168 68 1 84
-0.706262 -0.496278 0.406010 68 1 84
-0.641879 -0.333117 0.271716 68 1 84
-0.591768 -0.088568 0.211615 68 1 84
-0.310983 0.276924 -0.106891 71 44 123
-0.243293 -0.247845 -0.166350 39 124 142
0.173338 0.031673 -0.192478 46 109 142
-0.235911 -0.454303 -0.323316 68 1 84
0.591726 -0.020086 0.510235 68 1 84
-0.294813 0.428917 -0.057903 68 1 84
-0.554242 0.173337 0.433688 68 1 84
-0.525302 -0.300781 0.007979 67 58 131
0.591153 -0.074127 0.245471 69 52 127
0.352327 0.370982 -0.013087 42 118 142
-0.665147 -0.487192 0.291316 68 1 84
0.505314 0.068489 0.057708 33 141 140
0.667056 -0.388655 0.196357 38 128 142
0.197005 0.178462 -0.195362 62 72 136
0.545115 -0.437110 0.056309 36 170 130
0.534266 -0.023076 0.077109 32 145 140
-0.062742 0.037688 -0.378065 68 1 84
0.080793 -0.219560 -0.302445 69 5 88
0.101633 0.468992 -0.157055 68 1 84
0.665689 -0.207910 0.421348 68 1 84
0.152162 0.188486 -0.216288 69 50 127
0.535792 -0.152912 0.032317 43 177 125
-0.385920 0.253525 -0.063010 71 15 98
0.564673 -0.315840 0.101448 38 128 142
0.525824 0.231605 0.271657 67 60 132
0.212098 0.199818 -0.182612 43 116 142
0.376409 0.371592 0.024053 41 121 142
0.250958 0.585404 0.081440 68 1 84
0.123546 0.371960 -0.173959 72 28 110
-0.088216 0.606337 -0.173266 68 1 84
0.098927 -0.391262 -0.306873 39 124 142
-0.259285 0.609948 0.010900 68 1 84
0.371811 0.471916 0.245857 68 1 84
0.081720 0.232152 -0.235333 68 1 84
0.572378 -0.341164 0.123545 34 138 141
-0.264214 -0.247193 -0.166325 39 125 142
-0.214845 -0.369314 -0.213873 39 125 142
0.123937 0.350432 -0.185706 68 1 84
0.424603 0.181633 -0.026993 42 176 126
0.246650 -0.081002 -0.183937 32 165 133
0.521443 -0.468849 -0.045603 79 195 105
-0.588578 -0.545273 0.220061 68 1 84
0.529059 -0.293882 0.030591 30 156 137
0.625998 -0.084975 0.410326 68 1 84
-0.430900 0.426705 0.197002 69 53 128
0.461339 0.214860 0.051222 32 143 140
0.297033 0.475735 -0.003473 71 37 117
-0.167279 0.003796 -0.295136 68 1 84
0.088479 0.114189 -0.255529 68 1 84
0.725139 -0.387363 0.312144 64 67 135
0.065049 0.371200 -0.206677 68 1 84
-0.245639 0.418089 -0.097886 68 1 84
0.454858 0.270916 0.081989 43 116 142
0.145519 0.635442 -0.091315 68 1 84
0.588210 -0.240884 0.168115 41 121 142
0.486880 -0.000889 0.001449 46 178 124
-0.047686 -0.277716 -0.366991 68 1 84
0.350757 -0.175270 -0.136906 68 190 112
-0.075866 -0.169931 -0.392533 68 1 84
-0.575068 -0.192289 0.108457 72 32 113
-0.348747 -0.486480 -0.272298 68 1 84
0.697136 -0.284761 0.379549 71 43 122
-0.637995 -0.386716 0.277878 68 1 84
-0.469458 -0.022371 -0.044682 67 60 132
0.042291 0.620787 -0.166638 68 1 84
-0.090987 -0.131444 -0.397087 68 1 84
-0.098575 -0.357500 -0.250172 42 118 142
0.285862 0.452364 -0.030171 59 81 138
-0.252162 0.416221 -0.093270 68 1 84
0.488664 0.309466 0.285229 70 48 125
-0.649973 -0.401151 0.295427 68 1 84
-0.633966 -0.128362 0.453481 68 1 84
0.119245 0.489669 -0.150349 68 1 84
-0.235875 -0.332337 -0.178359 36 134 141
0.234837 0.398445 -0.094144 58 82 139
-0.599683 -0.261393 0.188675 68 1 84
-0.581830 -0.428104 0.187725 66 61 132
0.597931 -0.032639 0.444028 68 1 84
0.049893 0.661307 -0.122811 68 1 84
0.549591 0.119145 0.472561 68 1 84
0.545501 0.175402 0.398407 68 1 84
0.520532 -0.162361 0.000349 44 177 125
0.151094 -0.355585 -0.199285 48 180 122
0.046046 0.043264 -0.412693 68 1 84
0.138892 0.245805 -0.175179 55 88 140
-0.564675 0.140320 0.428456 68 1 84
-0.514116 -0.254772 -0.017626 60 77 138
-0.585396 0.073148 0.360623 68 1 84
0.215266 -0.311413 -0.163700 121 209 81
-0.129465 0.441478 -0.160792 68 1 84
-0.641390 -0.098848 0.373140 68 1 84
0.275602 -0.466209 -0.316955 36 132 141
0.282364 0.071522 -0.163894 33 167 132
-0.035982 -0.008686 -0.506332 68 1 84
0.583662 -0.069745 0.225696 64 67 135
-0.282781 0.586138 0.083465 68 1 84
-0.665691 -0.243580 0.466429 68 1 84
0.461053 0.300020 0.131504 41 121 142
0.424612 0.234486 -0.002725 30 156 137
-0.529537 0.192294 0.513959 68 1 84
-0.492596 0.336872 0.369818 68 1 84
0.078672 0.017997 -0.414479 68 1 84
-0.117092 0.072335 -0.258965 68 1 84
-0.611919 -0.227378 0.220867 68 1 84
-0.445020 0.404094 0.185946 70 9 92
-0.113741 0.156482 -0.267444 68 1 84
0.338885 -0.250037 -0.153418 36 170 130
0.454612 0.363174 0.264189 70 45 124
-0.644442 -0.157142 0.356287 68 1 84
0.157875 0.166826 -0.216375 71 42 121
-0.307895 0.495853 -0.022810 68 1 84
-0.260411 -0.393821 -0.241452 48 104 141
0.463554 0.289855 0.125280 37 131 141
-0.489942 0.027856 0.001908 70 48 125
0.177478 -0.050449 -0.206761 31 162 134
-0.162614 0.234003 -0.193153 68 1 84
0.068937 0.241897 -0.223380 68 1 84
-0.072951 0.288209 -0.241369 68 1 84
-0.456249 0.383163 0.177368 71 18 101
0.299871 0.198089 -0.139234 32 165 133
-0.163744 0.335185 -0.185010 68 1 84
-0.621321 -0.188425 0.238947 68 1 84
-0.452774 0.224598 0.017116 69 52 127
-0.215252 0.511966 -0.111892 68 1 84
-0.237918 0.627092 0.037481 68 1 84
0.000142 0.068082 -0.396153 68 1 84
-0.100565 -0.266224 -0.246277 34 137 141
0.464910 -0.067526 -0.058149 41 175 127
-0.284890 -0.325891 -0.162000 40 122 142
-0.360443 -0.071768 -0.159146 67 59 131
0.094249 -0.039251 -0.391409 68 1 84
0.493883 -0.218256 -0.027742 30 158 136
-0.300051 0.097493 -0.162998 71 39 119
0.108583 0.526478 -0.161953 68 1 84
-0.564349 -0.239599 0.068475 64 67 135
0.307509 0.410940 -0.034779 40 122 142
-0.594018 0.023010 0.347827 68 1 84
0.237959 0.044326 -0.180731 32 144 140
0.616590 -0.081816 0.435976 68 1 84
-0.110919 -0.360387 -0.233602 45 110 142
-0.405287 0.094770 -0.087226 71 43 122
0.127149 0.020213 -0.296699 68 1 84
0.426772 0.219967 -0.007544 30 151 138
-0.032868 0.277433 -0.240455 68 1 84
-0.227753 0.231932 -0.147727 72 35 116
0.120473 0.018916 -0.333528 68 1 84
-0.095090 -0.211872 -0.325198 68 1 84
-0.189324 -0.084364 -0.220724 68 1 84
-0.142084 -0.052552 -0.319322 68 1 84
-0.268017 -0.252195 -0.167650 46 108 142
-0.574477 -0.086608 0.145067 71 39 119
0.754117 -0.482863 0.284418 49 101 141
-0.507549 0.229760 0.122029 70 9 92
-0.554939 0.158964 0.452434 68 1 84
-0.113406 -0.215448 -0.270191 66 61 132
0.478803 0.187524 0.069917 33 142 140
0.323976 -0.022624 -0.153078 61 187 116
-0.595391 -0.073062 0.235612 68 1 84
0.422825 0.410016 0.216857 55 88 140
-0.224114 0.636709 0.008638 68 1 84
0.084650 -0.430679 -0.340809 71 21 103
-0.217699 0.286427 -0.135849 68 1 84
-0.314572 -0.165673 -0.169070 69 53 128
0.010827 0.668970 -0.114950 68 1 84
0.085466 -0.233545 -0.280049 71 15 98
-0.581301 -0.438143 0.191499 69 50 127
-0.564899 0.103829 0.481085 68 1 84
0.515732 0.005403 0.048464 33 141 140
-0.226932 -0.462189 -0.327225 68 1 84
-0.585310 0.066997 0.401131 68 1 84
0.010622 0.012367 -0.499386 68 1 84
0.641470 -0.217098 0.250551 60 78 138
0.298774 0.539451 0.085120 71 38 118
0.206376 0.198214 -0.185074 49 101 141
0.111904 0.122919 -0.240346 68 1 84
0.417123 0.203554 -0.030324 40 174 127
-0.598836 -0.000342 0.413587 68 1 84
0.553984 -0.146717 0.080866 30 153 138
-0.596327 -0.409889 0.229457 72 26 108
0.079153 -0.045095 -0.418462 68 1 84
0.579478 -0.439967 0.177326 44 112 142
-0.190918 -0.115570 -0.217657 70 48 125
-0.313883 0.375776 -0.063566 68 1 84
0.480261 -0.399313 -0.123628 77 194 107
0.305436 0.274458 -0.109778 46 107 142
0.385993 -0.317247 -0.142055 35 169 130
-0.270025 -0.393365 -0.242187 48 103 141
0.446991 0.367036 0.384057 68 1 84
0.344063 -0.220515 -0.135664 57 185 118
-0.003836 0.070556 -0.382657 68 1 84
0.228051 0.604741 0.064782 68 1 84
-0.462837 -0.358742 -0.076087 65 65 134
-0.105273 0.120562 -0.274079 68 1 84
0.688158 -0.271354 0.448742 68 1 84
0.191150 0.628257 -0.021022 68 1 84
0.456081 -0.319524 -0.055894 38 172 129
0.161727 0.160869 -0.214453 63 71 136
-0.114025 0.220538 -0.251662 68 1 84
-0.037409 0.672068 -0.103718 68 1 84
-0.587201 0.046707 0.313803 68 1 84
-0.333066 -0.345480 -0.210967 69 53 128
-0.297842 0.565571 0.123694 70 14 97
-0.300114 -0.110424 -0.184411 72 29 111
0.408704 0.005704 -0.087215 62 188 115
0.449220 0.371442 0.269072 71 40 120
0.333092 -0.330397 -0.226867 64 189 114
-0.423763 0.028993 -0.084137 67 58 131
0.485772 -0.250126 -0.026123 31 148 139
-0.274061 -0.438284 -0.286497 68 1 84
-0.591003 0.019963 0.447080 68 1 84
-0.518507 0.154905 0.103108 70 11 94
0.685006 -0.255033 0.409089 71 22 105
0.330389 -0.195642 -0.139486 31 161 135
0.700749 -0.418985 0.199530 31 163 134
-0.463263 0.388284 0.245235 71 22 105
-0.456344 0.395808 0.307798 68 1 84
-0.565862 0.081348 0.500369 68 1 84
0.123721 0.429172 -0.151088 68 1 84
0.028959 -0.084292 -0.460566 68 1 84
0.309584 0.534200 0.122428 71 18 101
-0.132546 -0.131336 -0.278055 69 6 90
-0.178511 -0.181251 -0.208960 51 97 141
0.561693 0.089638 0.255073 68 57 130
-0.644154 -0.503295 0.264479 68 1 84
0.030858 0.185315 -0.285848 68 1 84
-0.208603 0.611598 -0.090518 68 1 84
0.560396 -0.177289 0.090960 31 146 140
0.545333 -0.463043 0.067787 33 167 132
-0.185669 -0.387213 -0.230115 32 143 140
-0.012396 0.549997 -0.196337 68 1 84
0.049412 -0.183770 -0.385128 68 1 84
-0.007317 0.301678 -0.249643 68 1 84
0.529995 -0.345497 0.028369 30 153 138
-0.342274 -0.077900 -0.168819 68 57 130
-0.523247 0.224679 0.159233 68 1 84
-0.104027 -0.415076 -0.328496 71 37 117
-0.008192 0.333452 -0.248774 68 1 84
-0.480146 0.067492 0.001506 68 57 130
0.210586 0.618961 0.057938 68 1 84
0.270180 0.428720 -0.057890 60 78 138
0.510457 -0.125393 -0.012645 30 160 135
-0.484143 0.339206 0.411652 68 1 84
-0.516140 0.303262 0.260346 68 1 84
-0.245121 0.482237 -0.089059 68 1 84
-0.537840 -0.412796 0.014226 55 88 140
0.765315 -0.473964 0.379530 61 75 137
-0.576610 -0.536893 0.193472 68 1 84
-0.573005 -0.291759 0.110364 68 55 129
0.700039 -0.318293 0.286048 53 93 140
0.012919 0.241692 -0.245047 68 1 84
0.176153 0.110168 -0.200455 53 92 140
-0.392591 0.415810 0.057551 68 1 84
0.077801 0.674912 -0.073640 68 1 84
-0.462236 0.290930 0.073075 71 24 106
0.184537 -0.103462 -0.203728 30 152 138
-0.490601 -0.408567 -0.095125 69 52 127
0.581563 -0.398970 0.169399 42 118 142
0.357145 -0.231147 -0.132000 44 177 125
0.430591 0.128093 -0.033643 48 180 122
0.214210 0.139983 -0.188243 39 125 142
-0.551035 0.209666 0.264947 68 1 84
0.315841 -0.350761 -0.237785 35 168 131
-0.558818 0.045175 0.151015 72 33 114
0.532632 -0.350029 0.031577 31 149 139
0.571942 0.060303 0.291034 68 1 84
-0.576547 0.107207 0.292476 68 1 84
0.560051 -0.211078 0.086422 38 129 142
-0.679960 -0.313612 0.448628 68 1 84
-0.173410 -0.309591 -0.153330 42 176 126
-0.262863 -0.094914 -0.198039 71 39 119
0.173647 -0.071021 -0.210277 44 112 142
0.695825 -0.395252 0.209742 31 161 135
-0.533132 0.231333 0.202364 69 8 91
0.152981 -0.343469 -0.183929 35 168 131
0.058807 0.322718 -0.238637 68 1 84
0.407330 0.367838 0.078450 50 99 141
-0.231470 -0.242704 -0.167046 31 148 139
-0.185419 0.479128 -0.132006 68 1 84
-0.471135 -0.352226 -0.057141 67 59 131
-0.302453 0.326481 -0.090311 68 1 84
0.126823 0.013312 -0.310018 68 1 84
-0.461189 0.376616 0.183434 68 1 84
0.048015 -0.198428 -0.384369 68 1 84
-0.281658 0.062402 -0.176403 70 12 95
0.202036 0.622682 0.002051 68 1 84
-0.396029 0.464693 0.241190 66 61 132
0.105651 0.200559 -0.247258 71 20 102
0.513720 -0.447891 -0.073257 66 190 113
0.640411 -0.154522 0.282163 68 57 130
0.544646 0.032260 0.145789 53 93 140
0.092824 0.629043 -0.139679 68 1 84
-0.525208 0.219302 0.498683 68 1 84
0.072944 -0.107503 -0.377814 68 1 84
-0.265162 0.592394 -0.019226 68 1 84
0.071124 -0.232906 -0.322796 68 1 84
-0.045067 0.588736 -0.188084 68 1 84
0.056831 0.658272 -0.124343 68 1 84
-0.340019 0.247213 -0.101265 72 25 107
-0.590558 -0.394420 0.203692 72 28 110
0.484163 0.303161 0.443367 68 1 84
-0.558138 0.082597 0.170130 71 18 101
0.091957 -0.301357 -0.215330 30 157 136
0.218862 0.582379 -0.037149 68 1 84
-0.487177 0.121977 0.030939 71 42 121
-0.225201 -0.398086 -0.239021 56 86 139
0.519998 -0.058526 0.029150 35 168 131
0.482016 0.301981 0.455867 68 1 84
-0.204997 -0.189322 -0.192401 40 122 142
-0.546319 -0.457137 0.062491 63 71 136
-0.667677 -0.254053 0.462709 68 1 84
-0.586164 -0.332555 0.164772 71 21 103
-0.339181 0.238596 -0.104433 68 1 84
0.574248 -0.029898 0.226355 69 53 128
-0.370499 0.458301 0.059608 68 1 84
0.001011 0.546072 -0.195752 68 1 84
-0.544682 -0.418257 0.040788 58 82 139
0.176232 0.632088 -0.048829 68 1 84
-0.209218 0.076672 -0.194111 66 64 133
-0.058678 0.320593 -0.247778 68 1 84
-0.399215 0.051299 -0.104300 66 64 133
-0.609546 -0.128108 0.251322 68 1 84
-0.003687 0.069161 -0.396968 68 1 84
-0.092613 0.284653 -0.235833 68 1 84
0.407939 0.365189 0.076799 48 103 141
0.157862 0.404075 -0.139353 68 3 87
0.498604 0.141073 0.085239 39 125 142
0.032195 0.429515 -0.178037 68 1 84
0.743926 -0.430339 0.334059 64 68 135
-0.574418 -0.263643 0.108261 70 47 124
-0.537478 -0.152209 0.008782 59 81 138
-0.151439 0.624780 -0.128281 68 1 84
-0.013459 0.524475 -0.197097 68 1 84
0.262873 -0.347761 -0.241175 57 185 118
0.496949 -0.502991 -0.109262 68 190 112
-0.168950 -0.177370 -0.216164 57 84 139
-0.098355 -0.044722 -0.466345 68 1 84
0.495496 -0.323544 -0.013170 34 167 132
-0.095594 -0.080506 -0.443314 68 1 84
0.225310 0.587083 -0.019166 68 1 84
0.161828 -0.170536 -0.206304 30 159 136
0.383773 0.397743 0.066409 43 115 142
0.158499 -0.205184 -0.194230 33 166 133
-0.570657 -0.250168 0.091477 63 69 135
-0.064235 -0.247811 -0.371168 68 1 84
0.442740 -0.172678 -0.086450 50 181 122
-0.336109 -0.238429 -0.148440 51 97 141
-0.639065 -0.283786 0.280856 68 1 84
-0.359593 0.502190 0.108938 68 1 84
-0.571491 -0.464644 0.170092 72 34 115
0.214361 -0.110786 -0.191017 35 169 130
-0.477584 -0.046257 -0.044272 67 59 131
0.164149 -0.267564 -0.162710 30 154 137
-0.275094 0.596816 0.060679 68 1 84
0.133804 0.613741 -0.123421 68 1 84
-0.242905 0.020382 -0.192560 63 69 135
0.541223 0.145916 0.210659 62 73 137
0.560883 0.130155 0.361181 68 1 84
-0.110500 -0.070139 -0.428388 68 1 84
-0.602569 -0.066713 0.271275 68 1 84
0.104459 -0.297057 -0.197985 33 166 133
-0.507783 -0.182021 -0.042344 61 75 137
-0.214294 -0.415898 -0.279651 64 67 135
0.179931 -0.284255 -0.154707 71 192 110
-0.689569 -0.530963 0.307789 68 1 84
0.148648 0.651037 -0.056442 68 1 84
-0.318932 -0.386217 -0.233082 57 84 139
0.561923 -0.134442 0.109671 34 137 141
0.110644 -0.077582 -0.287223 72 26 108
-0.565891 -0.054378 0.122780 69 53 128
-0.563569 0.073606 0.189385 68 1 84
-0.562402 0.052286 0.168678 71 20 102
-0.175526 -0.209685 -0.196000 33 140 141
-0.339438 -0.185224 -0.155457 71 38 118
-0.548817 0.206088 0.406997 68 1 84
-0.542979 -0.525676 0.065316 60 77 138
0.412605 -0.092825 -0.113509 50 181 122
0.564977 -0.069190 0.157397 46 108 142
0.549144 0.113582 0.214280 60 77 138
-0.556004 0.139268 0.200661 68 1 84
0.296803 0.374348 -0.067469 40 122 142
0.042751 0.037008 -0.339813 68 1 84
-0.148171 0.035884 -0.253146 68 1 84
0.599978 -0.048728 0.305719 68 1 84
0.099929 0.000678 -0.386762 68 1 84
-0.536606 0.016283 0.071130 70 48 125
-0.164057 -0.406274 -0.288072 64 68 135
0.391077 -0.011578 -0.107011 57 185 118
0.030037 -0.128430 -0.432765 68 1 84
0.170737 -0.334550 -0.173799 105 204 91
-0.004742 -0.472859 -0.344500 71 44 123
-0.523401 0.277939 0.377053 68 1 84
0.352337 0.446553 0.059845 52 94 141
-0.437013 -0.360021 -0.114256 59 81 138
0.098625 0.672092 -0.056806 68 1 84
0.475705 0.312059 0.208011 53 93 140
-0.413192 0.445896 0.278362 71 44 123
0.121649 0.029061 -0.265218 71 40 120
0.463407 -0.084649 -0.066579 38 172 129
0.645807 -0.122177 0.396091 69 5 88
-0.575528 -0.031230 0.183845 72 35 116
-0.518908 0.266244 0.439808 68 1 84
-0.446037 0.398225 0.365665 68 1 84
0.527469 -0.405019 -0.023157 41 175 127
0.304035 0.208478 -0.133526 42 176 126
-0.228148 0.225343 -0.158144 72 26 108
0.414681 0.248694 -0.012511 34 167 132
-0.118244 -0.372481 -0.245039 41 121 142
-0.286907 0.577285 0.013895 68 1 84
0.652099 -0.198830 0.441956 68 1 84
-0.099163 0.176708 -0.275897 68 1 84
0.583504 0.032524 0.408271 68 1 84
0.141140 0.176632 -0.225012 71 42 121
-0.415953 0.036026 -0.091245 66 64 133
0.283672 0.555075 0.157150 69 6 90
-0.172696 0.033737 -0.208094 68 1 84
-0.086668 0.129014 -0.286866 68 1 84
-0.703471 -0.474382 0.428400 68 1 84
-0.173600 0.378918 -0.159211 68 1 84
-0.179657 0.600732 -0.123448 68 1 84
0.536975 -0.401297 0.018482 44 177 125
-0.440752 -0.242754 -0.085371 56 86 139
-0.142791 0.672176 -0.053599 68 1 84
0.121061 0.645060 -0.103284 68 1 84
0.533275 -0.169485 0.024918 43 177 125
0.674091 -0.213096 0.400824 68 1 84
0.561050 -0.072988 0.138276 39 125 142
-0.244299 0.210092 -0.166495 71 24 106
0.084227 0.286135 -0.220828 68 1 84
-0.484332 -0.429154 -0.130004 64 67 135
-0.532582 0.269289 0.335974 68 1 84
-0.465745 -0.511750 -0.168550 68 55 129
0.334814 0.381284 -0.026878 50 98 141
0.310631 -0.340991 -0.238390 33 166 133
-0.599483 -0.212947 0.190018 68 1 84
-0.309375 -0.342591 -0.184368 56 86 139
0.433487 0.381067 0.394886 68 1 84
-0.475550 0.249573 0.070238 72 30 112
0.220443 0.086186 -0.181024 30 152 138
-0.422189 0.439293 0.207970 70 47 124
0.709552 -0.330427 0.341752 66 61 132
0.523724 -0.121773 0.013209 50 181 122
-0.613358 -0.085950 0.307337 68 1 84
0.654949 -0.150447 0.404748 68 1 84
0.382216 0.103605 -0.089322 34 167 132
0.010770 -0.234055 -0.401773 68 1 84
0.341618 0.448072 0.041668 57 84 139
-0.493915 -0.420390 -0.104198 71 42 121
0.609052 -0.140017 0.249715 54 90 140
-0.142909 0.116583 -0.244621 68 1 84
-0.624049 -0.112874 0.474006 68 1 84
0.374599 0.455537 0.119931 55 88 140
0.725335 -0.428724 0.238300 39 126 142
-0.440709 0.273745 0.023403 71 37 117
-0.623210 -0.110298 0.474866 68 1 84
-0.425433 0.154213 -0.049914 60 77 138
-0.117279 0.034285 -0.377819 68 1 84
0.597847 -0.509238 0.210421 41 120 142
0.072412 -0.020316 -0.442475 68 1 84
-0.606400 -0.081948 0.276601 68 1 84
0.526930 -0.357757 0.017038 30 158 136
-0.520602 0.216751 0.145606 69 6 90
0.341839 0.502283 0.236912 68 1 84
-0.090552 -0.037776 -0.478756 68 1 84
0.733024 -0.432304 0.252784 43 116 142
0.133552 -0.386183 -0.282106 32 165 133
0.061188 0.019524 -0.443020 68 1 84
0.516501 -0.222695 0.000554 35 137 141
-0.354277 -0.208581 -0.142732 56 87 140
0.223717 0.144306 -0.184830 46 107 142
0.563553 0.103598 0.416430 68 1 84
0.452405 0.173184 0.012870 41 175 127
0.473900 -0.126155 -0.064184 35 168 131
-0.622532 -0.114170 0.482561 68 1 84
0.029286 0.195270 -0.284458 68 1 84
-0.656933 -0.210635 0.492642 68 1 84
0.128117 0.126410 -0.230619 68 1 84
-0.584375 0.070106 0.404385 68 1 84
0.022135 0.366096 -0.220839 68 1 84
0.073472 -0.105303 -0.378566 68 1 84
-0.108208 -0.074646 -0.428048 68 1 84
-0.587878 -0.114812 0.180705 71 20 102
-0.413509 0.438681 0.142385 71 20 102
0.140277 0.020856 -0.203838 49 102 141
0.554476 -0.323987 0.077083 38 129 142
-0.448534 -0.059976 -0.085619 66 64 133
0.596528 -0.037212 0.456786 68 1 84
-0.607923 -0.028475 0.381556 68 1 84
-0.507036 -0.468182 -0.092334 69 52 127
-0.577324 -0.312071 0.127706 70 47 124
-0.503777 0.277255 0.156917 68 1 84
-0.279966 -0.022033 -0.193550 66 64 133
0.631724 -0.112763 0.349286 71 22 105
0.656419 -0.325556 0.215518 45 110 142
-0.539062 0.049018 0.092599 67 60 132
0.085822 0.674820 -0.062213 68 1 84
0.376007 0.442766 0.103786 51 97 141
0.675559 -0.211601 0.328067 68 57 130
-0.443531 0.317253 0.059068 72 35 116
-0.399445 -0.445074 -0.231699 72 32 113
-0.668808 -0.491830 0.291723 68 1 84
0.347873 -0.148091 -0.145231 40 174 127
0.470136 0.339124 0.349140 70 14 97
-0.443192 0.210560 -0.006942 70 45 124
0.451651 -0.443047 -0.192412 53 183 120
-0.585368 0.073463 0.374086 68 1 84
-0.255042 0.491484 -0.079655 68 1 84
0.526565 -0.214152 0.014298 31 147 139
0.479992 -0.099789 -0.051704 41 175 127
0.583967 -0.118403 0.195299 55 88 140
-0.208837 0.227556 -0.164844 68 1 84
-0.121154 0.126869 -0.262756 68 1 84
0.078860 0.082010 -0.257257 72 26 108
-0.158112 0.525512 -0.154121 68 1 84
0.551555 0.096062 0.494009 68 1 84
0.089076 -0.216347 -0.283598 71 40 120
-0.014126 0.064438 -0.440625 68 1 84
0.719833 -0.369844 0.278114 53 93 140
0.472358 -0.227011 -0.044807 30 151 138
-0.558756 0.129494 0.205073 68 1 84
0.592126 -0.465402 0.214980 49 100 141
-0.233169 0.034081 -0.190797 60 78 138
0.426011 0.402881 0.282216 72 29 111
0.550484 0.165591 0.380895 69 8 91
0.558465 -0.305211 0.085111 37 130 142
0.395261 0.444854 0.194124 63 69 135
0.370358 -0.144818 -0.137300 41 175 127
0.338252 0.508309 0.136251 63 71 136
-0.284611 -0.482886 -0.306742 68 1 84
0.490395 -0.476573 -0.122142 50 181 122
0.027305 -0.213653 -0.402307 68 1 84
0.486517 0.185770 0.086332 34 138 141
0.084243 -0.341144 -0.245707 45 110 142
0.128924 0.548425 -0.148661 68 1 84
-0.579824 0.082676 0.420535 68 1 84
0.127192 0.011271 -0.216550 59 80 138
-0.595912 -0.111392 0.210550 68 1 84
-0.561448 -0.348522 0.089165 70 47 124
0.735133 -0.496946 0.240076 32 165 133
0.527596 0.191994 0.464718 68 1 84
0.051216 -0.179081 -0.383120 68 1 84
-0.616242 -0.162541 0.241950 68 1 84
0.620210 -0.205863 0.234934 65 66 134
-0.087889 -0.353925 -0.266625 39 126 142
-0.114027 -0.110141 -0.360556 68 1 84
-0.102420 -0.251003 -0.263120 42 118 142
-0.583814 -0.092873 0.181280 72 30 112
-0.397544 0.465238 0.225734 65 65 134
0.242973 -0.159454 -0.172743 46 178 124
0.087981 0.178194 -0.259731 68 1 84
0.077083 -0.255762 -0.283416 68 55 129
-0.542760 0.245560 0.307636 68 1 84
-0.180032 0.255326 -0.156464 68 1 84
-0.383881 -0.404743 -0.205258 68 1 84
0.099473 0.594242 -0.158727 68 1 84
-0.386851 0.469646 0.285764 69 8 91
0.372238 0.459740 0.310091 68 1 84
0.019018 -0.260643 -0.385298 68 1 84
-0.106463 -0.228990 -0.276304 64 68 135
0.131809 -0.410424 -0.329454 37 130 142
0.665049 -0.176693 0.398899 72 29 111
-0.399153 0.097320 -0.092958 61 75 137
0.695780 -0.342207 0.235651 34 139 141
0.369916 -0.402830 -0.232349 30 158 136
0.014802 0.059800 -0.413188 68 1 84
0.712000 -0.343222 0.312294 68 57 130
-0.153538 0.025026 -0.343638 68 1 84
-0.576844 -0.218358 0.114866 72 28 110
0.330796 -0.465304 -0.285964 30 154 137
0.308206 0.531856 0.096107 71 17 99
0.533576 -0.118276 0.035799 35 169 130
-0.139358 0.370385 -0.187613 68 1 84
-0.422273 0.080098 -0.070584 67 58 131
-0.570025 0.077214 0.221614 68 1 84
0.136390 0.623562 -0.113536 68 1 84
0.345689 0.470075 0.071135 65 65 134
0.437065 0.139502 -0.022525 54 184 119
-0.660282 -0.442183 0.301964 68 1 84
0.186367 0.567786 -0.092500 68 1 84
-0.100305 0.106857 -0.278076 68 1 84
-0.459794 0.231339 0.032762 71 44 123
0.414021 -0.427033 -0.226521 85 198 102
0.287969 -0.419684 -0.277548 79 195 105
0.448763 0.157793 0.000195 43 177 125
0.490811 -0.113463 -0.041466 35 168 131
0.577663 -0.229919 0.138572 32 144 140
-0.317834 -0.101400 -0.178581 71 18 101
0.545073 0.059516 0.164804 36 134 141
0.539671 -0.264434 0.043892 30 158 136
-0.134109 0.003888 -0.399266 68 1 84
-0.089624 0.359529 -0.218721 68 1 84
0.313838 -0.193067 -0.145692 43 177 125
-0.341412 -0.411521 -0.232801 72 33 114
-0.610215 -0.089217 0.291333 68 1 84
-0.496726 -0.236870 -0.042375 49 100 141
-0.279502 0.306929 -0.106332 68 1 84
0.558626 -0.450354 0.109853 31 147 139
-0.575686 -0.137936 0.125089 70 49 126
0.195505 0.266079 -0.134688 41 120 142
-0.563843 0.076376 0.193200 68 1 84
-0.294306 0.545818 -0.013960 68 1 84
0.027986 0.241401 -0.241346 68 1 84
0.557303 0.117412 0.254366 66 61 132
-0.043542 0.554436 -0.195541 68 1 84
-0.126486 0.010037 -0.411541 68 1 84
0.739672 -0.413140 0.361417 66 64 133
-0.138667 0.093250 -0.242889 70 14 97
-0.117159 0.395148 -0.185293 68 1 84
0.366592 0.207451 -0.086574 41 175 127
0.213325 -0.404273 -0.291990 38 172 129
0.252058 0.142967 -0.172528 30 153 138
-0.437378 0.417838 0.198048 71 40 120
0.433320 -0.471281 -0.215659 43 177 125
-0.659845 -0.193109 0.423519 68 1 84
0.668543 -0.292057 0.233811 39 126 142
-0.540180 -0.192744 0.010632 56 86 139
0.095046 -0.095035 -0.321739 68 1 84
0.004086 -0.269395 -0.383256 68 1 84
-0.125201 0.026058 -0.390804 68 1 84
0.328381 0.518572 0.163831 71 38 118
-0.583845 -0.274888 0.140951 72 30 112
-0.238437 0.120417 -0.185945 68 1 84
-0.643132 -0.149228 0.355517 68 1 84
-0.080789 -0.359054 -0.283231 42 118 142
0.576941 -0.276228 0.134110 43 116 142
-0.348452 0.374716 -0.033739 68 1 84
-0.482453 0.160381 0.038780 71 18 101
0.053206 -0.207582 -0.373775 68 1 84
0.461619 0.352790 0.297277 68 1 84
-0.176789 -0.261969 -0.165928 37 171 129
0.722400 -0.343442 0.430447 68 1 84
-0.466272 -0.152801 -0.090976 50 98 141
-0.144469 0.047755 -0.295858 68 1 84
-0.686924 -0.531080 0.303326 68 1 84
0.498652 0.251544 0.189788 51 96 141
0.022724 0.335918 -0.244451 68 1 84
0.475187 0.262192 0.124869 46 109 142
0.333051 0.134716 -0.125601 35 169 130
-0.498141 -0.453350 -0.122264 61 75 137
-0.434931 0.357347 0.078473 68 1 84
0.450680 -0.388455 -0.149061 47 179 123
0.453442 -0.429116 -0.184283 61 187 116
-0.055554 0.484339 -0.188101 68 1 84
0.116523 -0.158511 -0.258379 64 68 135
-0.563091 0.152120 0.252480 68 1 84
0.603140 -0.162604 0.221730 57 85 139
-0.047895 0.167966 -0.286469 68 1 84
0.064983 0.384611 -0.196842 68 1 84
-0.575972 -0.439561 0.173575 70 48 125
0.680405 -0.226095 0.379659 70 48 125
-0.534358 -0.080887 0.032771 72 34 115
0.502459 0.007894 0.026624 35 169 130
0.181510 0.508011 -0.104961 68 1 84
-0.304094 0.045942 -0.173388 68 1 84
0.583580 -0.445568 0.190047 44 112 142
0.499323 -0.396303 -0.085677 48 180 122
0.168279 0.419057 -0.128355 68 1 84
0.573855 0.064563 0.413164 68 1 84
0.482738 -0.222865 -0.037164 31 162 134
-0.505611 -0.467049 -0.099339 63 71 136
0.096779 0.509560 -0.167000 68 1 84
-0.175196 0.649611 -0.082469 68 1 84
-0.507652 -0.523218 -0.077336 70 11 94
0.602300 -0.078129 0.284387 72 29 111
-0.588941 0.049108 0.342517 68 1 84
-0.380984 0.377706 0.008370 68 1 84
-0.430733 0.326350 0.044278 70 47 124
0.678581 -0.284953 0.256693 43 115 142
0.545365 -0.090770 0.077098 39 173 128
0.457184 -0.223526 -0.057890 32 165 133
-0.558578 -0.247490 0.054536 69 50 127
-0.552732 -0.448857 0.087049 66 64 133
-0.603414 -0.203963 0.203678 68 1 84
0.676098 -0.229464 0.287051 52 94 141
-0.546936 0.130548 0.518340 68 1 84
0.500049 0.043465 0.036432 31 147 139
-0.586214 0.044054 0.300629 68 1 84
0.064289 0.659017 -0.119858 68 1 84
-0.669010 -0.265137 0.482623 68 1 84
-0.657899 -0.182266 0.437053 68 1 84
0.555193 0.149336 0.376320 71 22 105
0.406756 0.037269 -0.080659 30 158 136
-0.132260 -0.322081 -0.169867 31 149 139
0.364013 0.028559 -0.117814 50 181 122
-0.420935 0.116925 -0.063022 70 47 124
-0.567169 -0.087571 0.112539 70 45 124
-0.572788 -0.452634 0.168518 71 17 99
0.196687 -0.173929 -0.185763 57 185 118
0.584207 -0.212568 0.162953 42 119 142
0.597448 -0.423110 0.199395 40 122 142
-0.301138 0.560545 0.024267 68 1 84
0.257294 -0.323980 -0.173608 241 229 28
0.395659 -0.062905 -0.117382 53 183 120
0.256481 -0.236475 -0.163746 30 159 136
-0.497110 -0.197038 -0.052897 49 102 141
0.423104 0.402515 0.183430 58 82 139
-0.438737 0.411249 0.176307 71 15 98
-0.546063 -0.282586 0.035190 71 42 121
-0.110539 -0.088676 -0.407054 68 1 84
-0.199557 0.651096 -0.000948 68 1 84
-0.568509 0.145682 0.283500 68 1 84
-0.391911 0.462955 0.124873 68 1 84
0.077282 0.019150 -0.415482 68 1 84
-0.313913 -0.334951 -0.167281 46 109 142
-0.494577 0.326106 0.399027 68 1 84
-0.450187 0.089149 -0.032145 67 60 132
-0.113282 -0.134305 -0.321786 68 1 84
-0.580272 -0.472055 0.207691 68 1 84
-0.112447 -0.093840 -0.394162 68 1 84
0.290354 0.549372 0.162467 69 5 88
0.567514 -0.070810 0.168573 53 93 140
0.128184 -0.437697 -0.345298 43 115 142
0.115797 0.501281 -0.154069 68 1 84
0.126436 0.626978 -0.118834 68 1 84
0.555375 -0.198200 0.073550 36 132 141
0.745345 -0.492744 0.264445 36 133 141
-0.064378 -0.124305 -0.441784 68 1 84
0.373290 0.217085 -0.078478 32 165 133
-0.636679 -0.317173 0.265252 68 1 84
-0.417945 -0.365777 -0.142803 70 49 126
0.570761 -0.415476 0.140348 38 128 142
0.105581 -0.339145 -0.208663 37 130 142
0.036092 0.048755 -0.434532 68 1 84
-0.034024 0.410170 -0.188074 68 1 84
0.127817 -0.019045 -0.281827 68 1 84
-0.652599 -0.153533 0.412942 68 1 84
-0.470985 -0.504470 -0.163014 71 43 122
-0.300003 -0.345385 -0.218004 52 94 141
0.358823 0.488553 0.158681 67 60 132
