ply
format ascii 1.0
element vertex 1280
property float x
property float y
property float z
property uchar red
property uchar green
property uchar blue
end_header
-0.291018 0.532059 0.009781 68 1 84
-0.121101 -0.135549 -0.268502 40 122 142
0.029260 0.488137 -0.239951 42 118 142
-0.614003 -0.200268 0.489727 68 1 84
0.527722 -0.251429 0.030079 68 1 84
-0.583633 -0.121993 0.182726 68 1 84
-0.054597 -0.336947 -0.252680 61 76 137
-0.584234 -0.028537 0.200999 68 1 84
0.344245 -0.331605 -0.140497 68 1 84
0.320651 -0.455286 -0.239788 68 1 84
-0.547824 0.132250 0.127075 68 1 84
-0.397966 0.124341 -0.135102 68 1 84
-0.412347 -0.322735 -0.049982 68 1 84
-0.666525 -0.408561 0.490027 68 1 84
0.185160 0.017373 -0.210023 55 89 140
-0.078521 -0.071593 -0.428911 39 126 142
-0.269212 -0.448964 -0.227152 68 1 84
0.107602 -0.496496 -0.294003 32 144 140
-0.492443 0.185904 0.018456 68 1 84
-0.444456 0.410473 0.119345 68 1 84
0.616954 -0.400740 0.190032 68 1 84
-0.413812 0.296806 -0.053053 68 1 84
-0.407674 0.200373 -0.106193 68 1 84
-0.584644 -0.216680 0.172973 68 1 84
0.623964 -0.054270 0.298264 68 1 84
-0.222176 0.527044 -0.114639 68 1 84
-0.601699 -0.111929 0.265742 68 1 84
-0.470970 -0.117327 -0.053974 68 1 84
-0.612212 -0.277480 0.462678 68 1 84
0.320395 0.511921 0.035763 68 1 84
-0.619571 -0.268213 0.394069 68 1 84
0.480883 0.378926 0.213153 68 1 84
0.634558 -0.094186 0.359839 68 1 84
0.362057 -0.508027 -0.235456 72 25 107
-0.075734 0.211173 -0.271155 36 170 130
0.258573 0.428555 -0.123478 67 60 132
0.049790 0.124042 -0.328406 71 192 110
-0.164518 0.038873 -0.229608 47 105 141
0.281492 -0.215188 -0.152389 71 15 98
0.080797 -0.390828 -0.236047 67 59 131
-0.369110 -0.314116 -0.102485 68 1 84
0.152827 0.507604 -0.169360 68 55 129
-0.557789 0.259385 0.321164 68 1 84
0.765696 -0.340938 0.366042 68 1 84
0.266121 0.560284 0.035886 68 1 84
-0.082367 0.499055 -0.233166 60 78 138
0.251834 -0.372940 -0.182122 72 30 112
-0.120669 -0.035686 -0.327436 34 138 141
-0.008000 0.269499 -0.296666 167 219 51
0.106987 0.061675 -0.263241 35 136 141
-0.534704 0.248730 0.174363 68 1 84
-0.483066 0.026292 -0.047369 68 1 84
-0.192712 -0.361620 -0.148873 68 1 84
-0.569361 0.128292 0.500775 68 1 84
-0.430757 0.111244 -0.102951 68 1 84
-0.609495 -0.016449 0.405047 68 1 84
-0.082875 -0.025873 -0.372784 31 161 135
-0.595311 -0.400990 0.227003 68 1 84
0.526942 -0.287364 0.029819 68 1 84
0.342802 -0.052778 -0.162946 68 1 84
0.274900 -0.086779 -0.183176 72 33 114
-0.036666 0.011086 -0.338803 61 187 116
0.225766 0.224874 -0.222296 30 158 136
0.461411 0.177901 -0.025256 68 1 84
-0.196737 0.107793 -0.252950 116 208 84
-0.129062 0.320708 -0.233889 31 162 134
0.646010 -0.397873 0.205006 68 1 84
-0.542524 -0.216662 0.070409 68 1 84
0.372827 -0.032032 -0.149198 68 1 84
0.412461 0.487999 0.220743 68 1 84
-0.500849 0.277011 0.095869 68 1 84
-0.507944 -0.315317 0.046137 68 1 84
0.374078 0.517740 0.166345 68 1 84
0.605722 -0.001478 0.253443 68 1 84
-0.592538 -0.215434 0.198874 68 1 84
0.488274 0.399652 0.345552 68 1 84
0.479819 0.386875 0.228514 68 1 84
0.371062 0.383778 -0.036438 68 1 84
0.485001 0.011563 -0.049011 68 1 84
-0.345521 -0.355572 -0.115511 68 1 84
-0.446960 0.171703 -0.065889 68 1 84
0.100896 0.528544 -0.200719 61 76 137
-0.248375 -0.334615 -0.152813 68 1 84
0.410663 0.363411 0.006957 68 1 84
0.316751 -0.443774 -0.234741 68 1 84
-0.502563 0.265908 0.090205 68 1 84
0.483557 -0.217982 -0.026428 68 1 84
-0.080313 0.334362 -0.230298 41 175 127
0.058130 -0.487323 -0.296357 38 127 142
-0.413256 0.370136 0.007211 68 1 84
0.634774 -0.115541 0.484362 68 1 84
0.512877 -0.490841 -0.084412 68 1 84
-0.522084 0.348398 0.360827 68 1 84
0.139628 0.036587 -0.228449 44 112 142
0.260948 0.469104 -0.090852 72 33 114
0.369446 0.148779 -0.151761 71 18 101
0.015638 -0.138902 -0.435294 46 107 142
0.079066 -0.397983 -0.243035 68 57 130
-0.083780 0.194692 -0.283282 39 173 128
0.281233 0.114316 -0.208221 36 133 141
-0.461383 -0.088749 -0.068946 68 1 84
0.249977 -0.286612 -0.165465 62 72 136
0.695546 -0.229420 0.348385 68 1 84
-0.085021 0.467025 -0.240873 51 96 141
-0.501261 0.088369 -0.000837 68 1 84
0.408847 0.394235 0.034661 68 1 84
-0.311165 0.220239 -0.185531 72 30 112
0.343896 0.016983 -0.173547 68 2 85
-0.016369 0.054984 -0.316671 57 185 118
0.030595 0.547188 -0.211002 46 108 142
-0.460339 0.202976 -0.030625 68 1 84
-0.434073 -0.161722 -0.081501 68 1 84
0.131811 0.222144 -0.230999 41 175 127
0.639510 -0.144276 0.286366 68 1 84
-0.070507 0.184242 -0.306124 62 188 115
-0.600652 -0.252506 0.226915 68 1 84
0.469898 0.394083 0.195811 68 1 84
0.032061 0.264872 -0.293603 170 219 50
-0.012027 0.034459 -0.321302 33 167 132
0.613213 -0.129904 0.191411 68 1 84
0.576998 0.041837 0.173807 68 1 84
0.536322 -0.299350 0.038044 68 1 84
0.497547 0.329003 0.184650 68 1 84
0.530610 0.308817 0.340588 68 1 84
-0.441754 -0.161635 -0.074481 68 1 84
0.667792 -0.154732 0.405777 68 1 84
0.585409 -0.046110 0.140247 68 1 84
0.537691 0.263458 0.243607 68 1 84
-0.555068 0.259878 0.407684 68 1 84
-0.585466 -0.436395 0.200433 68 1 84
0.693036 -0.241140 0.320934 68 1 84
-0.465097 0.408379 0.176754 68 1 84
0.214311 -0.116993 -0.197078 59 81 138
-0.477910 0.343088 0.112385 68 1 84
0.447864 -0.201699 -0.065644 68 1 84
0.153620 0.536546 -0.146154 71 39 119
-0.143598 0.440951 -0.213937 57 85 139
-0.321487 0.241423 -0.170180 71 17 99
0.555940 0.227552 0.434716 68 1 84
0.627928 -0.345172 0.184657 68 1 84
-0.417798 0.323514 -0.025800 68 1 84
0.515796 0.070440 0.021556 68 1 84
0.600950 -0.433416 0.168563 68 1 84
-0.465396 0.370822 0.115989 68 1 84
-0.209663 0.133767 -0.251104 53 183 120
-0.075688 0.449555 -0.245871 39 126 142
-0.129493 0.116636 -0.301822 178 221 44
-0.055952 0.206870 -0.280002 69 191 111
-0.136066 0.041687 -0.250675 32 164 133
0.093426 -0.112050 -0.342224 53 92 140
-0.655102 -0.382903 0.504364 68 1 84
0.548679 -0.140949 0.032094 68 1 84
-0.267109 0.354167 -0.156326 60 77 138
-0.580381 0.175791 0.361736 68 1 84
0.554672 -0.383817 0.043212 68 1 84
0.545222 0.030757 0.062031 68 1 84
-0.422613 0.231146 -0.076698 68 1 84
-0.161946 -0.031056 -0.216066 69 54 129
-0.204744 0.357823 -0.186414 39 124 142
0.527758 -0.394439 -0.026332 68 1 84
-0.333097 0.489916 0.014888 68 1 84
-0.545515 -0.481031 0.107132 68 1 84
-0.106088 0.556688 -0.178729 71 43 122
-0.186365 0.578010 -0.079154 68 1 84
0.558304 0.217525 0.282881 68 1 84
0.493624 -0.072707 -0.045102 68 1 84
-0.383550 0.508720 0.161160 68 1 84
-0.383542 -0.057610 -0.143294 68 1 84
-0.070321 0.303463 -0.270586 119 208 82
-0.255836 -0.335560 -0.151625 68 1 84
0.053031 -0.145077 -0.403870 46 107 142
0.068115 -0.483347 -0.296006 40 122 142
0.583328 0.128233 0.279910 68 1 84
0.693901 -0.209177 0.479872 68 1 84
0.158354 0.580713 -0.057767 68 1 84
0.402086 0.292612 -0.060718 69 8 91
-0.176670 0.544335 -0.157098 68 55 129
-0.646235 -0.341062 0.430659 68 1 84
-0.404831 -0.471360 -0.170369 68 1 84
0.477676 -0.147929 -0.058135 68 1 84
-0.596449 -0.423906 0.242646 68 1 84
0.328770 -0.490395 -0.248724 68 1 84
0.401829 0.104491 -0.127305 68 1 84
0.374480 0.431765 0.017016 68 1 84
-0.593553 -0.321501 0.204814 68 1 84
-0.500898 0.381050 0.275453 68 1 84
-0.455413 -0.056322 -0.081611 68 1 84
0.052247 0.400246 -0.233500 40 122 142
0.506839 0.103162 0.021760 68 1 84
0.492685 0.368947 0.243422 68 1 84
-0.516384 0.139946 0.049904 68 1 84
-0.557444 0.176785 0.515751 68 1 84
-0.268777 0.151975 -0.221069 49 100 141
0.577651 0.115782 0.498823 68 1 84
0.300877 0.313175 -0.158504 70 45 124
-0.577039 -0.080820 0.167165 68 1 84
0.507401 0.355683 0.447922 68 1 84
-0.581957 -0.149577 0.172206 68 1 84
0.270917 0.253759 -0.201162 30 154 137
-0.606194 -0.046811 0.300387 68 1 84
-0.008051 -0.170878 -0.415707 50 98 141
0.181447 -0.396329 -0.195142 70 48 125
-0.559274 -0.226183 0.106724 68 1 84
-0.560101 0.243731 0.403074 68 1 84
-0.286621 -0.115687 -0.176021 72 29 111
-0.125763 -0.140140 -0.259592 48 103 141
-0.000054 0.525365 -0.222642 51 97 141
0.161302 0.236843 -0.209045 32 165 133
0.234673 0.216367 -0.227521 30 151 138
-0.095454 -0.343247 -0.148965 72 32 113
0.393431 0.025261 -0.139720 68 1 84
-0.364585 -0.290056 -0.113123 68 1 84
-0.180118 -0.131139 -0.209646 55 89 140
-0.609185 -0.270730 0.265217 68 1 84
0.071612 0.590354 -0.148497 72 25 107
0.686860 -0.189450 0.404541 68 1 84
0.022868 -0.180374 -0.397755 55 89 140
0.105067 -0.204361 -0.258352 71 40 120
-0.476320 0.286983 0.051149 68 1 84
0.417230 0.447894 0.124865 68 1 84
0.467304 0.200354 -0.003853 68 1 84
-0.542388 0.143500 0.117896 68 1 84
-0.350392 0.244370 -0.149284 68 1 84
-0.574476 0.075383 0.195710 68 1 84
0.475374 0.300843 0.081576 68 1 84
-0.604350 -0.091822 0.478157 68 1 84
0.506731 -0.493570 -0.096925 68 1 84
-0.298303 0.276367 -0.165519 71 17 99
0.147032 0.100604 -0.261082 42 176 126
-0.280167 -0.037776 -0.194504 68 1 84
-0.081525 0.421723 -0.244641 30 152 138
-0.463069 0.165032 -0.044422 68 1 84
-0.148358 0.093741 -0.281158 157 217 58
0.042606 -0.226281 -0.346444 61 74 137
-0.604879 -0.197690 0.253776 68 1 84
0.571201 0.094767 0.192659 68 1 84
-0.613101 -0.073855 0.348268 68 1 84
-0.593707 0.075156 0.280493 68 1 84
0.551472 0.249812 0.358160 68 1 84
-0.356276 0.463281 0.017471 68 1 84
0.770849 -0.390879 0.480198 68 1 84
0.554952 -0.370661 0.047857 68 1 84
0.576870 -0.392770 0.096070 68 1 84
-0.328108 0.440292 -0.054070 68 1 84
-0.481810 -0.112583 -0.042446 68 1 84
0.571334 0.177110 0.421133 68 1 84
-0.072029 0.118692 -0.323525 131 211 75
-0.387830 -0.361927 -0.090585 68 1 84
-0.056379 0.550061 -0.205049 60 77 138
0.380426 -0.365092 -0.175098 70 14 97
0.409746 0.225872 -0.082653 68 1 84
0.273442 -0.126077 -0.169609 68 1 84
0.492158 -0.426006 -0.114329 68 1 84
-0.408511 -0.186377 -0.095306 68 1 84
0.731733 -0.316214 0.326983 68 1 84
-0.416816 0.175738 -0.103753 68 1 84
0.542835 -0.057839 0.025135 68 1 84
-0.235221 0.548435 -0.059322 68 1 84
0.147487 0.582324 -0.084128 68 1 84
-0.275717 -0.300090 -0.161882 72 30 112
-0.601322 -0.301414 0.231766 68 1 84
-0.572299 0.091950 0.511483 68 1 84
-0.118440 0.183708 -0.277128 44 177 125
-0.533801 0.321562 0.410427 68 1 84
0.723751 -0.323529 0.299973 68 1 84
-0.585855 0.144281 0.360186 68 1 84
0.554020 0.135063 0.165832 68 1 84
-0.549283 0.228552 0.206147 68 1 84
0.034897 0.521247 -0.228279 44 113 142
-0.481564 0.297398 0.072038 68 1 84
0.089318 0.525761 -0.209273 54 90 140
0.492693 0.040433 -0.031314 68 1 84
-0.022917 0.116966 -0.323945 96 201 96
0.589434 -0.106448 0.124518 68 1 84
-0.547141 0.263383 0.241308 68 1 84
-0.157282 0.010036 -0.215934 61 74 137
0.071066 0.002433 -0.281400 34 167 132
0.294228 -0.470715 -0.256607 70 12 95
-0.540313 0.214025 0.160290 68 1 84
-0.489625 -0.366070 0.017574 68 1 84
0.036078 0.138535 -0.331307 87 198 101
0.333274 0.219235 -0.168674 67 60 132
0.594247 0.066158 0.531926 68 1 84
0.548902 0.248226 0.284138 68 1 84
0.623647 -0.009361 0.374328 68 1 84
-0.560209 0.233702 0.460044 68 1 84
0.403115 0.192387 -0.107240 68 1 84
-0.144545 -0.478027 -0.283974 51 96 141
0.024976 -0.007514 -0.409263 31 163 134
-0.228383 0.535686 -0.092359 68 1 84
0.628545 -0.288080 0.204115 68 1 84
0.536668 0.166159 0.137594 68 1 84
0.387980 -0.194450 -0.109593 68 1 84
0.198330 -0.319622 -0.143504 69 8 91
-0.085386 0.196413 -0.279920 30 156 137
0.063461 -0.345432 -0.244489 55 89 140
-0.056507 0.547662 -0.207130 56 87 140
-0.580069 0.159056 0.406634 68 1 84
-0.390587 0.447959 0.058862 68 1 84
-0.198835 0.238922 -0.200582 50 98 141
-0.537624 0.296707 0.251319 68 1 84
0.661864 -0.184683 0.305171 68 1 84
0.091140 0.067156 -0.280607 30 157 136
0.059729 0.045467 -0.296266 35 169 130
-0.061966 -0.013889 -0.311687 33 167 132
-0.056235 -0.007729 -0.391178 48 180 122
-0.597597 -0.017757 0.472690 68 1 84
0.037844 -0.175281 -0.391910 69 54 129
0.443219 0.437833 0.192053 68 1 84
-0.549437 -0.469914 0.113408 68 1 84
0.274395 0.296359 -0.178526 45 111 142
-0.154727 -0.080775 -0.277866 42 117 142
-0.033921 0.575087 -0.179215 68 55 129
-0.600406 -0.265996 0.225359 68 1 84
-0.003883 -0.222954 -0.372111 62 72 136
0.601407 0.077333 0.409038 68 1 84
0.281128 0.360320 -0.145020 66 61 132
-0.573532 -0.425599 0.161381 68 1 84
0.532554 -0.037535 0.010710 68 1 84
0.225210 0.461953 -0.132548 72 34 115
0.343075 -0.139911 -0.138377 68 1 84
0.090789 -0.022617 -0.295355 32 143 140
-0.452302 0.307390 0.021232 68 1 84
0.099944 -0.049005 -0.378328 39 125 142
-0.446153 -0.544235 -0.134381 70 11 94
0.340773 0.538849 0.144801 68 1 84
-0.552447 0.266043 0.279807 68 1 84
0.342853 0.535791 0.133691 68 1 84
-0.475464 0.394584 0.185333 68 1 84
-0.303397 -0.252323 -0.146456 68 1 84
0.152532 0.347402 -0.212290 34 137 141
0.660654 -0.159558 0.468508 68 1 84
-0.506817 -0.418274 0.016437 68 1 84
0.465107 0.295417 0.053603 68 1 84
0.190758 -0.419142 -0.224989 69 53 128
-0.165842 -0.367139 -0.146354 68 1 84
0.488026 0.379235 0.248068 68 1 84
-0.610497 -0.219315 0.502190 68 1 84
0.278040 0.523632 -0.006483 69 5 88
-0.389552 -0.381308 -0.112590 68 1 84
-0.264663 -0.133434 -0.177130 67 58 131
0.057719 0.502663 -0.231447 43 115 142
0.492967 0.016926 -0.037382 68 1 84
0.519466 0.305423 0.232822 68 1 84
0.010333 0.599692 -0.129313 70 49 126
0.281752 -0.127656 -0.165279 68 1 84
0.100860 -0.183736 -0.271953 71 39 119
0.537257 0.292098 0.368916 68 1 84
-0.082017 0.586471 -0.136560 43 115 142
-0.589239 -0.171861 0.194454 68 1 84
-0.613260 -0.102210 0.369347 68 1 84
0.767435 -0.389944 0.347304 68 1 84
-0.522668 0.301536 0.196328 68 1 84
-0.258085 0.452754 -0.123869 71 44 123
0.606827 -0.485547 0.165147 68 1 84
-0.100188 0.373130 -0.218526 50 99 141
-0.450364 0.433293 0.178930 68 1 84
0.405432 0.319574 -0.038384 68 1 84
-0.006710 0.439719 -0.251246 33 142 140
-0.033976 -0.231227 -0.356718 58 82 139
-0.289045 0.033364 -0.197359 68 1 84
-0.209790 -0.409982 -0.208705 69 5 88
0.504020 0.362504 0.304001 68 1 84
0.224885 0.534641 -0.054977 68 1 84
-0.467699 0.104095 -0.054609 68 1 84
0.343885 -0.280459 -0.144086 68 1 84
-0.586303 -0.143992 0.188415 68 1 84
-0.211464 -0.205109 -0.166554 68 1 84
0.387215 0.510123 0.205748 68 1 84
-0.138452 -0.250800 -0.182058 71 37 117
-0.565669 0.218950 0.264755 68 1 84
-0.072151 0.551368 -0.203229 66 62 133
0.598054 -0.101354 0.152952 68 1 84
0.086878 -0.070846 -0.401111 44 113 142
0.383752 0.516526 0.252932 68 1 84
-0.551562 0.265652 0.467471 68 1 84
-0.281240 0.482553 -0.077433 68 1 84
0.689598 -0.201792 0.375064 68 1 84
-0.041318 -0.154695 -0.416722 65 66 134
0.624368 -0.067866 0.285400 68 1 84
0.148087 0.517764 -0.167121 67 59 131
-0.687645 -0.505924 0.450437 68 1 84
0.246559 -0.374203 -0.185865 71 21 103
-0.282487 0.010210 -0.197268 68 1 84
-0.570369 -0.368606 0.148364 68 1 84
0.557297 0.010916 0.082073 68 1 84
0.545005 0.187378 0.185690 68 1 84
0.147306 0.274761 -0.229885 35 168 131
0.477143 -0.076958 -0.062504 68 1 84
0.407779 0.496890 0.258702 68 1 84
0.135673 0.332574 -0.224102 37 131 141
0.513317 0.036114 -0.000025 68 1 84
-0.622763 -0.297907 0.470888 68 1 84
0.208171 -0.073645 -0.207144 57 84 139
0.435728 0.466595 0.343195 68 1 84
-0.252449 0.111586 -0.222227 51 97 141
-0.579895 -0.528787 0.193988 68 1 84
-0.622567 -0.279643 0.421167 68 1 84
-0.572046 -0.087783 0.145074 68 1 84
0.618877 -0.280909 0.188007 68 1 84
-0.212197 -0.475435 -0.259515 71 42 121
0.385946 -0.374076 -0.174668 68 3 87
0.165337 -0.352168 -0.146871 68 1 84
0.542588 0.222431 0.209560 68 1 84
-0.246408 0.265296 -0.183509 69 52 127
-0.605825 -0.201588 0.258492 68 1 84
0.392584 -0.240674 -0.105536 68 1 84
0.272943 -0.348136 -0.153171 70 12 95
-0.159964 -0.027842 -0.264755 38 127 142
0.301394 0.288278 -0.169971 56 87 140
-0.468643 0.113802 -0.050781 68 1 84
0.028477 -0.502338 -0.296232 40 122 142
-0.594102 -0.301434 0.204597 68 1 84
-0.481951 0.369000 0.158929 68 1 84
0.514411 0.348066 0.343380 68 1 84
-0.404037 0.451114 0.091452 68 1 84
-0.416906 0.065311 -0.124719 68 1 84
-0.018279 -0.276830 -0.331008 45 110 142
-0.586143 -0.056215 0.203752 68 1 84
0.299914 -0.227584 -0.151931 71 22 105
-0.623272 -0.376550 0.297407 68 1 84
0.547960 -0.085294 0.030078 68 1 84
0.173238 -0.330061 -0.135475 68 1 84
-0.348249 -0.183689 -0.129371 68 1 84
-0.504549 -0.106696 -0.013183 68 1 84
0.118443 -0.390107 -0.198816 71 39 119
0.173841 -0.327283 -0.135417 68 1 84
0.519679 0.037303 0.011764 68 1 84
0.399522 0.250264 -0.086812 68 1 84
-0.576219 0.149675 0.248254 68 1 84
-0.521627 0.272470 0.153385 68 1 84
0.228590 0.236002 -0.214193 50 181 122
-0.494504 -0.422569 -0.009825 68 1 84
0.479919 0.350621 0.153173 68 1 84
0.535835 0.296129 0.355526 68 1 84
0.286009 0.412053 -0.110555 63 69 135
-0.545793 0.095300 0.107600 68 1 84
-0.065770 -0.248918 -0.302846 69 54 129
-0.112608 0.416182 -0.228206 37 130 142
-0.162335 -0.051396 -0.288986 42 117 142
0.120466 -0.131783 -0.257136 58 83 139
-0.283595 0.208168 -0.201545 68 57 130
-0.061058 0.194582 -0.295816 112 206 86
-0.317914 0.011983 -0.188419 68 1 84
-0.322123 0.393142 -0.098831 68 1 84
0.181723 -0.331346 -0.136893 68 1 84
-0.610708 -0.119586 0.443407 68 1 84
0.331680 0.531987 0.092084 68 1 84
-0.024176 0.087806 -0.318659 64 189 114
0.544181 0.268101 0.422871 68 1 84
-0.514999 -0.159928 0.010411 68 1 84
-0.585826 0.143754 0.361989 68 1 84
0.309732 0.135201 -0.195017 58 82 139
0.363878 0.526724 0.183152 68 1 84
0.109867 0.237452 -0.247372 73 193 109
-0.084374 0.133176 -0.323627 154 216 60
-0.159494 -0.077460 -0.227702 68 57 130
0.598796 -0.240134 0.136175 68 1 84
-0.238663 0.195412 -0.213635 44 114 142
0.077936 -0.081365 -0.412239 44 113 142
0.426957 0.454388 0.169275 68 1 84
0.577859 -0.053879 0.108728 68 1 84
0.183821 -0.355071 -0.150355 71 18 101
0.568842 0.182648 0.432009 68 1 84
-0.538867 0.058497 0.077458 68 1 84
-0.475458 -0.160080 -0.041557 68 1 84
0.043531 -0.020910 -0.329697 30 151 138
-0.464460 0.435956 0.318255 68 1 84
-0.468975 -0.406182 -0.040144 68 1 84
-0.606319 -0.238904 0.476172 68 1 84
0.106180 -0.144130 -0.274372 65 65 134
0.468557 -0.511650 -0.148764 68 57 130
0.523391 0.328876 0.368013 68 1 84
-0.582493 0.141353 0.419306 68 1 84
-0.267686 0.433753 -0.123751 61 74 137
0.494115 0.269113 0.100437 68 1 84
-0.376227 0.398513 -0.023067 68 1 84
0.758938 -0.376792 0.336017 68 1 84
0.282451 0.020036 -0.201632 64 67 135
-0.084335 0.426367 -0.243799 32 143 140
-0.481864 -0.123103 -0.040792 68 1 84
-0.186302 0.277015 -0.222903 32 165 133
0.253543 0.548694 0.000771 68 1 84
0.508953 -0.040892 -0.024288 68 1 84
-0.573676 -0.272126 0.144988 68 1 84
0.538164 0.283719 0.302313 68 1 84
-0.239849 -0.123910 -0.188045 54 90 140
-0.066454 0.590635 -0.132519 49 101 141
0.150601 0.559769 -0.126399 72 25 107
-0.655840 -0.405008 0.360823 68 1 84
-0.107254 -0.050077 -0.382519 38 128 142
0.525163 -0.376346 -0.016420 68 1 84
-0.186605 -0.022772 -0.199313 70 12 95
0.205420 0.441808 -0.155255 66 64 133
-0.346473 -0.090815 -0.157744 70 12 95
-0.669529 -0.446749 0.438659 68 1 84
-0.614018 0.011011 0.368625 68 1 84
-0.264844 0.029888 -0.199726 68 1 84
-0.339017 0.020615 -0.179866 71 15 98
-0.407077 0.283896 -0.071491 69 5 88
0.180172 0.510702 -0.145154 66 64 133
-0.135958 -0.293614 -0.149309 68 1 84
-0.042605 -0.423538 -0.265180 69 50 127
-0.568819 0.017830 0.162672 68 1 84
-0.089458 0.311071 -0.255119 75 194 108
-0.629057 -0.310641 0.516131 68 1 84
0.063673 0.276652 -0.284954 131 211 75
-0.449467 -0.194897 -0.057949 68 1 84
0.621770 -0.124327 0.226125 68 1 84
0.583371 -0.485564 0.111601 68 1 84
-0.557317 0.252848 0.416949 68 1 84
-0.513794 0.064890 0.017836 68 1 84
-0.629957 -0.360962 0.305285 68 1 84
0.362614 0.389819 -0.042917 68 1 84
-0.037080 -0.383947 -0.253850 61 76 137
0.557880 0.089384 0.142583 68 1 84
0.519751 -0.362808 -0.017016 68 1 84
0.122339 -0.271129 -0.179795 64 67 135
0.724093 -0.435506 0.287396 70 9 92
0.462304 0.433666 0.389398 68 1 84
-0.629084 -0.448187 0.296404 68 1 84
-0.511672 0.214526 0.076766 68 1 84
-0.503650 -0.533203 -0.000603 70 12 95
0.552583 0.014874 0.071730 68 1 84
0.430575 -0.231819 -0.071411 68 1 84
0.394406 -0.407343 -0.185220 70 14 97
-0.111156 0.027722 -0.262585 38 128 142
0.598969 -0.093034 0.160616 68 1 84
0.001217 -0.009005 -0.418359 34 167 132
-0.431488 0.467972 0.191193 68 1 84
0.284411 0.452651 -0.080522 71 20 102
-0.518086 0.242252 0.114016 68 1 84
-0.364694 0.445527 0.008586 68 1 84
0.107580 0.581744 -0.144241 71 15 98
-0.390154 0.144465 -0.138736 68 1 84
-0.200549 0.353972 -0.189719 34 138 141
-0.479799 -0.214604 -0.019237 68 1 84
-0.570315 0.196175 0.443018 68 1 84
0.029456 -0.445363 -0.287029 60 77 138
0.627575 -0.030809 0.388290 68 1 84
-0.516194 0.356918 0.329303 68 1 84
-0.474907 0.361582 0.128671 68 1 84
-0.576650 -0.402700 0.165861 68 1 84
0.472112 0.011964 -0.064958 68 1 84
0.581710 -0.061303 0.119096 68 1 84
0.587071 0.014823 0.189772 68 1 84
-0.259055 0.445477 -0.126150 67 60 132
-0.567139 -0.156308 0.122443 68 1 84
-0.425857 -0.053840 -0.110896 68 1 84
0.588881 -0.169530 0.112751 68 1 84
-0.359492 0.028171 -0.168915 69 5 88
0.395129 0.282289 -0.077521 70 14 97
0.144308 0.101445 -0.263479 37 171 129
-0.424248 -0.518247 -0.167402 68 1 84
-0.198129 -0.436849 -0.223419 69 54 129
-0.330474 0.447145 -0.043559 68 1 84
-0.485074 0.135141 -0.017191 68 1 84
-0.296166 0.263343 -0.169909 71 15 98
0.587152 0.110831 0.445338 68 1 84
-0.278734 -0.101003 -0.182490 70 45 124
-0.166804 -0.056395 -0.213399 68 55 129
0.470940 -0.026738 -0.067890 68 1 84
0.257174 0.421430 -0.128718 67 60 132
-0.162682 -0.037000 -0.218899 69 54 129
0.611918 0.029688 0.430272 68 1 84
0.562296 -0.295118 0.076688 68 1 84
0.621620 -0.353916 0.179584 68 1 84
0.002655 -0.029221 -0.439655 34 139 141
-0.676094 -0.515220 0.412798 68 1 84
0.271033 0.541182 0.011102 68 1 84
-0.171350 0.525015 -0.169990 60 78 138
0.490567 0.020203 -0.039975 68 1 84
0.538633 -0.419991 -0.014552 68 1 84
-0.563614 0.153021 0.509373 68 1 84
-0.595417 -0.254179 0.205757 68 1 84
0.621323 -0.323861 0.179102 68 1 84
0.466597 -0.038452 -0.072316 68 1 84
-0.540664 0.060089 0.082675 68 1 84
0.378936 -0.225507 -0.115122 68 1 84
0.094193 -0.361766 -0.189731 68 55 129
-0.618819 -0.316617 0.284815 68 1 84
-0.278431 0.508417 -0.046705 68 1 84
-0.579703 0.137534 0.257875 68 1 84
0.467933 -0.393488 -0.116490 68 1 84
-0.269794 -0.450457 -0.227836 68 1 84
0.765670 -0.363803 0.453399 68 1 84
-0.022897 -0.494988 -0.295997 53 93 140
0.043673 0.444622 -0.243643 39 124 142
-0.096230 -0.197758 -0.283577 60 78 138
-0.561417 0.228559 0.258787 68 1 84
0.527247 -0.493891 -0.044541 68 1 84
-0.284747 0.543353 0.027603 68 1 84
0.478633 0.182735 0.007111 68 1 84
0.596618 -0.316323 0.136455 68 1 84
0.426794 0.216185 -0.061690 68 1 84
0.043312 -0.398113 -0.260509 69 54 129
-0.613552 -0.167197 0.489153 68 1 84
0.551258 -0.384583 0.033921 68 1 84
0.622467 -0.005059 0.367779 68 1 84
-0.528202 0.307786 0.228234 68 1 84
-0.521959 -0.131660 0.017367 68 1 84
0.499643 -0.484039 -0.113687 68 1 84
-0.480605 0.407860 0.244297 68 1 84
0.581880 -0.015961 0.146391 68 1 84
0.377855 0.517080 0.200718 68 1 84
0.523645 0.315288 0.472078 68 1 84
-0.071199 -0.445014 -0.272703 67 58 131
-0.542262 0.279231 0.243654 68 1 84
-0.155404 0.234225 -0.237052 30 151 138
-0.249947 0.093793 -0.217136 64 68 135
0.727124 -0.306662 0.482380 68 1 84
0.599595 0.090539 0.378915 68 1 84
-0.595525 0.099616 0.344595 68 1 84
-0.502076 -0.524739 -0.007038 71 17 99
0.328268 0.283917 -0.152699 71 39 119
-0.494645 0.229612 0.047094 68 1 84
0.066265 -0.185010 -0.340025 49 100 141
-0.515085 0.227721 0.094114 68 1 84
0.185139 0.003637 -0.208186 57 84 139
-0.032093 0.349497 -0.231350 30 160 135
0.122585 0.303273 -0.242976 30 158 136
-0.608689 -0.166060 0.443545 68 1 84
0.401860 0.113585 -0.125940 68 1 84
-0.644328 -0.312960 0.366772 68 1 84
-0.674650 -0.521525 0.406458 68 1 84
0.523031 -0.148444 -0.006047 68 1 84
-0.210325 -0.076059 -0.201776 72 33 114
-0.551413 -0.129030 0.078685 68 1 84
-0.596992 0.054100 0.411960 68 1 84
-0.075556 0.002695 -0.288600 31 147 139
-0.287504 0.495490 -0.049988 68 1 84
0.325282 -0.500119 -0.251263 71 39 119
-0.672847 -0.429670 0.475262 68 1 84
0.089665 -0.254356 -0.251172 50 98 141
0.497095 0.383294 0.348906 68 1 84
-0.255456 -0.006841 -0.199835 68 1 84
0.723996 -0.378381 0.287682 68 1 84
0.296573 0.521345 0.014809 68 1 84
0.635090 -0.233007 0.228162 68 1 84
-0.574279 -0.010700 0.177570 68 1 84
-0.484122 0.323256 0.104637 68 1 84
-0.323852 0.095855 -0.186976 71 43 122
0.424302 -0.038323 -0.110293 68 1 84
0.645998 -0.255984 0.236438 68 1 84
0.467957 -0.143822 -0.067492 68 1 84
-0.603005 -0.278216 0.237695 68 1 84
0.540404 -0.218534 0.037207 68 1 84
-0.172663 -0.236464 -0.167877 68 1 84
0.527196 0.040480 0.027406 68 1 84
-0.103312 0.558791 -0.177274 71 44 123
0.613435 -0.293870 0.171644 68 1 84
0.497262 0.385533 0.380618 68 1 84
-0.142751 -0.030095 -0.306556 39 125 142
-0.433488 0.007109 -0.109799 68 1 84
0.385775 0.312048 -0.073119 70 12 95
-0.113669 0.041490 -0.269072 30 153 138
0.197694 0.373591 -0.184522 44 113 142
0.032172 0.301951 -0.279240 103 204 92
0.524028 -0.292250 0.025097 68 1 84
-0.396886 0.290578 -0.081532 68 1 84
-0.490889 0.099394 -0.017540 68 1 84
-0.509802 0.146852 0.037712 68 1 84
0.565933 -0.454316 0.073485 68 1 84
-0.374640 -0.456618 -0.184427 68 1 84
-0.223891 -0.026825 -0.200315 71 18 101
-0.455014 -0.461088 -0.113135 68 1 84
0.040861 0.589485 -0.154623 64 68 135
-0.267381 0.515664 -0.056091 68 1 84
0.568327 0.059745 0.156394 68 1 84
0.115859 0.164709 -0.294049 124 210 79
0.004317 0.219439 -0.276570 139 213 70
0.374358 0.519676 0.187314 68 1 84
0.172164 -0.386353 -0.182200 72 35 116
0.376404 -0.334206 -0.139959 68 1 84
-0.608212 -0.114834 0.470416 68 1 84
0.262240 -0.308501 -0.158067 72 30 112
0.637284 -0.310370 0.200765 68 1 84
0.412472 0.403348 0.051888 68 1 84
0.145308 -0.060649 -0.288749 45 111 142
0.482570 0.059956 -0.040205 68 1 84
0.263471 0.540474 0.000524 68 1 84
-0.682596 -0.464399 0.504101 68 1 84
-0.545659 0.046930 0.091812 68 1 84
-0.197061 -0.211667 -0.169958 68 1 84
-0.492661 0.386916 0.243624 68 1 84
-0.255184 0.435997 -0.132967 68 55 129
-0.070212 -0.346624 -0.194037 47 106 141
-0.667778 -0.444324 0.391021 68 1 84
0.420448 -0.356025 -0.133960 68 1 84
-0.099326 0.354311 -0.216721 32 145 140
0.709420 -0.275499 0.418181 68 1 84
0.025882 -0.032875 -0.434375 31 147 139
-0.541978 0.299380 0.356359 68 1 84
-0.569355 -0.204084 0.128180 68 1 84
-0.385074 -0.125551 -0.125681 68 1 84
0.114499 0.593801 -0.098662 68 1 84
-0.397759 -0.177099 -0.105465 68 1 84
0.628908 -0.094917 0.283419 68 1 84
0.257309 0.498729 -0.064950 72 30 112
0.047210 0.599544 -0.125304 72 33 114
-0.406386 -0.281375 -0.066662 68 1 84
-0.390090 0.495694 0.132286 68 1 84
-0.526817 0.331365 0.284816 68 1 84
-0.516022 -0.039452 0.003354 68 1 84
-0.273947 -0.025123 -0.196991 68 1 84
0.612229 0.011585 0.306733 68 1 84
0.676545 -0.172562 0.356714 68 1 84
0.448057 0.067170 -0.083903 68 1 84
0.614849 -0.169239 0.183384 68 1 84
-0.087406 -0.142235 -0.356444 49 102 141
0.358681 -0.357622 -0.180914 68 1 84
0.178384 0.118184 -0.251777 36 170 130
0.146858 -0.424329 -0.248424 54 90 140
0.579896 0.036108 0.179985 68 1 84
-0.128420 0.296441 -0.256257 69 191 111
-0.583496 0.022220 0.213971 68 1 84
-0.407856 0.450565 0.098923 68 1 84
-0.605622 -0.258473 0.248995 68 1 84
0.527582 -0.442257 -0.054579 68 1 84
-0.606003 -0.209283 0.257551 68 1 84
0.143167 -0.181409 -0.222528 51 96 141
0.442484 0.426919 0.158815 68 1 84
-0.128039 0.005868 -0.247772 48 103 141
-0.194009 0.352668 -0.193084 34 137 141
0.445031 0.414422 0.143680 68 1 84
0.690090 -0.396352 0.242315 68 1 84
-0.596055 -0.481546 0.238330 68 1 84
-0.609632 -0.136701 0.456113 68 1 84
0.146214 -0.061519 -0.259605 44 112 142
-0.368895 0.019780 -0.162357 68 1 84
0.275187 0.129107 -0.212054 33 142 140
-0.105411 0.187795 -0.279522 48 180 122
-0.605610 -0.038433 0.287696 68 1 84
-0.256261 0.554103 -0.000517 68 1 84
0.117606 -0.031417 -0.344689 37 131 141
0.526619 -0.253381 0.029129 68 1 84
-0.501752 0.388896 0.362475 68 1 84
-0.017010 0.311591 -0.265673 116 208 84
-0.217121 0.554604 -0.079162 68 2 85
-0.202021 0.573729 -0.054790 68 1 84
-0.561009 -0.168840 0.105080 68 1 84
-0.487839 -0.477287 -0.057220 68 1 84
0.525359 0.086178 0.050870 68 1 84
-0.148243 -0.097481 -0.252393 56 87 140
0.615445 -0.183063 0.181346 68 1 84
-0.223439 -0.153402 -0.185212 69 53 128
0.131890 0.005635 -0.275168 33 142 140
-0.411948 0.275653 -0.069687 68 2 85
0.151846 0.428175 -0.190701 48 103 141
-0.496848 0.395133 0.354127 68 1 84
-0.488974 -0.347528 0.023607 68 1 84
0.366165 -0.420739 -0.208335 68 1 84
0.402139 0.416248 0.046497 68 1 84
0.534348 0.046022 0.045521 68 1 84
-0.597556 0.047722 0.293953 68 1 84
0.444035 0.260695 -0.010632 68 1 84
0.177190 0.524469 -0.134997 68 55 129
0.592621 0.100293 0.425944 68 1 84
-0.516021 0.019369 0.009670 68 1 84
0.135074 0.058475 -0.241138 52 94 141
0.687196 -0.226652 0.319073 68 1 84
0.359020 0.022862 -0.164186 68 1 84
-0.581355 0.069158 0.469496 68 1 84
-0.600160 -0.103987 0.258233 68 1 84
0.362713 -0.399004 -0.200275 68 1 84
0.570939 -0.237174 0.084303 68 1 84
0.500587 -0.295730 -0.001321 68 1 84
-0.094884 0.536599 -0.210603 54 90 140
-0.064299 -0.040808 -0.427749 33 166 133
0.693787 -0.212007 0.464160 68 1 84
-0.401183 -0.315349 -0.063792 68 1 84
-0.597508 -0.523921 0.233431 68 1 84
0.705348 -0.313179 0.266389 68 1 84
0.455649 0.287922 0.028324 68 1 84
0.558145 0.212959 0.267596 68 1 84
-0.255610 -0.197945 -0.155078 68 1 84
-0.385537 -0.054421 -0.142445 68 1 84
0.484406 0.329887 0.140087 68 1 84
-0.498921 0.331442 0.155410 68 1 84
-0.153545 -0.069809 -0.301542 42 118 142
-0.532930 0.151101 0.095242 68 1 84
0.587205 -0.365946 0.120087 68 1 84
0.239882 -0.469971 -0.275864 59 81 138
0.737190 -0.318282 0.496702 68 1 84
0.342849 -0.051427 -0.163296 68 1 84
-0.598091 -0.004506 0.447800 68 1 84
-0.469915 0.412414 0.206222 68 1 84
-0.574416 -0.123014 0.148182 68 1 84
-0.331449 0.302995 -0.138068 70 47 124
-0.309064 -0.306662 -0.153939 69 5 88
-0.028215 -0.287335 -0.319968 54 90 140
-0.612603 -0.184906 0.368216 68 1 84
0.581409 -0.040964 0.128124 68 1 84
0.716809 -0.292169 0.473559 68 1 84
-0.018864 -0.158528 -0.423357 55 88 140
-0.034748 0.147639 -0.332083 157 217 58
0.069427 -0.160282 -0.355682 56 86 139
0.506706 -0.321373 -0.009064 68 1 84
0.408348 -0.326261 -0.105533 68 1 84
-0.578837 -0.084879 0.173990 68 1 84
0.019880 0.246959 -0.287383 167 219 51
-0.534114 -0.391081 0.078893 68 1 84
-0.031214 -0.423830 -0.268873 70 48 125
-0.281774 0.012843 -0.197541 68 1 84
-0.385505 -0.494164 -0.196222 68 1 84
-0.528059 0.335004 0.373836 68 1 84
-0.554262 -0.430032 0.118459 68 1 84
0.070765 -0.123553 -0.398694 58 83 139
-0.053947 0.320665 -0.247724 73 193 109
-0.427768 -0.411417 -0.104729 68 1 84
-0.065436 0.095040 -0.318483 121 209 81
-0.589652 -0.397718 0.203627 68 1 84
-0.514319 0.281213 0.138466 68 1 84
-0.253816 0.412200 -0.141281 69 50 127
-0.451618 -0.321092 -0.009024 68 1 84
0.040922 0.471685 -0.241564 38 128 142
0.460756 -0.138622 -0.074583 68 1 84
-0.171729 0.315391 -0.219120 32 144 140
0.091612 0.321857 -0.245351 54 184 119
0.037512 0.341737 -0.234520 31 161 135
0.565604 0.180167 0.468220 68 1 84
0.285801 0.292847 -0.175806 46 109 142
0.050686 -0.336143 -0.267478 61 74 137
0.109235 0.301507 -0.251447 62 188 115
0.058155 -0.218869 -0.330115 57 84 139
-0.087236 -0.326115 -0.163682 72 25 107
-0.575161 -0.353306 0.157570 68 1 84
-0.405779 0.313821 -0.052353 68 1 84
-0.166639 0.587955 -0.076487 70 9 92
-0.363946 0.513186 0.105888 68 1 84
-0.117654 -0.039029 -0.348570 31 150 139
0.527374 0.304770 0.275889 68 1 84
0.559794 0.010296 0.088591 68 1 84
0.403659 0.233796 -0.087988 68 1 84
-0.657933 -0.385204 0.482578 68 1 84
-0.427380 -0.104459 -0.098694 68 1 84
0.367961 0.352822 -0.066944 72 32 113
0.100005 -0.351643 -0.174029 67 60 132
-0.004579 0.312335 -0.266451 159 217 56
0.544728 0.269560 0.380817 68 1 84
0.558329 -0.014248 0.071055 68 1 84
-0.075615 -0.276724 -0.260012 63 71 136
-0.556879 -0.015310 0.104847 68 1 84
-0.281354 0.535318 0.001360 68 1 84
0.589268 0.080649 0.494613 68 1 84
0.247333 -0.506742 -0.281229 42 118 142
-0.362817 -0.570464 -0.205273 70 9 92
0.116314 -0.052278 -0.356554 34 138 141
-0.197025 -0.230365 -0.162201 68 1 84
-0.313476 0.420767 -0.088951 68 1 84
-0.253741 -0.034178 -0.198900 70 12 95
-0.577736 -0.483472 0.185323 68 1 84
0.539483 0.231004 0.206476 68 1 84
-0.303837 0.172206 -0.202418 65 65 134
0.557876 0.216261 0.272532 68 1 84
0.471285 -0.127020 -0.067020 68 1 84
-0.577341 -0.378737 0.165267 68 1 84
-0.028304 -0.251170 -0.343843 57 84 139
0.379171 -0.396009 -0.188997 68 1 84
-0.550089 0.276227 0.385975 68 1 84
0.010948 0.483497 -0.242221 43 116 142
-0.575549 -0.133322 0.151506 68 1 84
0.097939 0.021168 -0.266258 38 127 142
0.600063 0.048903 0.478988 68 1 84
-0.130290 -0.193722 -0.236726 31 150 139
-0.140435 -0.218630 -0.210047 40 122 142
0.386784 -0.042780 -0.137633 68 1 84
-0.026953 -0.151037 -0.426684 43 116 142
-0.554803 -0.439798 0.120500 68 1 84
-0.608997 -0.237381 0.524198 68 1 84
-0.550912 0.102939 0.124177 68 1 84
0.189988 0.430055 -0.168416 48 103 141
0.706402 -0.284497 0.306974 68 1 84
-0.606357 -0.206534 0.260409 68 1 84
0.129350 -0.329081 -0.145930 68 1 84
-0.459102 0.409338 0.158720 68 1 84
-0.139848 0.477648 -0.212593 51 96 141
0.512569 0.333905 0.256497 68 1 84
0.482639 -0.350543 -0.063023 68 1 84
-0.478902 0.018042 -0.053959 68 1 84
-0.232066 -0.038903 -0.199986 69 8 91
0.361108 0.073097 -0.164706 71 18 101
0.650519 -0.138790 0.364136 68 1 84
-0.604071 -0.492146 0.250572 68 1 84
-0.347125 0.187781 -0.168969 68 1 84
0.560963 -0.369959 0.063006 68 1 84
-0.321243 0.330904 -0.132219 66 61 132
-0.383448 -0.078251 -0.138854 68 1 84
-0.186451 -0.040003 -0.200111 72 25 107
-0.604286 -0.109325 0.282397 68 1 84
-0.378710 0.484840 0.090376 68 1 84
0.435850 0.298219 -0.001978 68 1 84
0.277288 0.056785 -0.204958 46 107 142
0.141925 0.005991 -0.227182 48 103 141
0.279565 0.563540 0.071646 68 1 84
-0.511969 0.071550 0.016146 68 1 84
-0.398506 0.374637 -0.011647 68 1 84
0.370263 0.480587 0.072335 68 1 84
-0.591116 0.093686 0.278831 68 1 84
0.516489 0.263007 0.157447 68 1 84
0.457454 -0.332210 -0.072467 68 1 84
-0.494864 0.391876 0.275958 68 1 84
-0.176938 -0.458452 -0.252773 59 80 138
-0.546480 0.287855 0.309380 68 1 84
-0.584784 -0.331521 0.179282 68 1 84
-0.540725 -0.061078 0.055476 68 1 84
-0.521951 0.350435 0.370605 68 1 84
0.243115 -0.287522 -0.164595 59 81 138
0.625659 -0.032982 0.340815 68 1 84
0.388313 0.172930 -0.129080 70 11 94
-0.535729 -0.477591 0.082626 68 1 84
-0.274400 -0.255262 -0.154958 68 1 84
-0.353929 -0.301513 -0.121806 68 1 84
-0.604172 -0.292276 0.242809 68 1 84
0.395862 0.262418 -0.086410 68 1 84
-0.152765 0.340504 -0.211985 46 109 142
-0.421487 -0.251587 -0.060417 68 1 84
0.192383 -0.401622 -0.202636 68 57 130
-0.338673 0.426771 -0.051719 68 1 84
-0.611352 -0.145955 0.400321 68 1 84
-0.293587 0.294259 -0.162300 72 26 108
0.588040 -0.080812 0.130261 68 1 84
0.176660 -0.136174 -0.210016 53 92 140
-0.511785 -0.267673 0.038730 68 1 84
0.232292 0.287544 -0.190215 51 96 141
0.559889 0.219233 0.326974 68 1 84
0.082625 0.257003 -0.273287 107 205 89
-0.135247 -0.088204 -0.320641 46 109 142
-0.447159 0.168825 -0.066633 68 1 84
0.340546 0.385349 -0.076143 72 29 111
-0.227697 -0.386333 -0.158147 68 1 84
0.584514 -0.021514 0.152024 68 1 84
0.579639 0.110008 0.496242 68 1 84
-0.531926 -0.080382 0.033689 68 1 84
0.334998 -0.308981 -0.142016 68 1 84
0.626738 -0.025606 0.386494 68 1 84
0.142191 -0.073356 -0.246337 47 105 141
-0.497339 0.304913 0.116528 68 1 84
0.070078 -0.481995 -0.295948 41 121 142
0.713273 -0.286898 0.447179 68 1 84
0.253985 -0.116068 -0.181209 70 48 125
0.602065 0.041344 0.492749 68 1 84
0.272333 0.496770 -0.049443 71 15 98
-0.272365 -0.323264 -0.156036 71 17 99
-0.399325 0.079063 -0.139599 68 1 84
-0.301098 -0.145901 -0.158397 68 1 84
0.495606 0.358540 0.230583 68 1 84
0.365293 0.430741 0.001611 68 1 84
0.433382 0.418927 0.121035 68 1 84
-0.311556 0.176934 -0.197483 72 34 115
0.467886 -0.407838 -0.127126 68 1 84
0.494288 0.115985 0.004310 68 1 84
-0.553850 -0.492139 0.129876 68 1 84
0.531074 -0.311552 0.028450 68 1 84
0.091378 0.017887 -0.270186 31 150 139
0.682868 -0.444462 0.237259 68 1 84
-0.602961 0.038044 0.404144 68 1 84
0.294697 -0.338160 -0.148563 71 17 99
0.361237 0.018165 -0.162377 68 1 84
0.136262 -0.071121 -0.301585 51 96 141
0.667039 -0.207227 0.294893 68 1 84
0.771959 -0.418443 0.455750 68 1 84
-0.606176 -0.003803 0.315401 68 1 84
0.771641 -0.416077 0.424647 68 1 84
-0.415068 0.485908 0.177786 68 1 84
0.600324 0.047136 0.500940 68 1 84
-0.536578 0.038941 0.064717 68 1 84
-0.386522 0.388493 -0.017282 68 1 84
0.033518 0.503712 -0.235390 52 95 141
-0.408024 0.189206 -0.109434 68 1 84
0.376139 -0.353649 -0.170067 68 1 84
-0.600720 -0.160682 0.243034 68 1 84
0.156871 0.580995 -0.060641 68 1 84
0.022040 -0.134821 -0.436232 47 106 141
-0.560897 -0.038513 0.114437 68 1 84
0.361940 0.242231 -0.135256 71 21 103
-0.534826 0.152671 0.101169 68 1 84
0.588276 0.085091 0.489218 68 1 84
0.737796 -0.413069 0.308336 68 1 84
0.173471 0.480945 -0.165841 56 86 139
-0.603631 0.057010 0.355277 68 1 84
-0.329883 -0.113257 -0.158442 68 1 84
0.545548 -0.255317 0.050983 68 1 84
0.637109 -0.226482 0.233679 68 1 84
-0.387551 0.508321 0.188044 68 1 84
-0.569899 -0.003064 0.160864 68 1 84
-0.169377 0.503628 -0.179791 52 94 141
0.424189 0.335875 0.004435 68 1 84
-0.523829 0.032437 0.030468 68 1 84
-0.102170 -0.167057 -0.286170 58 83 139
0.438407 0.168228 -0.064992 68 1 84
-0.347671 0.137900 -0.173266 71 21 103
0.566363 0.190851 0.288083 68 1 84
-0.100614 -0.155497 -0.294772 52 95 141
0.138242 -0.417214 -0.239694 59 80 138
0.054800 -0.119157 -0.423723 52 94 141
0.545081 0.269455 0.350834 68 1 84
-0.604159 -0.214750 0.423207 68 1 84
0.618642 -0.376504 0.183904 68 1 84
0.516782 -0.415110 -0.069035 68 1 84
-0.473891 0.397775 0.186392 68 1 84
-0.476449 -0.325265 0.014407 68 1 84
-0.606129 0.009513 0.407109 68 1 84
0.650889 -0.382263 0.203315 68 1 84
0.698790 -0.224759 0.505012 68 1 84
0.213409 0.087493 -0.222980 30 156 137
0.416298 0.409127 0.066274 68 1 84
0.617411 -0.056090 0.261953 68 1 84
-0.064355 0.590037 -0.135730 61 75 137
-0.573223 0.197703 0.273321 68 1 84
0.104511 -0.232304 -0.242126 56 86 139
-0.191715 0.047281 -0.220724 55 89 140
0.524350 0.248873 0.169683 68 1 84
0.432789 -0.449040 -0.184986 68 1 84
-0.211627 -0.462208 -0.245795 64 67 135
0.529578 -0.437225 -0.047271 68 1 84
-0.394337 -0.367170 -0.090023 68 1 84
0.063223 -0.185005 -0.346975 55 88 140
0.278741 0.162743 -0.214652 32 145 140
0.333808 0.154896 -0.178386 72 30 112
-0.109520 0.115804 -0.313761 210 225 27
-0.403453 -0.027936 -0.133259 68 1 84
-0.417407 -0.214831 -0.077589 68 1 84
-0.071374 0.568694 -0.178092 67 59 131
-0.088150 0.118688 -0.321920 183 221 41
-0.372157 0.207569 -0.140879 68 1 84
0.212487 0.246450 -0.202037 31 148 139
-0.659392 -0.395578 0.405082 68 1 84
-0.597282 -0.241924 0.213824 68 1 84
0.390616 -0.451627 -0.214010 68 1 84
0.431987 -0.136162 -0.096665 68 1 84
0.316039 -0.229315 -0.148734 71 15 98
0.313427 0.273908 -0.168916 66 64 133
0.564082 0.198373 0.437131 68 1 84
0.686800 -0.322619 0.228444 68 1 84
0.563835 -0.388868 0.066145 68 1 84
0.422138 -0.147776 -0.100430 68 1 84
-0.467156 -0.407892 -0.044482 68 1 84
-0.178078 -0.430033 -0.217487 62 73 137
-0.467345 0.365536 0.114081 68 1 84
-0.220933 0.022048 -0.203692 72 35 116
0.043795 -0.206770 -0.360521 60 78 138
-0.434921 -0.404190 -0.087586 68 1 84
-0.481843 0.363733 0.150883 68 1 84
-0.534379 -0.419192 0.075130 68 1 84
0.154071 -0.378791 -0.171716 69 50 127
-0.335716 -0.482832 -0.219201 68 1 84
0.609612 -0.313083 0.161783 68 1 84
0.295750 0.165561 -0.203661 50 98 141
-0.555987 0.132937 0.155312 68 1 84
0.088293 -0.158167 -0.301586 62 73 137
-0.131299 -0.261653 -0.178364 68 1 84
-0.560306 0.096510 0.150196 68 1 84
0.618384 -0.070785 0.252519 68 1 84
0.181077 0.329494 -0.205466 38 128 142
-0.226001 -0.298543 -0.163289 70 14 97
0.759747 -0.373901 0.337651 68 1 84
-0.553380 0.270050 0.348324 68 1 84
0.484946 0.216822 0.040683 68 1 84
0.609228 -0.110103 0.187287 68 1 84
0.764087 -0.419325 0.356641 68 1 84
0.345336 0.101649 -0.176075 71 21 103
-0.048568 -0.305155 -0.290046 60 78 138
0.561264 -0.218220 0.065976 68 1 84
0.602578 0.071563 0.414234 68 1 84
0.347069 0.021085 -0.171855 68 1 84
-0.658138 -0.389709 0.406386 68 1 84
-0.559934 -0.247190 0.110910 68 1 84
-0.324490 0.326558 -0.131796 70 49 126
-0.496229 -0.218943 0.000948 68 1 84
-0.259492 0.415876 -0.136576 67 60 132
-0.606617 -0.179223 0.271355 68 1 84
0.469673 -0.303606 -0.036004 68 1 84
-0.343226 -0.206963 -0.125822 68 1 84
0.636824 -0.252545 0.227255 68 1 84
0.100202 0.552491 -0.182702 63 69 135
0.583743 -0.481743 0.113445 68 1 84
-0.194370 0.556019 -0.129569 67 58 131
0.086860 0.593234 -0.128701 68 1 84
0.602937 -0.112149 0.164246 68 1 84
0.228951 0.486977 -0.112202 71 44 123
-0.186679 0.191912 -0.229478 30 155 137
0.520938 -0.128355 -0.012046 68 1 84
0.716639 -0.279693 0.373941 68 1 84
0.388048 -0.201145 -0.108988 68 1 84
-0.171482 0.553776 -0.153549 72 28 110
0.573984 -0.288080 0.095268 68 1 84
-0.293811 0.544977 0.049640 68 1 84
0.640559 -0.313052 0.201691 68 1 84
-0.342645 0.499248 0.043888 68 1 84
-0.269794 -0.529024 -0.261291 51 96 141
0.529254 -0.415395 -0.038782 68 1 84
-0.609566 0.019818 0.343250 68 1 84
-0.450208 -0.169441 -0.064861 68 1 84
-0.557109 -0.349186 0.120927 68 1 84
-0.617825 -0.294074 0.485533 68 1 84
-0.013942 -0.270328 -0.336062 56 87 140
-0.146076 -0.260537 -0.164318 68 1 84
0.429110 0.340923 0.017238 68 1 84
0.592155 -0.054465 0.161081 68 1 84
-0.353065 -0.106124 -0.149642 68 1 84
0.533929 0.300835 0.341526 68 1 84
-0.297885 -0.240971 -0.145999 68 1 84
0.711543 -0.279428 0.460153 68 1 84
-0.438498 -0.047593 -0.100202 68 1 84
0.702330 -0.301398 0.272166 68 1 84
-0.360230 -0.493378 -0.210272 68 1 84
0.457955 0.444114 0.310216 68 1 84
-0.146764 -0.052176 -0.325906 42 117 142
0.540785 -0.376153 0.013393 68 1 84
-0.466314 -0.325109 0.004924 68 1 84
0.233864 0.391983 -0.159094 57 85 139
0.240532 0.559935 0.005642 68 1 84
0.379233 0.440408 0.034138 68 1 84
0.125314 -0.366229 -0.163830 71 38 118
0.567000 0.175574 0.465162 68 1 84
-0.231277 0.229847 -0.185199 70 45 124
-0.359746 -0.408978 -0.168032 68 1 84
-0.611508 -0.135666 0.338511 68 1 84
-0.556600 0.211179 0.217843 68 1 84
0.746546 -0.318845 0.390514 68 1 84
0.644251 -0.253265 0.235645 68 1 84
0.379444 0.202689 -0.130448 68 1 84
0.161336 0.562255 -0.109476 68 1 84
0.100848 0.209972 -0.255563 103 204 92
0.072494 -0.101431 -0.413354 44 114 142
0.083970 -0.073709 -0.405624 42 119 142
-0.044248 0.002088 -0.349519 47 179 123
0.530906 -0.132360 0.002162 68 1 84
0.180222 0.552117 -0.092783 68 1 84
-0.148843 -0.102991 -0.240696 52 94 141
-0.514991 0.101647 0.033234 68 1 84
0.160970 0.574306 -0.082571 68 1 84
0.204792 0.553016 -0.050237 68 1 84
0.192712 0.314646 -0.201713 45 111 142
0.035283 0.153665 -0.330445 114 207 85
-0.504242 0.327606 0.166626 68 1 84
-0.376898 -0.479574 -0.196447 68 1 84
0.621577 -0.255399 0.196292 68 1 84
0.650028 -0.151143 0.516988 68 1 84
0.064553 0.180938 -0.306249 246 230 31
0.538776 0.286276 0.418243 68 1 84
-0.302824 0.528096 0.019224 68 1 84
0.343531 -0.189645 -0.131704 68 1 84
-0.619277 -0.289383 0.463054 68 1 84
-0.267241 -0.439849 -0.223376 72 30 112
-0.032901 -0.273620 -0.326095 44 113 142
-0.357490 -0.028756 -0.164435 69 5 88
0.156016 -0.397867 -0.196900 70 45 124
-0.536948 0.303074 0.263217 68 1 84
-0.131057 -0.108895 -0.283919 40 123 142
0.092081 -0.062913 -0.392975 40 123 142
0.556065 0.234209 0.378748 68 1 84
-0.551529 -0.505669 0.127775 68 1 84
-0.161067 -0.306246 -0.145784 68 1 84
-0.151062 0.015405 -0.222025 62 72 136
0.048034 0.048764 -0.305233 54 184 119
-0.390956 0.398252 -0.000578 68 1 84
-0.200744 0.559638 -0.106064 71 21 103
-0.609870 -0.228375 0.487443 68 1 84
0.425506 0.087848 -0.104295 68 1 84
-0.495114 -0.323593 0.032889 68 1 84
0.284425 0.492204 -0.041097 71 18 101
-0.252003 0.043719 -0.202518 69 8 91
0.497023 0.103018 0.002615 68 1 84
-0.094337 -0.242122 -0.255181 54 91 140
-0.667826 -0.484626 0.330003 68 1 84
-0.172978 0.545779 -0.158005 61 75 137
0.389652 0.164623 -0.129506 68 1 84
0.302289 0.285532 -0.170798 58 82 139
-0.166253 0.508437 -0.179896 53 92 140
-0.562179 0.177983 0.212016 68 1 84
0.356399 0.467844 0.029235 68 1 84
0.659727 -0.153025 0.349105 68 1 84
-0.632813 -0.287558 0.391824 68 1 84
-0.073716 0.530170 -0.219817 48 103 141
0.623298 -0.008669 0.370253 68 1 84
0.631286 -0.463562 0.198450 68 1 84
0.717697 -0.280009 0.362415 68 1 84
0.505356 -0.517851 -0.094007 71 20 102
-0.256959 -0.552904 -0.268322 39 126 142
-0.249771 -0.379974 -0.149175 68 1 84
-0.388924 0.475171 0.096596 68 1 84
-0.469835 0.335625 0.084837 68 1 84
-0.347594 -0.143927 -0.142039 68 1 84
-0.343382 0.492006 0.034964 68 1 84
-0.065211 -0.216747 -0.330934 61 76 137
0.331232 0.382212 -0.089932 70 48 125
-0.613042 0.006679 0.349645 68 1 84
-0.317933 -0.014661 -0.185828 71 17 99
0.000294 -0.192277 -0.396301 66 62 133
0.003917 0.036344 -0.319480 56 185 118
0.161921 -0.186158 -0.203637 48 104 141
0.526152 -0.481041 -0.048669 68 1 84
0.350467 0.518035 0.103029 68 1 84
-0.669702 -0.454007 0.373796 68 1 84
-0.490182 0.405323 0.319977 68 1 84
0.769873 -0.393460 0.366364 68 1 84
-0.075963 0.240717 -0.280693 96 201 96
-0.446105 0.376357 0.077142 68 1 84
-0.568038 -0.446791 0.151680 68 1 84
-0.503408 -0.159153 -0.006991 68 1 84
-0.048025 -0.142740 -0.423159 55 88 140
-0.226203 0.009133 -0.201212 70 9 92
0.147945 -0.271108 -0.156076 72 30 112
0.482895 -0.288958 -0.015651 68 1 84
-0.243941 -0.547831 -0.273803 40 122 142
0.589123 0.107024 0.286218 68 1 84
-0.452618 0.038609 -0.086966 68 1 84
0.598882 -0.325463 0.141179 68 1 84
0.603894 -0.211013 0.147576 68 1 84
-0.170970 0.443013 -0.193700 63 69 135
0.706739 -0.257920 0.377450 68 1 84
0.181605 0.097532 -0.238890 30 158 136
0.566474 0.128913 0.201298 68 1 84
0.496639 0.371950 0.278018 68 1 84
0.259559 0.526898 -0.024096 68 1 84
-0.588934 0.070377 0.434148 68 1 84
0.317186 -0.499220 -0.254212 70 12 95
0.067928 -0.210784 -0.317660 55 89 140
0.436688 0.241036 -0.033538 68 1 84
-0.045051 -0.301965 -0.295776 61 76 137
0.762307 -0.357340 0.347640 68 1 84
-0.292989 0.401438 -0.117977 66 62 133
0.095186 -0.096720 -0.369839 49 102 141
-0.534669 0.138571 0.093211 68 1 84
0.518732 0.254970 0.156570 68 1 84
0.169628 0.289673 -0.215155 40 122 142
-0.577780 0.202020 0.321421 68 1 84
0.562414 -0.133316 0.056080 68 1 84
-0.211135 -0.375383 -0.153849 68 1 84
0.632594 -0.106860 0.455057 68 1 84
0.389580 0.360809 -0.029640 68 1 84
-0.538709 0.112073 0.093146 68 1 84
-0.200247 0.265542 -0.210533 30 155 137
-0.289491 -0.059338 -0.188773 71 24 106
-0.579027 0.123999 0.242123 68 1 84
0.592987 -0.260323 0.125710 68 1 84
0.213308 -0.083573 -0.204892 56 86 139
-0.035032 -0.050413 -0.450107 31 147 139
0.296652 -0.513835 -0.264500 67 58 131
-0.002079 -0.500093 -0.296292 60 78 138
0.134134 0.550457 -0.153125 70 45 124
-0.323155 -0.191120 -0.137443 68 1 84
0.498217 0.225107 0.077967 68 1 84
0.589178 0.123570 0.398300 68 1 84
-0.304337 -0.444871 -0.215199 68 1 84
0.623834 -0.359938 0.184100 68 1 84
0.702358 -0.247378 0.480398 68 1 84
-0.149163 0.180792 -0.262914 46 178 124
-0.571342 0.087882 0.186661 68 1 84
0.490072 0.249772 0.076253 68 1 84
-0.387651 -0.532608 -0.195252 68 1 84
-0.472148 0.330044 0.084061 68 1 84
-0.173785 -0.224454 -0.175090 68 1 84
0.534665 0.143448 0.115011 68 1 84
-0.535621 -0.530916 0.089967 68 1 84
-0.330250 -0.496390 -0.226016 68 1 84
0.331974 -0.486805 -0.246629 68 1 84
0.346067 0.507471 0.072911 68 1 84
0.466573 0.241912 0.019260 68 1 84
-0.352930 -0.133872 -0.142130 68 1 84
0.397971 0.295431 -0.065427 71 18 101
0.049416 -0.384443 -0.254388 66 62 133
-0.553359 -0.098545 0.084999 68 1 84
0.189371 0.150326 -0.254436 96 201 96
-0.676303 -0.448816 0.468371 68 1 84
-0.145358 0.259177 -0.256891 98 202 95
-0.508355 -0.110998 -0.006857 68 1 84
0.480589 -0.155630 -0.053027 68 1 84
-0.403478 0.203160 -0.110031 68 1 84
-0.340714 -0.377486 -0.137708 68 1 84
-0.143848 0.194329 -0.243945 41 175 127
-0.158270 -0.039490 -0.298373 35 135 141
-0.061598 0.298231 -0.278414 165 218 53
0.547271 0.164472 0.170539 68 1 84
-0.341353 -0.361393 -0.122568 68 1 84
-0.518740 -0.509404 0.040697 68 1 84
0.722592 -0.301388 0.325957 68 1 84
-0.256809 0.185398 -0.217316 40 122 142
