ply
format ascii 1.0
element vertex 1278
property float x
property float y
property float z
property uchar red
property uchar green
property uchar blue
end_header
-0.576620 0.189007 0.000422 68 1 84
-0.257596 -0.041180 -0.212010 71 39 119
-0.479331 0.005500 -0.107252 68 1 84
0.266561 -0.168439 -0.160646 68 55 129
-0.561983 -0.213760 0.382552 71 18 101
-0.025660 -0.069200 -0.271459 31 161 135
-0.365708 -0.277287 -0.074631 68 1 84
-0.478131 -0.146573 -0.041723 68 1 84
0.499269 -0.041949 -0.074460 68 1 84
-0.377834 0.231822 -0.154271 68 1 84
0.541279 -0.130745 0.047643 68 1 84
0.533416 -0.190052 0.085573 68 1 84
0.227879 0.361986 -0.288156 48 103 141
-0.625255 0.078227 0.331992 68 1 84
0.166862 0.323129 -0.262743 48 103 141
0.656365 0.445838 0.272721 68 1 84
-0.603583 0.447779 0.108681 68 1 84
0.162429 0.096075 -0.229434 36 132 141
0.659792 0.274323 0.257794 68 1 84
-0.640935 0.385770 0.216189 68 1 84
0.625713 0.238539 0.471101 68 1 84
-0.629611 0.410687 0.179431 68 1 84
0.614106 0.028223 0.364525 68 1 84
0.628560 0.222376 0.429256 68 1 84
-0.109085 0.361745 -0.306966 31 146 140
0.222726 0.228674 -0.188021 68 1 84
-0.451438 -0.143166 -0.074223 68 1 84
-0.001640 -0.591897 -0.037411 68 1 84
0.672211 0.475503 0.349511 68 1 84
-0.536768 0.297731 -0.038161 68 1 84
-0.578736 -0.113794 0.183744 68 1 84
-0.220323 0.325750 -0.278896 39 125 142
-0.596044 -0.067674 0.237698 68 1 84
-0.573436 -0.187439 0.424403 71 24 106
-0.579685 0.082274 0.021299 68 1 84
-0.119947 0.398354 -0.339739 34 137 141
-0.133550 -0.503956 -0.132400 72 35 116
0.385719 0.050629 -0.172716 72 32 113
0.593219 0.304888 0.040084 68 1 84
0.044077 -0.364026 -0.163854 69 53 128
-0.658081 0.488097 0.329592 68 1 84
0.253560 -0.442043 -0.042345 68 1 84
0.569091 0.176531 -0.013927 68 1 84
-0.130025 -0.273857 -0.168826 66 61 132
-0.646589 0.571164 0.232290 68 1 84
0.305505 -0.045973 -0.193950 65 65 134
-0.643522 0.268097 0.175256 68 1 84
0.572975 0.231187 -0.000101 68 1 84
0.486482 -0.304391 0.095642 68 1 84
-0.518521 -0.244842 0.107096 68 1 84
-0.315144 -0.288578 -0.098181 70 9 92
0.640194 0.330834 0.185843 68 1 84
0.668836 0.505303 0.297704 68 1 84
-0.595054 0.148384 0.042406 68 1 84
0.352143 -0.445794 0.073550 68 1 84
0.152873 -0.237741 -0.170105 69 53 128
0.645373 0.396103 0.214387 68 1 84
0.342844 -0.135984 -0.158625 70 47 124
-0.636054 0.127735 0.292614 68 1 84
-0.389305 -0.411929 0.108969 71 15 98
0.527984 -0.205211 0.085394 68 1 84
-0.456747 0.448084 -0.160211 72 25 107
0.098887 -0.056781 -0.319761 109 206 88
0.177057 0.284696 -0.211803 68 1 84
-0.354937 0.287897 -0.153300 68 1 84
0.608686 0.426771 0.086497 68 1 84
-0.055685 -0.377132 -0.163883 71 24 106
0.035201 -0.453982 -0.174155 72 34 115
-0.321260 0.204304 -0.185231 68 1 84
0.581034 0.049756 0.470614 68 1 84
0.414995 0.162181 -0.138297 68 1 84
-0.560401 -0.185203 0.182059 68 1 84
0.578681 -0.001824 0.452033 68 1 84
0.164096 -0.009438 -0.219760 45 111 142
0.625036 0.549787 0.110072 69 50 127
0.378385 0.234572 -0.147772 68 1 84
0.476055 -0.311673 0.431170 68 1 84
-0.054372 0.186720 -0.268315 51 182 121
0.603119 0.476164 0.061428 68 1 84
-0.533821 0.498936 -0.043413 68 1 84
0.264517 0.248488 -0.191227 68 1 84
0.481693 -0.340951 0.339484 68 1 84
-0.601507 -0.054562 0.381348 68 1 84
-0.599538 0.021398 0.165407 68 1 84
0.091089 0.218826 -0.256685 33 142 140
-0.290850 -0.195322 -0.147910 72 33 114
0.597749 0.440508 0.051722 68 1 84
-0.607023 0.371689 0.097363 72 26 108
0.558069 -0.091297 0.053053 68 1 84
-0.602614 0.019239 0.428985 68 1 84
-0.111837 -0.333162 -0.151833 72 26 108
0.361449 -0.466205 0.136594 68 1 84
0.549807 -0.227668 0.213026 68 1 84
-0.625666 0.064666 0.311360 68 1 84
-0.615222 0.539085 0.134766 68 1 84
0.638663 0.138794 0.190395 68 1 84
0.372477 0.118483 -0.165940 70 11 94
-0.598591 -0.083708 0.335071 68 1 84
0.492417 -0.307386 0.385699 68 1 84
0.238357 -0.251525 -0.130126 65 65 134
0.409714 0.459794 -0.239958 31 147 139
0.304998 0.225807 -0.185351 68 1 84
0.264863 -0.484448 0.021191 68 1 84
-0.514167 0.007304 -0.067343 68 1 84
0.636782 0.111198 0.222384 68 1 84
0.618180 0.030647 0.243381 68 1 84
0.662427 0.390471 0.374146 68 1 84
-0.452804 -0.209217 -0.030858 68 1 84
-0.426439 0.162502 -0.160089 68 1 84
0.626928 0.085717 0.169050 68 1 84
-0.661312 0.555196 0.300257 68 1 84
0.446760 -0.384107 0.348385 68 1 84
-0.634527 0.124518 0.305925 68 1 84
0.201641 -0.012606 -0.200734 50 99 141
0.562423 -0.139332 0.410919 68 1 84
-0.644752 0.325031 0.306403 68 1 84
-0.342479 -0.246342 -0.105757 68 1 84
0.193763 -0.368064 -0.108093 71 18 101
0.565567 0.031858 -0.007557 68 1 84
-0.554722 -0.212700 0.219411 68 1 84
0.019515 -0.564013 -0.112923 70 9 92
0.349410 0.061598 -0.183779 71 43 122
-0.063527 0.074763 -0.311241 186 222 39
-0.585866 0.433136 0.058360 68 1 84
-0.413024 -0.313298 0.003732 68 1 84
-0.540279 -0.232873 0.177360 68 1 84
-0.613504 0.229851 0.088217 68 1 84
-0.632022 0.607961 0.183556 68 1 84
0.501474 0.119348 -0.097983 68 1 84
-0.342280 0.459929 -0.276077 69 54 129
0.534446 -0.259552 0.186670 68 1 84
-0.216799 0.031667 -0.224841 72 32 113
-0.291148 0.302495 -0.206804 71 17 99
0.537610 -0.220080 0.132334 68 1 84
0.632492 0.149247 0.371542 68 1 84
-0.275300 -0.246527 -0.130141 72 28 110
-0.569381 0.326158 0.007842 68 1 84
-0.645559 0.382397 0.259294 68 1 84
0.471556 0.248316 -0.078397 68 1 84
-0.306722 0.192440 -0.191476 68 1 84
-0.371153 0.286427 -0.142269 68 1 84
-0.409423 -0.371259 0.068220 69 6 90
-0.639407 0.194918 0.222033 68 1 84
0.395856 -0.046844 -0.162564 72 33 114
0.134274 -0.140448 -0.201795 50 98 141
-0.302256 -0.474929 0.147599 71 17 99
-0.476035 -0.331230 0.134912 68 2 85
-0.487898 0.379227 -0.096840 68 1 84
-0.458650 0.441700 -0.156894 72 28 110
0.386337 0.257325 -0.137919 68 1 84
0.634326 0.225767 0.401108 68 1 84
0.144191 -0.350536 -0.137238 72 29 111
0.211871 0.205036 -0.187562 69 54 129
0.413110 -0.426479 0.314093 70 14 97
0.642309 0.530271 0.193172 68 1 84
-0.483971 0.479638 -0.121941 68 1 84
-0.583775 0.166813 0.014377 68 1 84
-0.115635 0.028507 -0.233520 34 138 141
0.116354 -0.397815 -0.140939 71 38 118
-0.030461 0.118574 -0.326133 146 215 65
0.174554 0.304708 -0.236991 48 103 141
0.682289 0.578893 0.349034 68 1 84
0.509609 -0.076198 -0.046773 68 1 84
-0.095794 -0.399646 -0.154709 71 38 118
-0.351064 0.257992 -0.163971 68 1 84
-0.016240 -0.130243 -0.243145 49 101 141
0.621659 0.039283 0.292261 68 1 84
0.664793 0.450466 0.312819 68 1 84
0.553398 0.302847 -0.020276 68 1 84
-0.271253 0.314048 -0.220687 66 64 133
-0.619335 0.064646 0.227863 68 1 84
-0.355453 -0.283557 -0.078531 68 1 84
0.265224 0.073618 -0.200264 67 60 132
0.632998 0.097259 0.331189 68 1 84
-0.187536 -0.018078 -0.207858 65 65 134
0.153390 -0.548166 -0.052578 72 28 110
-0.373500 -0.182871 -0.116945 68 1 84
0.552942 -0.220224 0.221935 68 1 84
-0.638240 0.345436 0.426702 68 1 84
-0.449269 0.368947 -0.140743 69 8 91
0.134891 -0.408913 -0.131984 71 24 106
-0.022617 -0.289971 -0.210053 61 76 137
-0.440968 -0.385045 0.167815 71 21 103
-0.492589 0.509914 -0.110663 68 1 84
-0.159820 -0.269405 -0.147540 71 38 118
0.442195 0.097340 -0.142784 71 18 101
0.094301 -0.337574 -0.160323 67 58 131
0.254300 0.101916 -0.194182 70 45 124
-0.241074 -0.493998 0.012138 69 6 90
0.586172 -0.014543 0.067856 68 1 84
-0.501924 -0.176937 0.010304 68 1 84
-0.609296 0.020847 0.217050 68 1 84
-0.577581 -0.161680 0.328404 68 1 84
0.533217 -0.150703 0.044756 68 1 84
0.322779 -0.459175 0.057083 68 1 84
0.554968 -0.207355 0.199510 68 1 84
0.456298 -0.175855 -0.059903 71 21 103
-0.608880 0.100097 0.486610 68 1 84
0.650464 0.288926 0.372916 68 1 84
0.525320 -0.243064 0.396085 68 1 84
-0.342533 0.016639 -0.205081 70 12 95
-0.028961 0.272553 -0.281776 48 103 141
-0.077176 0.173611 -0.254538 48 180 122
0.038696 0.287310 -0.305017 35 137 141
-0.641085 0.355322 0.422191 68 1 84
0.500944 0.103341 -0.099114 68 1 84
-0.413416 -0.013865 -0.160968 68 1 84
0.027910 -0.040621 -0.396388 91 200 98
-0.584216 -0.075818 0.482675 68 1 84
-0.361030 0.260155 -0.155606 68 1 84
-0.271017 -0.023634 -0.216458 70 48 125
-0.134281 -0.206250 -0.193010 55 88 140
0.017282 -0.551037 -0.127860 70 12 95
-0.315867 0.393242 -0.275839 68 57 130
0.611558 -0.001059 0.307910 68 1 84
-0.088600 -0.449248 -0.164983 71 20 102
-0.572158 -0.197889 0.456336 68 1 84
0.652296 0.297836 0.217732 68 1 84
-0.177724 -0.047671 -0.195098 61 75 137
0.304118 -0.489273 0.108804 68 1 84
0.483424 -0.103870 -0.068172 68 2 85
0.383544 0.142254 -0.156250 68 1 84
-0.061024 0.222898 -0.244978 34 137 141
-0.450994 -0.340904 0.091642 68 1 84
0.285490 -0.034019 -0.198887 57 85 139
-0.141519 0.326291 -0.254003 33 142 140
-0.565302 -0.213148 0.414048 72 34 115
-0.142252 -0.405800 -0.134506 71 37 117
0.469679 0.298873 -0.102963 68 1 84
0.103426 -0.176055 -0.225671 46 109 142
0.118450 -0.427059 -0.140836 71 40 120
0.268162 -0.309217 -0.100158 72 35 116
-0.521710 -0.249671 0.127145 68 1 84
0.268524 0.102755 -0.190818 72 29 111
-0.153536 0.206696 -0.207279 56 87 140
0.419388 -0.095186 -0.133510 69 52 127
-0.590719 -0.061702 0.464056 68 1 84
0.223189 -0.518217 0.058200 68 1 84
-0.494923 0.472553 -0.106644 68 1 84
-0.203131 -0.351384 -0.107274 71 24 106
-0.361272 -0.228408 -0.102534 68 1 84
-0.320062 -0.103346 -0.179433 68 1 84
-0.629467 0.510097 0.182703 68 1 84
0.549324 -0.212263 0.170793 68 1 84
-0.610393 0.006253 0.246464 68 1 84
0.642616 0.147332 0.336277 68 1 84
-0.029975 -0.332141 -0.168617 71 40 120
0.502173 0.003963 -0.085200 68 1 84
-0.469315 0.428034 -0.139157 68 3 87
0.025353 -0.505226 -0.161226 68 2 85
0.638258 0.396444 0.188866 68 1 84
-0.434431 0.161936 -0.155050 68 1 84
0.348424 -0.469195 0.120790 68 1 84
-0.063265 0.246680 -0.236242 40 122 142
-0.530242 0.197906 -0.064717 68 1 84
0.145799 -0.305049 -0.154399 69 50 127
0.194542 0.321807 -0.253999 66 62 133
-0.582621 0.450014 0.052047 68 1 84
-0.641058 0.214410 0.184222 68 1 84
0.279282 -0.274950 -0.118267 72 34 115
0.199463 -0.495947 -0.059271 69 6 90
0.562730 -0.192783 0.294648 68 1 84
0.561873 0.327847 -0.010638 68 1 84
0.280671 -0.299063 -0.104873 70 49 126
-0.123259 -0.233766 -0.169733 71 40 120
0.216069 -0.521659 0.041648 68 1 84
-0.051894 -0.326502 -0.168232 71 38 118
0.176220 0.034765 -0.221558 55 89 140
-0.561906 -0.125688 0.114131 68 1 84
0.426673 0.226593 -0.111736 68 1 84
0.164115 -0.031501 -0.232953 38 128 142
0.272233 0.093059 -0.193243 71 38 118
0.068474 0.146578 -0.314250 109 206 88
-0.055724 0.184320 -0.268159 54 184 119
0.035671 -0.146365 -0.243159 40 123 142
-0.284252 -0.447133 -0.002704 68 57 130
-0.296015 -0.464381 0.098550 70 47 124
-0.471005 -0.338233 0.134913 68 1 84
-0.621883 0.258362 0.110867 68 1 84
-0.499387 -0.327422 0.251906 68 1 84
0.603897 0.003237 0.145235 68 1 84
0.510531 -0.243836 0.450010 68 1 84
0.583440 0.152444 0.005742 68 1 84
-0.445167 -0.362038 0.117084 68 1 84
-0.302226 0.385155 -0.280235 61 76 137
-0.538841 -0.260469 0.449679 72 30 112
0.270733 0.121194 -0.183904 69 5 88
0.078144 0.304952 -0.297147 53 92 140
-0.510728 -0.151378 0.007239 68 1 84
0.683099 0.530090 0.405286 68 1 84
-0.207484 -0.118921 -0.184329 72 29 111
-0.516437 0.489205 -0.074267 68 1 84
-0.157040 -0.468452 -0.128230 72 32 113
-0.262657 0.282572 -0.207664 68 2 85
0.539158 -0.148250 0.466234 68 1 84
0.298293 -0.219304 -0.136664 71 44 123
-0.299830 -0.393957 -0.035817 71 44 123
0.578850 0.396106 0.013108 68 1 84
0.327930 -0.465040 0.078924 68 1 84
0.641603 0.504060 0.199026 68 1 84
0.528127 -0.174671 0.055159 68 1 84
-0.168780 -0.399433 -0.118796 69 6 90
0.063115 0.264656 -0.288857 40 122 142
-0.646531 0.371099 0.338683 68 1 84
0.533516 0.135644 -0.063969 68 1 84
-0.288988 -0.264865 -0.117748 71 18 101
0.579888 0.005925 0.452289 68 1 84
-0.393875 -0.108165 -0.141947 68 1 84
-0.545728 -0.009377 -0.012300 68 1 84
0.057551 -0.064177 -0.355801 87 198 101
0.673349 0.536451 0.307375 68 1 84
-0.491153 -0.180508 -0.002469 68 1 84
0.078912 -0.059091 -0.327262 105 204 91
0.378298 -0.336394 -0.035564 68 1 84
-0.209044 0.329692 -0.281297 37 131 141
0.587223 -0.055605 0.153122 68 1 84
-0.607326 0.076504 0.456232 68 1 84
0.087928 -0.393073 -0.152773 72 32 113
-0.358397 0.321645 -0.183105 68 1 84
-0.048880 -0.051913 -0.262391 31 146 140
0.017065 0.037733 -0.380083 194 223 34
0.217635 0.191859 -0.186596 69 6 90
0.074562 0.251326 -0.278119 30 153 138
0.441235 -0.399579 0.315865 68 1 84
0.572038 0.368578 0.002774 68 1 84
0.438492 0.295540 -0.128922 68 1 84
0.566313 0.412745 -0.013228 68 1 84
-0.385539 -0.434446 0.161937 70 11 94
-0.430173 0.417267 -0.187971 72 28 110
-0.536247 0.385276 -0.038068 68 1 84
0.423061 -0.429383 0.210870 68 1 84
-0.322890 0.323688 -0.237533 70 45 124
-0.564129 -0.074089 0.084129 68 1 84
0.035596 -0.308786 -0.194138 61 75 137
-0.523510 -0.213215 0.081996 68 1 84
-0.016053 -0.554026 -0.124356 71 15 98
0.103494 0.312087 -0.287857 40 123 142
0.537030 0.441839 -0.073455 68 1 84
-0.018180 0.070253 -0.353439 167 219 51
-0.257001 -0.077474 -0.199813 71 37 117
-0.182315 0.340853 -0.277489 31 148 139
0.228984 -0.515038 0.060270 68 1 84
0.124214 0.245777 -0.214803 59 80 138
-0.479431 0.019043 -0.110741 68 1 84
0.559547 0.449549 -0.033502 68 1 84
-0.633328 0.326602 0.398444 68 1 84
-0.402428 -0.408066 0.125289 71 22 105
0.571473 0.009330 0.484402 68 1 84
-0.634242 0.133424 0.315509 68 1 84
-0.660235 0.496264 0.375408 68 1 84
-0.205443 -0.313466 -0.115021 71 39 119
0.397096 -0.208032 -0.095314 69 52 127
0.451648 -0.062982 -0.118150 71 24 106
0.672773 0.466090 0.407862 68 1 84
-0.500962 0.042883 -0.093535 68 1 84
-0.566700 0.146464 -0.018644 68 1 84
0.528196 -0.282715 0.240703 68 1 84
-0.279689 0.191910 -0.197372 69 6 90
0.506635 -0.318241 0.279627 68 1 84
0.635585 0.111739 0.334045 68 1 84
-0.469109 0.068170 -0.129264 68 1 84
0.247972 -0.470274 -0.024782 68 1 84
-0.627177 0.612233 0.169206 68 3 87
-0.577149 0.414281 0.034715 68 1 84
0.556741 -0.162263 0.139514 68 1 84
0.420195 0.473497 -0.232498 30 151 138
0.274586 -0.060657 -0.192628 60 77 138
0.109970 -0.133492 -0.214134 42 117 142
0.449409 -0.390976 0.312875 68 1 84
0.612469 0.161151 0.461760 68 1 84
0.624568 0.172333 0.412044 68 1 84
-0.656983 0.537955 0.285222 68 1 84
0.013617 -0.502969 -0.162984 71 15 98
0.392082 -0.448206 0.294366 68 1 84
-0.169653 0.299614 -0.205934 72 28 110
-0.012796 -0.216969 -0.235745 55 88 140
-0.648988 0.324189 0.293536 68 1 84
-0.588454 -0.117418 0.275206 68 1 84
0.408846 -0.050111 -0.154481 71 20 102
-0.632213 0.456863 0.206679 68 1 84
0.270464 0.162917 -0.179404 68 1 84
0.600041 -0.048878 0.311695 68 1 84
0.387867 0.355427 -0.233660 54 91 140
-0.621394 0.178261 0.118098 68 1 84
-0.321430 0.395925 -0.273595 67 58 131
0.264190 0.035790 -0.206196 54 91 140
0.284796 0.290437 -0.201233 72 25 107
-0.379920 -0.432367 0.143430 71 21 103
0.286926 -0.489524 0.083385 68 1 84
-0.609089 0.192483 0.473492 68 1 84
0.080044 -0.300697 -0.193433 56 86 139
-0.020732 -0.591330 -0.028317 68 1 84
-0.012720 -0.062791 -0.375975 64 189 114
0.307377 -0.350547 -0.071507 68 1 84
-0.581881 0.146346 0.011182 68 1 84
-0.123002 -0.379121 -0.140789 72 32 113
-0.163376 -0.549684 -0.030272 68 1 84
-0.440313 -0.361497 0.104741 68 1 84
0.588439 0.511744 0.012322 71 21 103
-0.617809 0.151781 0.117902 68 1 84
0.342855 -0.099120 -0.171991 71 39 119
0.085632 -0.210941 -0.232878 46 109 142
-0.065425 -0.563876 -0.107451 71 20 102
-0.389112 -0.040452 -0.169845 68 1 84
0.053701 0.308588 -0.308988 49 100 141
0.086163 -0.212661 -0.231653 42 117 142
0.540906 -0.169282 0.086781 68 1 84
0.135405 0.169453 -0.225809 38 128 142
-0.041457 -0.055886 -0.261071 36 132 141
-0.425298 -0.128681 -0.107398 68 1 84
0.288683 0.021698 -0.202939 68 55 129
-0.532086 0.438848 -0.048616 68 1 84
0.406153 0.243302 -0.124049 68 1 84
0.564639 0.307608 -0.006334 68 1 84
0.347610 -0.244397 -0.106559 71 17 99
-0.340925 -0.215007 -0.120017 68 1 84
-0.184877 -0.147167 -0.185714 64 67 135
-0.645705 0.340993 0.249385 68 1 84
-0.647120 0.405006 0.280369 68 1 84
0.518589 0.315149 -0.059467 68 1 84
-0.081648 -0.281442 -0.196938 64 68 135
-0.442120 -0.062810 -0.121713 68 1 84
-0.597496 0.406575 0.085461 68 1 84
-0.502671 -0.303930 0.170655 68 1 84
0.092938 -0.543541 -0.121578 72 25 107
-0.224324 -0.148531 -0.178898 71 38 118
0.641591 0.322958 0.464812 68 1 84
-0.539959 -0.247670 0.222203 68 1 84
0.406923 -0.333338 -0.002985 68 1 84
-0.608413 0.118479 0.097409 68 1 84
-0.597191 0.086900 0.070535 68 1 84
0.055391 -0.063597 -0.359504 73 193 109
0.390827 -0.459477 0.231262 68 1 84
0.648173 0.282654 0.185577 68 1 84
-0.254314 -0.169716 -0.168173 69 53 128
-0.049685 -0.042483 -0.365058 134 212 73
0.515682 0.064410 -0.081849 68 1 84
-0.341012 0.342341 -0.243259 65 66 134
0.607887 0.505999 0.066085 68 2 85
0.659138 0.187701 0.292647 68 1 84
0.379462 -0.466971 0.197778 68 1 84
0.130382 0.203123 -0.214473 39 126 142
0.189121 -0.532411 -0.017172 70 14 97
-0.652779 0.438953 0.323033 68 1 84
-0.342819 -0.096038 -0.175435 68 1 84
0.035273 -0.229800 -0.213888 58 83 139
-0.225357 -0.506178 0.038316 72 26 108
-0.140019 -0.286634 -0.158059 69 54 129
-0.639348 0.369871 0.192997 68 1 84
0.446447 0.290061 -0.113054 68 1 84
0.544906 0.037552 -0.041728 68 1 84
0.638734 0.539665 0.176000 68 1 84
-0.196683 -0.237796 -0.129533 71 22 105
-0.254388 0.173270 -0.201114 70 49 126
0.481106 -0.315193 0.098415 68 1 84
-0.541137 -0.236671 0.190771 68 1 84
0.615389 0.329569 0.099921 68 1 84
0.506074 0.110717 -0.094329 68 1 84
-0.354126 0.156656 -0.190292 69 6 90
-0.606733 0.044535 0.434602 68 1 84
-0.571824 -0.030242 0.080819 68 1 84
0.115800 -0.096300 -0.215421 35 136 141
0.323980 -0.108089 -0.173681 72 28 110
-0.156435 -0.177641 -0.189569 55 88 140
0.216556 -0.486903 -0.045791 68 1 84
-0.412887 -0.061110 -0.147223 68 1 84
-0.499007 -0.330261 0.355656 68 3 87
0.408083 -0.296291 -0.032553 68 1 84
-0.639564 0.186274 0.255319 68 1 84
-0.070677 0.014287 -0.346782 75 194 108
0.478154 0.181420 -0.098397 68 1 84
-0.621924 0.135644 0.359392 68 1 84
0.365645 -0.066514 -0.172438 71 20 102
0.001503 -0.235254 -0.209856 62 73 137
-0.010820 -0.383607 -0.174797 70 47 124
-0.072382 0.047187 -0.319220 131 211 75
-0.541096 -0.266202 0.393290 72 25 107
-0.514503 -0.299394 0.233393 68 1 84
-0.222780 -0.111795 -0.185532 72 25 107
0.105598 0.301317 -0.274045 40 123 142
-0.631101 0.140653 0.208472 68 1 84
-0.074916 -0.419676 -0.166809 70 48 125
-0.597164 0.587990 0.088248 68 1 84
-0.320466 -0.143564 -0.161263 68 1 84
-0.179191 -0.319346 -0.126618 71 20 102
0.543332 -0.145399 0.457425 68 1 84
-0.411109 0.326901 -0.145061 68 1 84
0.038521 0.142898 -0.333235 85 198 102
0.486626 -0.031792 -0.092491 69 6 90
-0.648194 0.446759 0.276954 68 1 84
-0.570256 0.478285 0.026632 68 1 84
-0.648941 0.394332 0.353654 68 1 84
0.615354 0.131920 0.082984 68 1 84
-0.051856 -0.217774 -0.215244 69 54 129
0.643332 0.306397 0.415651 68 1 84
0.651083 0.199762 0.212042 68 1 84
0.244540 -0.485922 -0.009832 68 1 84
0.540909 0.097317 -0.056774 68 1 84
0.036829 -0.589500 -0.052837 68 1 84
-0.134195 -0.546714 -0.091901 71 20 102
-0.581464 -0.132117 0.240252 68 1 84
-0.098317 0.207339 -0.221841 42 119 142
0.618532 0.136933 0.092743 68 1 84
0.523688 0.044035 -0.069890 68 1 84
0.322719 0.303762 -0.246266 49 100 141
-0.564033 0.211390 -0.017993 68 1 84
0.074354 -0.586832 -0.036816 68 1 84
-0.410349 -0.426418 0.249454 70 11 94
-0.114615 0.431063 -0.356525 30 159 136
0.083616 0.068297 -0.322370 253 231 36
-0.475708 -0.224852 0.008024 68 1 84
-0.119673 -0.008399 -0.257952 34 167 132
0.651303 0.249235 0.357150 68 1 84
-0.645244 0.285096 0.269455 68 1 84
-0.137933 0.232427 -0.206034 62 73 137
-0.328812 0.001792 -0.208120 71 17 99
-0.644306 0.432842 0.253913 68 1 84
0.120788 -0.357798 -0.144319 70 9 92
0.078767 -0.367617 -0.154959 72 35 116
-0.475709 -0.361625 0.260935 68 3 87
-0.141891 -0.464600 -0.139533 72 26 108
-0.604869 0.074205 0.134478 68 1 84
0.452415 -0.088944 -0.108064 68 1 84
0.571783 -0.144128 0.353011 68 1 84
0.471436 0.449865 -0.181726 51 96 141
-0.457865 -0.221537 -0.016749 68 1 84
-0.351465 -0.440116 0.115133 72 25 107
-0.564924 -0.181526 0.212372 68 1 84
0.615335 0.067325 0.116589 68 1 84
-0.052402 -0.042284 -0.289347 34 167 132
0.255016 -0.106669 -0.175603 72 32 113
0.027774 -0.037394 -0.397545 139 213 70
-0.598116 -0.079755 0.279372 68 1 84
-0.128852 0.337257 -0.267736 40 122 142
-0.081484 0.398270 -0.345946 39 173 128
-0.637872 0.202085 0.290086 68 1 84
-0.254311 -0.294311 -0.106608 71 20 102
0.525640 0.226633 -0.048939 68 1 84
-0.211779 -0.472912 -0.074144 72 29 111
-0.088040 -0.067804 -0.244440 38 128 142
0.580811 0.137497 0.000055 68 1 84
0.523976 -0.286193 0.204094 68 1 84
-0.523316 0.415130 -0.060246 68 1 84
0.323065 0.349444 -0.266882 61 74 137
0.495457 0.380122 -0.132573 71 18 101
0.614129 0.024513 0.204839 68 1 84
0.650079 0.533363 0.212387 68 1 84
-0.646912 0.278988 0.250861 68 1 84
0.228301 0.380254 -0.306995 51 97 141
-0.602710 0.005144 0.419724 68 1 84
0.510584 0.023845 -0.080377 68 1 84
0.586100 -0.106185 0.279113 68 1 84
-0.587937 -0.041932 0.481248 68 1 84
-0.366383 -0.368788 0.004849 71 17 99
0.189641 -0.093636 -0.176590 70 47 124
0.586956 0.140094 0.011125 68 1 84
-0.059019 0.127657 -0.287915 69 191 111
0.105587 -0.003110 -0.333634 162 218 55
0.084688 0.086433 -0.314388 173 220 48
-0.608988 0.206439 0.458725 68 1 84
-0.544937 -0.234793 0.214314 68 1 84
-0.596708 -0.059536 0.232526 68 1 84
0.558268 0.482824 -0.042213 68 1 84
-0.241251 0.373421 -0.294093 52 94 141
0.589070 -0.089396 0.244614 68 1 84
-0.059861 0.043252 -0.338389 170 219 50
0.541050 0.377719 -0.053421 68 1 84
-0.551478 0.574638 -0.018445 70 12 95
-0.625796 0.124938 0.191885 68 1 84
0.492481 0.354080 -0.122468 68 1 84
-0.449788 -0.392217 0.288406 68 1 84
0.646300 0.216148 0.354064 68 1 84
0.572001 -0.097633 0.128083 68 1 84
0.319287 -0.077632 -0.183496 70 49 126
0.199002 -0.524621 -0.015606 68 1 84
-0.110410 -0.069408 -0.194749 69 53 128
0.531405 -0.230169 0.395369 68 1 84
0.374508 -0.439425 0.095492 68 1 84
-0.623829 0.286927 0.455534 68 1 84
-0.571011 0.322015 0.010035 68 1 84
0.426598 0.377374 -0.209733 50 99 141
-0.332045 -0.462160 0.150232 71 21 103
0.288983 -0.401840 -0.044275 68 1 84
0.021871 -0.197403 -0.247327 41 121 142
0.479643 -0.107138 -0.071104 68 3 87
-0.538185 -0.084110 0.017304 68 1 84
-0.643463 0.314014 0.310381 68 1 84
-0.371154 -0.235467 -0.092639 68 1 84
-0.586038 -0.132523 0.301519 68 1 84
0.423640 0.340312 -0.197322 50 98 141
0.103764 0.232253 -0.235803 37 131 141
-0.621627 0.427135 0.165292 68 1 84
-0.381505 -0.362278 0.015942 72 30 112
0.273456 -0.365878 -0.074085 68 1 84
-0.536857 -0.201700 0.106274 68 1 84
0.482533 -0.301118 0.083670 68 1 84
-0.255650 -0.158010 -0.170952 72 32 113
0.641714 0.557726 0.178046 70 12 95
0.013852 0.176651 -0.323864 87 198 101
0.627181 0.314449 0.131077 68 1 84
-0.635394 0.196956 0.306996 68 1 84
0.677486 0.520637 0.343844 68 1 84
-0.578958 -0.009491 0.093472 68 1 84
-0.547273 -0.051919 0.017034 68 1 84
0.134146 -0.506545 -0.119326 71 42 121
-0.612588 0.152112 0.388098 68 1 84
-0.032720 -0.361981 -0.166375 71 42 121
-0.430233 -0.267085 -0.016318 68 1 84
-0.314934 0.460943 -0.295077 64 68 135
0.023341 0.308970 -0.314194 52 95 141
0.545536 0.215527 -0.033776 68 1 84
-0.606455 0.091756 0.118857 68 1 84
0.073691 0.164395 -0.302432 105 204 91
0.135751 -0.566776 0.003853 71 18 101
-0.570079 -0.099358 0.122912 68 1 84
0.344971 -0.370025 -0.036579 68 1 84
0.585745 0.024278 0.446703 68 1 84
0.617094 0.153159 0.426301 68 1 84
-0.562492 -0.094823 0.092556 68 1 84
-0.055462 0.204268 -0.259323 48 180 122
-0.332545 0.193008 -0.183910 68 1 84
0.566203 -0.149347 0.378393 68 1 84
0.305083 -0.504319 0.160102 68 1 84
0.191450 0.097794 -0.213902 64 67 135
-0.426854 0.341922 -0.146859 68 1 84
0.383325 0.019067 -0.175019 71 24 106
-0.240104 0.318580 -0.226013 66 62 133
0.393569 -0.392151 0.047510 68 1 84
-0.425090 -0.356805 0.070633 70 14 97
0.129907 0.232887 -0.209356 51 97 141
0.355126 0.336486 -0.256750 49 100 141
-0.636666 0.334637 0.388204 68 1 84
-0.162978 0.418589 -0.344031 30 160 135
0.402831 0.424818 -0.243204 42 119 142
-0.558970 -0.226151 0.399475 71 18 101
0.318105 -0.351246 -0.066799 68 1 84
0.468103 -0.367726 0.160624 68 1 84
0.649772 0.214171 0.196470 68 1 84
-0.549447 -0.166339 0.107586 68 1 84
-0.188310 0.246026 -0.208151 71 42 121
-0.543983 -0.011957 -0.014270 68 1 84
0.160641 -0.521479 -0.082397 71 24 106
-0.031207 0.213302 -0.284435 32 164 133
-0.473109 -0.358690 0.353097 69 8 91
-0.631502 0.272059 0.375470 68 1 84
0.504366 -0.320667 0.196051 68 1 84
-0.353720 -0.331332 -0.046124 70 14 97
0.093408 0.334731 -0.312635 44 113 142
0.662448 0.388637 0.344970 68 1 84
0.392124 0.401869 -0.244023 53 92 140
0.069640 -0.587377 -0.031327 68 1 84
0.016638 -0.559675 -0.117957 70 12 95
0.471163 -0.335653 0.396050 68 1 84
-0.594236 0.147522 0.040293 68 1 84
0.290825 0.266507 -0.190066 68 1 84
0.443018 -0.262165 -0.014056 68 1 84
0.100497 0.167505 -0.264281 61 187 116
0.330156 -0.430349 0.018394 68 1 84
0.506415 -0.266909 0.421360 68 1 84
0.465048 -0.380006 0.205435 68 1 84
-0.170804 -0.544655 -0.034769 71 15 98
-0.623670 0.089025 0.224372 68 1 84
-0.195876 -0.508859 -0.061994 70 11 94
-0.105466 0.364224 -0.311892 30 152 138
-0.452590 -0.231276 -0.016390 68 1 84
-0.386168 -0.261218 -0.067003 68 1 84
-0.551971 0.399044 -0.016159 68 1 84
0.619736 0.040814 0.226921 68 1 84
-0.566961 0.441126 0.013981 68 1 84
0.302036 0.121778 -0.177890 68 1 84
0.486773 -0.103524 -0.064163 68 1 84
-0.396914 0.014848 -0.178029 68 1 84
-0.018793 -0.286599 -0.213101 64 68 135
-0.177507 -0.184697 -0.181482 66 64 133
0.012577 -0.026984 -0.403341 103 204 92
-0.193942 -0.206063 -0.167603 69 50 127
0.573853 -0.150379 0.231990 68 1 84
0.236993 0.415457 -0.328451 33 142 140
0.576078 0.038803 0.485139 68 1 84
-0.428985 0.270561 -0.114759 68 1 84
-0.390865 -0.211676 -0.089454 68 1 84
-0.079385 -0.134472 -0.217471 55 88 140
-0.526539 0.406283 -0.054377 68 1 84
-0.500417 -0.328259 0.267346 68 2 85
0.530960 -0.241857 0.377110 68 1 84
0.660347 0.251274 0.321967 68 1 84
0.326835 -0.159194 -0.153144 72 32 113
0.473094 -0.249225 0.018223 68 1 84
-0.278596 -0.443003 -0.016736 70 47 124
0.378117 0.305273 -0.237571 39 125 142
0.603480 0.017057 0.112646 68 1 84
0.510041 -0.315661 0.226937 68 1 84
0.271389 0.353826 -0.275351 50 99 141
-0.156202 -0.507937 -0.111691 71 22 105
-0.566873 0.135413 -0.017370 68 1 84
-0.248582 0.017302 -0.223918 71 39 119
-0.491722 -0.089737 -0.056802 68 1 84
0.571136 -0.071934 0.077258 68 1 84
-0.214424 -0.516215 0.005294 70 12 95
0.357181 0.265835 -0.163383 68 1 84
0.650091 0.167873 0.319889 68 1 84
-0.376440 -0.117556 -0.148243 68 1 84
-0.576630 -0.134334 0.203960 68 1 84
0.662138 0.323989 0.303736 68 1 84
0.225397 -0.108576 -0.173926 69 50 127
-0.028053 0.145033 -0.317004 149 215 63
-0.090758 -0.008920 -0.328287 71 192 110
0.590298 0.337796 0.037285 68 1 84
-0.159484 -0.393235 -0.124950 72 25 107
0.367975 -0.013693 -0.180424 72 28 110
-0.081374 -0.085338 -0.215242 58 82 139
-0.573495 0.498254 0.035817 68 1 84
-0.418923 -0.416777 0.203263 71 17 99
0.181405 0.385132 -0.329713 37 130 142
0.607675 0.107098 0.063866 68 1 84
-0.570942 0.200798 -0.008298 68 1 84
0.572565 0.037956 0.501700 68 1 84
-0.639641 0.348166 0.410787 68 1 84
-0.337682 -0.465441 0.181944 70 11 94
-0.429166 -0.389869 0.144185 70 14 97
-0.561042 0.043789 -0.005661 68 1 84
0.041719 -0.582827 -0.081195 68 1 84
-0.322121 -0.429020 0.030715 72 35 116
0.491546 -0.031794 -0.087081 68 1 84
-0.527987 -0.222080 0.104486 68 1 84
0.441104 -0.074471 -0.123598 68 1 84
-0.161108 -0.133608 -0.189467 54 91 140
0.379937 -0.226500 -0.096932 70 45 124
-0.490120 -0.335110 0.387927 71 18 101
-0.411017 -0.113443 -0.127531 68 1 84
0.196666 0.259519 -0.179356 68 1 84
0.633933 0.287931 0.143504 68 1 84
0.360333 0.284934 -0.172226 71 20 102
-0.003787 -0.407792 -0.179185 71 37 117
0.025389 -0.524324 -0.150498 71 15 98
0.050354 -0.584422 -0.075131 69 6 90
0.646418 0.427074 0.229460 68 1 84
-0.131544 -0.363884 -0.138352 72 32 113
0.660588 0.548207 0.241804 68 1 84
0.522529 -0.143606 0.015108 68 1 84
0.644289 0.578565 0.182363 72 25 107
-0.414872 -0.398458 0.128966 71 22 105
-0.205495 -0.513029 -0.040832 72 26 108
0.039826 -0.586350 -0.072009 68 1 84
0.329110 0.346181 -0.265214 54 90 140
0.345871 -0.281482 -0.092747 70 14 97
-0.638329 0.438110 0.222461 68 1 84
-0.553709 0.293441 -0.018681 68 1 84
0.588397 0.427756 0.030015 68 1 84
-0.615750 0.224677 0.094210 68 1 84
-0.637520 0.284176 0.339862 68 1 84
0.312935 -0.315818 -0.090772 68 2 85
0.186442 -0.336359 -0.119035 72 32 113
0.657972 0.298724 0.342594 68 1 84
-0.008603 -0.237593 -0.208260 64 68 135
-0.513250 -0.155065 0.013595 69 5 88
0.641571 0.189660 0.170761 68 1 84
-0.558121 -0.170416 0.144391 68 1 84
-0.544030 0.241669 -0.039504 68 1 84
-0.541895 -0.242206 0.215925 68 1 84
0.148506 0.080968 -0.242129 30 153 138
0.179662 -0.497384 -0.080159 71 15 98
0.199249 0.084798 -0.214924 58 82 139
0.595952 0.323942 0.048554 68 1 84
-0.621416 0.140080 0.149667 68 1 84
-0.280784 -0.427937 -0.028055 71 44 123
-0.397266 -0.426144 0.165871 70 12 95
-0.234683 -0.094837 -0.190207 71 17 99
-0.295985 -0.467836 0.113009 71 15 98
-0.645413 0.253857 0.254429 68 1 84
-0.495783 0.035145 -0.097221 68 1 84
0.637413 0.312972 0.164158 68 1 84
0.543570 -0.233910 0.336846 68 1 84
-0.525382 -0.293384 0.370166 70 9 92
-0.659027 0.490780 0.342009 68 1 84
0.326974 0.242533 -0.182087 68 1 84
0.452485 0.286940 -0.104918 68 1 84
0.082833 0.169173 -0.288111 134 212 73
-0.292703 -0.313080 -0.090455 71 24 106
0.572118 -0.161187 0.249198 68 1 84
-0.586876 -0.053810 0.167947 68 1 84
-0.072961 -0.422912 -0.167911 71 39 119
-0.627845 0.614025 0.171053 68 1 84
-0.502847 0.370599 -0.075968 68 1 84
-0.100601 0.017531 -0.290310 36 170 130
-0.560238 0.570261 0.002692 71 44 123
0.311980 0.120280 -0.176671 68 1 84
-0.542628 -0.209408 0.139387 68 1 84
-0.534711 -0.253282 0.197362 68 1 84
0.017114 0.129693 -0.341182 215 226 25
-0.345676 -0.128551 -0.158455 68 1 84
-0.541892 -0.260473 0.344307 68 3 87
-0.623172 0.466135 0.181744 68 1 84
-0.455722 0.271501 -0.103142 68 1 84
0.584347 0.476191 0.012665 68 1 84
0.488266 0.291143 -0.076984 69 8 91
-0.468295 -0.372799 0.275434 68 1 84
0.611737 0.172886 0.494905 68 1 84
0.120142 0.334276 -0.301578 33 141 140
0.611718 0.156039 0.067149 68 1 84
0.630743 0.243312 0.423422 68 1 84
0.597279 0.022186 0.075307 68 1 84
0.112232 -0.573929 -0.046877 71 22 105
0.249826 0.156625 -0.182817 68 1 84
-0.104853 -0.163759 -0.211195 56 87 140
-0.609960 0.024380 0.388230 68 1 84
-0.611213 0.186819 0.082492 68 1 84
-0.035240 -0.587950 -0.057367 68 1 84
-0.600008 0.062156 0.120530 68 1 84
-0.654479 0.425381 0.395568 68 1 84
0.568662 -0.112714 0.134165 68 1 84
0.547374 -0.183176 0.124216 68 1 84
0.212435 0.317093 -0.247722 70 49 126
-0.520364 0.039549 -0.069635 68 1 84
-0.288126 0.037521 -0.220949 71 22 105
0.642361 0.233261 0.378141 68 1 84
0.141272 -0.395504 -0.129419 71 21 103
0.569550 0.026906 0.507132 68 1 84
0.118924 0.343742 -0.311152 35 136 141
0.297900 -0.294728 -0.105063 69 53 128
-0.274384 -0.033401 -0.213826 71 42 121
-0.114353 -0.269971 -0.182069 62 73 137
-0.087295 0.094010 -0.268210 91 200 98
0.667864 0.500506 0.294320 68 1 84
0.600085 -0.018965 0.179929 68 1 84
-0.099903 0.301197 -0.235718 49 102 141
0.534075 0.209268 -0.046013 68 1 84
-0.240238 0.290071 -0.208299 71 21 103
-0.621161 0.577508 0.153952 68 1 84
-0.479999 -0.356404 0.264801 68 1 84
-0.652043 0.612126 0.250772 68 1 84
0.513097 0.394451 -0.108350 71 15 98
-0.221657 -0.504899 -0.022752 70 12 95
0.409924 0.292741 -0.151965 72 34 115
0.058101 -0.077324 -0.257509 31 147 139
-0.539770 -0.191882 0.104130 68 1 84
-0.400054 -0.390134 0.083267 72 26 108
0.085668 0.280322 -0.275865 34 138 141
-0.454625 0.380529 -0.140729 69 8 91
0.372982 -0.227724 -0.100840 68 55 129
-0.406514 -0.047844 -0.155980 68 1 84
0.544311 -0.237556 0.319836 68 1 84
0.531215 -0.275435 0.224699 68 1 84
-0.566119 0.542775 0.019917 70 14 97
-0.238699 0.149874 -0.206122 72 29 111
0.587220 -0.096802 0.242519 68 1 84
-0.455108 0.363400 -0.128865 68 1 84
-0.333971 -0.271095 -0.098554 68 2 85
-0.633130 0.500941 0.198014 68 1 84
-0.390156 0.301525 -0.133066 68 1 84
0.270576 -0.413500 -0.047931 68 3 87
0.592123 -0.082480 0.288668 68 1 84
-0.216934 -0.514146 0.003565 70 9 92
0.342280 0.378025 -0.261657 63 71 136
-0.262309 -0.001588 -0.221304 71 40 120
-0.123341 -0.484384 -0.146236 72 28 110
0.485281 -0.354933 0.228621 68 1 84
0.365967 -0.475613 0.225062 68 1 84
-0.596470 0.139248 0.048418 68 1 84
-0.543581 -0.256752 0.317012 68 1 84
0.165423 0.381034 -0.330653 37 131 141
0.599333 0.006295 0.103072 68 1 84
-0.143087 -0.557855 -0.054734 71 21 103
-0.586112 -0.133429 0.353926 68 1 84
0.396285 0.201846 -0.137571 68 1 84
-0.089200 0.389149 -0.338981 30 160 135
-0.097487 -0.297927 -0.175867 68 55 129
-0.624245 0.123474 0.351016 68 1 84
-0.318572 -0.350531 -0.055175 71 22 105
-0.461225 -0.381746 0.291222 68 1 84
0.166643 0.350905 -0.299095 38 127 142
0.352443 -0.356309 -0.043361 68 1 84
0.579516 0.196405 0.004032 68 1 84
0.354396 0.303531 -0.255575 33 140 141
-0.598516 0.003946 0.444821 68 1 84
-0.062012 -0.181063 -0.235715 50 99 141
0.602340 0.354901 0.067298 68 1 84
-0.545459 0.475402 -0.024260 68 1 84
0.289920 -0.445208 -0.005165 68 1 84
0.655833 0.171578 0.295913 68 1 84
-0.605508 0.044824 0.170883 68 1 84
-0.619780 0.234684 0.397195 68 1 84
-0.122402 -0.039108 -0.226779 42 117 142
-0.650169 0.397109 0.383475 68 1 84
-0.240482 0.416157 -0.311523 52 94 141
-0.310965 0.321597 -0.229146 72 34 115
0.271525 0.255379 -0.191099 68 1 84
0.053543 -0.473755 -0.167639 72 32 113
0.195392 0.153452 -0.195852 66 62 133
-0.306273 0.203369 -0.190577 68 1 84
-0.490174 -0.345962 0.303170 68 3 87
0.002520 -0.036456 -0.400714 89 199 100
-0.152209 -0.422591 -0.130836 71 22 105
0.498216 -0.218649 0.032824 68 1 84
-0.660921 0.636113 0.297118 68 1 84
-0.142471 -0.509839 -0.122302 72 28 110
0.600707 0.051551 0.065338 68 1 84
-0.423962 -0.284298 -0.009902 68 1 84
-0.433256 -0.144772 -0.091178 68 1 84
-0.629703 0.088932 0.300047 68 1 84
0.494097 -0.326323 0.157037 68 1 84
0.312039 0.226333 -0.184076 68 1 84
-0.367414 0.111860 -0.195846 71 39 119
0.614650 0.034402 0.172004 68 1 84
0.570644 -0.088138 0.101042 68 1 84
0.645966 0.326689 0.209823 68 1 84
-0.609092 0.041435 0.404687 68 1 84
-0.648469 0.489380 0.264605 68 1 84
0.076636 0.348456 -0.328184 41 121 142
-0.374008 0.390926 -0.236425 69 52 127
0.652496 0.396424 0.249560 68 1 84
0.189577 -0.243067 -0.138109 63 69 135
-0.357657 -0.341206 -0.033744 68 1 84
0.273407 0.141280 -0.179116 68 1 84
0.545005 -0.172296 0.102874 68 1 84
0.444514 -0.365831 0.399728 68 1 84
-0.643693 0.250284 0.176798 68 1 84
0.634892 0.225755 0.398834 68 1 84
0.652397 0.325231 0.244551 68 1 84
0.096976 -0.235280 -0.192761 62 72 136
0.571393 -0.159864 0.233228 68 1 84
0.131772 0.398836 -0.344144 32 145 140
-0.438158 0.418848 -0.179339 71 15 98
-0.010697 -0.069496 -0.369064 42 176 126
-0.242513 0.055155 -0.225193 71 18 101
0.362532 -0.468869 0.147049 68 1 84
0.067305 -0.231001 -0.204876 54 91 140
0.496816 -0.227951 0.038527 68 1 84
-0.459649 -0.247335 0.003638 68 1 84
0.578349 0.509384 -0.010344 68 1 84
0.594198 0.091359 0.448502 68 1 84
-0.298239 0.157280 -0.200171 70 9 92
0.615938 0.174761 0.470150 68 1 84
0.054130 -0.556806 -0.122007 72 28 110
0.523196 0.115377 -0.076883 68 1 84
-0.078594 0.039512 -0.315876 157 217 58
0.345170 0.293506 -0.198932 70 14 97
0.070686 -0.204216 -0.241198 40 122 142
0.589448 0.318974 0.034338 68 1 84
0.455697 -0.392967 0.248799 68 1 84
0.467999 -0.335205 0.405526 68 1 84
-0.589318 0.005626 0.132901 68 1 84
0.009123 -0.380030 -0.173659 69 54 129
-0.350554 0.472033 -0.270629 61 74 137
0.663178 0.406703 0.436552 68 1 84
-0.634957 0.160083 0.319258 68 1 84
-0.547598 -0.240050 0.268268 68 1 84
0.128409 0.358550 -0.321978 34 138 141
-0.612975 -0.013687 0.326338 68 1 84
0.454018 0.342868 -0.166026 58 83 139
-0.511462 -0.314959 0.368087 70 9 92
0.497506 0.476663 -0.144284 61 75 137
0.465399 -0.282685 0.036750 68 1 84
-0.292052 0.326732 -0.249045 71 39 119
0.678554 0.499940 0.406283 68 1 84
-0.620716 0.029401 0.330937 68 1 84
0.663083 0.419886 0.319021 68 1 84
0.318049 -0.091584 -0.180044 72 33 114
0.144990 -0.379703 -0.130036 69 6 90
-0.393503 0.271691 -0.131481 68 1 84
-0.110856 -0.033422 -0.289842 47 179 123
0.341051 -0.010887 -0.190013 72 28 110
0.552696 -0.143804 0.098130 68 1 84
0.002999 -0.094593 -0.327139 85 198 102
-0.577206 0.065476 0.022055 68 1 84
-0.299514 0.469364 -0.304863 59 80 138
0.129335 0.322460 -0.281372 38 129 142
-0.515439 0.165510 -0.086249 68 2 85
-0.099536 -0.064309 -0.257421 32 143 140
0.499291 -0.034438 -0.077182 68 1 84
-0.538622 -0.209065 0.123193 68 1 84
0.108511 -0.027385 -0.336327 121 209 81
-0.229078 -0.295993 -0.109726 72 29 111
0.052540 -0.333854 -0.169510 68 57 130
0.350358 0.122544 -0.169381 72 34 115
0.553519 -0.218689 0.296291 68 1 84
-0.253953 0.363556 -0.291677 62 72 136
0.570587 0.423311 -0.006398 68 1 84
0.066557 0.067688 -0.340207 241 229 28
-0.533681 0.404262 -0.044029 68 1 84
-0.065524 -0.524961 -0.147821 72 26 108
-0.553026 -0.051797 0.032906 68 1 84
0.435343 -0.345528 0.053008 68 1 84
0.486174 0.163007 -0.100019 68 1 84
0.627498 0.189062 0.114416 68 1 84
0.030213 -0.006640 -0.399313 109 206 88
0.486605 -0.352903 0.241672 68 1 84
-0.088984 -0.581324 -0.032742 68 1 84
-0.406770 -0.358573 0.046897 71 18 101
0.086547 -0.157225 -0.231715 50 98 141
-0.184584 -0.219971 -0.156092 72 25 107
0.115271 -0.260267 -0.181085 61 75 137
0.360038 0.328365 -0.255120 37 130 142
-0.120412 0.331936 -0.264000 39 125 142
0.518319 -0.231743 0.087361 68 1 84
-0.571720 -0.043184 0.090734 68 1 84
0.185749 0.376527 -0.321217 37 130 142
0.504121 -0.322890 0.276309 68 1 84
0.265587 0.348309 -0.273529 54 90 140
-0.611509 -0.013896 0.285688 68 1 84
-0.598066 0.330533 0.062588 68 1 84
-0.470530 -0.321263 0.102167 69 8 91
-0.622828 0.388849 0.153719 68 1 84
-0.640768 0.506123 0.225471 68 1 84
-0.489692 -0.337473 0.227262 70 9 92
0.684514 0.589415 0.385467 68 1 84
-0.496028 -0.284168 0.104109 68 1 84
-0.241693 -0.331466 -0.096421 71 15 98
0.255560 0.307732 -0.248406 49 101 141
0.608251 0.015407 0.379369 68 1 84
0.572883 0.470072 -0.010534 68 1 84
0.643293 0.389496 0.207132 68 1 84
0.068322 0.121822 -0.321989 205 224 29
0.659714 0.271382 0.337536 68 1 84
0.592516 0.490900 0.028345 68 1 84
0.233061 -0.031893 -0.197916 66 62 133
-0.406248 0.163861 -0.170630 70 11 94
-0.532227 -0.278109 0.310517 68 1 84
-0.060105 0.076129 -0.315285 183 221 41
-0.617022 0.547507 0.139517 68 1 84
0.164043 -0.334035 -0.132324 72 32 113
-0.660867 0.609924 0.290269 68 1 84
-0.009648 -0.057242 -0.383661 59 186 117
-0.640063 0.205162 0.272252 68 1 84
0.497907 -0.314735 0.342891 68 1 84
-0.310037 0.407739 -0.282155 65 66 134
0.347170 -0.058974 -0.180664 72 28 110
0.282256 0.417519 -0.309253 31 150 139
-0.377061 0.003946 -0.187374 68 1 84
0.361647 0.202574 -0.158608 68 1 84
-0.190560 0.252332 -0.208090 71 40 120
-0.649802 0.265610 0.206034 68 1 84
0.610975 0.288415 0.078006 68 1 84
0.520610 -0.251745 0.115941 68 1 84
-0.397516 0.383648 -0.210796 71 18 101
0.592638 0.180535 0.024452 68 1 84
-0.240152 0.237282 -0.207968 71 21 103
0.624290 0.056729 0.337472 68 1 84
0.328527 -0.137582 -0.162008 72 32 113
0.465480 -0.359999 0.352644 68 1 84
0.288634 -0.204384 -0.145262 71 39 119
-0.156853 -0.438266 -0.129622 71 37 117
0.201765 -0.060924 -0.182489 70 45 124
0.536900 -0.146820 0.473104 68 1 84
0.598222 0.445990 0.052526 68 1 84
-0.355114 -0.223695 -0.108652 68 1 84
-0.343069 0.108072 -0.204409 71 18 101
-0.386689 -0.307568 -0.033416 68 1 84
-0.647800 0.511813 0.253252 68 1 84
-0.556855 0.360893 -0.008900 68 1 84
-0.445737 -0.244291 -0.015313 68 1 84
0.324011 0.089776 -0.183926 70 14 97
-0.608244 0.201937 0.457144 68 1 84
0.444719 0.448330 -0.210164 38 129 142
0.272504 0.112317 -0.186405 70 11 94
0.212243 0.070634 -0.212707 60 77 138
-0.288331 0.117445 -0.212169 71 20 102
-0.609863 0.215760 0.460859 68 1 84
0.397445 -0.209542 -0.094231 71 39 119
0.017184 -0.411671 -0.177648 71 42 121
-0.607690 0.087724 0.479048 68 1 84
0.419406 -0.317070 -0.000982 68 1 84
0.572131 0.335574 0.004895 68 1 84
0.624952 0.102473 0.136144 68 1 84
-0.487810 0.523683 -0.118429 68 1 84
0.567753 0.481826 -0.023697 68 1 84
-0.197961 -0.525442 0.046255 71 22 105
0.106747 0.027739 -0.310894 165 218 53
-0.186960 -0.536520 0.002175 71 15 98
-0.566352 -0.048143 0.072784 68 1 84
0.465103 -0.214954 -0.020839 71 15 98
-0.502983 0.055819 -0.094167 68 1 84
-0.197872 -0.060334 -0.195591 66 64 133
-0.453391 0.228507 -0.120759 68 1 84
-0.659126 0.536111 0.297779 68 1 84
-0.162748 -0.550461 -0.022224 68 2 85
-0.097919 -0.494208 -0.154715 72 29 111
0.575267 0.461373 -0.003755 68 1 84
0.097879 -0.449504 -0.151881 71 43 122
-0.498459 0.089847 -0.104661 68 1 84
0.666480 0.490543 0.293408 68 1 84
-0.635085 0.239163 0.324766 68 1 84
0.654818 0.226250 0.216023 68 1 84
-0.616464 0.025544 0.357438 68 1 84
0.131951 -0.507396 -0.120619 71 40 120
-0.363754 0.454342 -0.258269 69 50 127
0.628848 0.223996 0.121095 68 1 84
-0.466868 -0.220667 -0.006206 68 1 84
0.586170 -0.065608 0.169348 68 1 84
-0.425815 0.075798 -0.164711 70 9 92
0.166499 -0.219968 -0.181774 62 73 137
-0.180166 -0.540208 -0.023599 68 2 85
0.600387 0.345804 0.061732 68 1 84
0.153921 0.306506 -0.245716 52 95 141
0.611684 0.160831 0.066732 68 1 84
-0.415047 0.212478 -0.146973 68 1 84
-0.610336 -0.024131 0.298869 68 1 84
-0.034865 -0.255683 -0.213439 65 65 134
-0.028578 0.028436 -0.371334 98 202 95
0.043845 -0.068944 -0.312742 46 178 124
0.302503 -0.504663 0.157431 68 1 84
0.528232 -0.128837 0.509869 68 1 84
0.519951 -0.110472 -0.013808 68 1 84
0.417093 -0.092718 -0.136050 69 52 127
0.022034 -0.450542 -0.176295 72 35 116
0.552689 -0.180804 0.141496 68 1 84
-0.506422 0.215840 -0.084404 68 1 84
0.654418 0.572984 0.219105 68 1 84
0.107540 0.218958 -0.233468 39 125 142
-0.129588 0.157225 -0.225935 37 130 142
-0.594997 0.229209 0.041906 68 1 84
0.053163 -0.589269 -0.030709 68 1 84
0.680828 0.515200 0.399310 68 1 84
0.645929 0.201311 0.347593 68 1 84
0.614949 0.025961 0.353867 68 1 84
-0.000333 0.205646 -0.309311 40 174 127
-0.578595 -0.153056 0.265570 68 1 84
0.556446 -0.079517 0.036446 68 1 84
0.355626 0.070246 -0.180829 71 43 122
0.477951 -0.338626 0.126843 68 1 84
0.412005 -0.189555 -0.094329 64 68 135
-0.185791 -0.309328 -0.124934 71 21 103
0.177646 0.043637 -0.222967 57 84 139
-0.644848 0.360816 0.351973 68 1 84
-0.238574 0.373792 -0.294351 52 95 141
-0.557086 0.104393 -0.030061 68 1 84
-0.183757 -0.534525 -0.036564 68 1 84
0.621015 0.079436 0.136170 68 1 84
-0.419596 -0.158561 -0.095847 68 1 84
-0.247902 -0.408932 -0.069191 72 35 116
0.183879 -0.438651 -0.098179 71 21 103
0.604262 0.088648 0.059098 68 1 84
-0.564782 -0.194586 0.259022 68 1 84
-0.438219 0.472199 -0.183923 70 49 126
-0.563513 0.224128 -0.017159 68 1 84
0.583092 0.116759 0.004488 68 1 84
-0.501667 0.470980 -0.096746 68 1 84
-0.585009 0.053992 0.050025 68 1 84
-0.621140 0.119435 0.359527 68 1 84
0.676235 0.532101 0.326626 68 1 84
-0.637510 0.222265 0.290181 68 1 84
0.332743 0.435499 -0.288698 34 139 141
-0.000425 0.264814 -0.298061 37 131 141
0.604691 0.194860 0.051872 68 1 84
-0.443008 -0.149667 -0.078857 68 1 84
-0.661806 0.506710 0.363588 68 1 84
-0.486021 0.479148 -0.119164 68 1 84
0.177115 0.148043 -0.205098 62 72 136
0.286246 -0.490578 0.085807 68 1 84
-0.141639 -0.121992 -0.192323 61 76 137
-0.616513 0.049600 0.366164 68 1 84
0.315824 0.173097 -0.171246 68 1 84
0.531116 -0.089698 -0.008441 68 1 84
-0.632104 0.526874 0.179061 68 1 84
-0.123481 -0.048904 -0.194906 71 38 118
0.277079 -0.300590 -0.104082 71 42 121
0.354184 0.037791 -0.184967 66 61 132
0.627546 0.309099 0.130428 68 1 84
0.339340 -0.412728 0.003313 68 1 84
-0.317685 -0.465006 0.137126 71 17 99
-0.196105 0.231603 -0.209593 70 12 95
-0.048697 -0.586799 -0.044994 68 2 85
-0.023044 -0.444785 -0.177661 71 39 119
-0.571437 -0.092094 0.122477 68 1 84
-0.404240 0.075006 -0.178762 71 15 98
-0.587213 -0.091565 0.209332 68 1 84
0.619709 0.079203 0.127749 68 1 84
-0.100885 0.394328 -0.340417 31 146 140
-0.591288 0.442026 0.073052 71 15 98
0.465262 -0.031214 -0.114664 68 1 84
0.115401 -0.491824 -0.137331 66 64 133
0.330826 0.233856 -0.179929 68 1 84
0.463964 0.409034 -0.185979 61 76 137
0.127867 -0.211665 -0.210354 61 74 137
-0.131860 0.416337 -0.347680 30 151 138
-0.392388 -0.440011 0.225170 71 21 103
0.542767 -0.114692 0.035401 68 1 84
-0.529629 0.372045 -0.045143 68 1 84
-0.534092 -0.270945 0.270991 68 1 84
-0.516416 0.297008 -0.058326 68 1 84
-0.007884 -0.512726 -0.157748 72 25 107
-0.493124 -0.029620 -0.080540 68 1 84
-0.615985 0.556159 0.138129 68 1 84
0.399764 -0.277746 -0.053642 68 1 84
0.609558 0.247696 0.067259 68 1 84
-0.642650 0.267112 0.285492 68 1 84
0.629149 0.122210 0.140016 68 1 84
-0.467568 -0.180243 -0.032802 68 1 84
0.636618 0.115950 0.208249 68 1 84
0.489079 0.462395 -0.156706 53 92 140
-0.567314 -0.034587 0.065343 68 1 84
0.599174 -0.001607 0.116445 68 1 84
0.148097 -0.028247 -0.286337 85 198 102
0.560778 -0.195619 0.313822 68 1 84
0.262727 0.055985 -0.204356 63 71 136
0.628586 0.319219 0.137330 68 1 84
-0.509438 0.249964 -0.072412 68 1 84
0.182595 0.319673 -0.253480 55 89 140
0.044572 -0.217228 -0.238462 45 110 142
0.641708 0.295098 0.405613 68 1 84
-0.182361 -0.485495 -0.099043 71 22 105
0.625233 0.128527 0.382170 68 1 84
-0.077162 -0.133248 -0.218177 54 91 140
0.585777 0.395802 0.026797 68 1 84
-0.558633 -0.213054 0.268774 68 1 84
0.418598 0.152602 -0.139741 68 1 84
0.197371 -0.283383 -0.118681 71 20 102
-0.121720 0.384748 -0.328258 37 131 141
0.193056 -0.519907 -0.036875 70 9 92
-0.034037 0.280090 -0.279834 52 94 141
0.317508 -0.433812 0.008236 68 1 84
0.066793 -0.023936 -0.380463 165 218 53
-0.121628 0.415814 -0.349795 30 153 138
-0.003035 -0.116196 -0.250551 35 137 141
-0.096798 -0.540216 -0.126397 71 24 106
-0.111838 -0.219729 -0.191209 62 72 136
0.667772 0.576498 0.273228 68 1 84
0.016813 -0.317366 -0.184289 70 45 124
-0.214669 -0.255492 -0.121064 68 1 84
0.476026 -0.347658 0.138513 68 1 84
-0.285425 -0.227426 -0.136491 71 40 120
0.078738 0.270004 -0.277144 46 108 142
-0.388753 0.227434 -0.151113 68 1 84
0.354669 -0.474544 0.148187 68 1 84
0.161311 0.394606 -0.339735 32 145 140
-0.057334 -0.430563 -0.173438 70 45 124
0.398202 -0.006454 -0.167325 70 9 92
0.194520 -0.534964 0.015843 68 1 84
-0.566031 0.152869 -0.020069 68 1 84
-0.461287 0.438198 -0.152805 71 20 102
0.677797 0.530555 0.338260 68 1 84
-0.328298 0.474516 -0.288952 67 59 131
-0.500637 0.320955 -0.070478 68 1 84
-0.256205 0.327983 -0.272643 57 84 139
0.312876 -0.410744 -0.021341 68 1 84
-0.169691 0.139048 -0.217620 46 109 142
-0.287305 0.411615 -0.292656 68 57 130
0.151643 0.294048 -0.231798 65 66 134
0.553084 -0.189777 0.156058 68 1 84
0.127227 0.236626 -0.211591 57 85 139
-0.384979 -0.228880 -0.085402 68 1 84
0.629937 0.110863 0.361636 68 1 84
0.506933 -0.233365 0.473597 68 1 84
-0.071233 -0.268002 -0.206522 61 74 137
0.107703 -0.271174 -0.189216 63 69 135
-0.649405 0.389181 0.401761 68 1 84
-0.317752 -0.194175 -0.139226 70 11 94
-0.063607 -0.402874 -0.167427 70 45 124
0.097684 -0.074398 -0.245477 31 163 134
-0.254295 -0.045878 -0.210384 71 39 119
-0.320418 -0.326156 -0.071439 70 11 94
-0.612054 0.056867 0.190785 68 1 84
-0.529649 0.529280 -0.052118 68 1 84
-0.446684 -0.320132 0.055853 70 12 95
0.471507 -0.328075 0.094313 68 1 84
-0.105570 0.132887 -0.246100 48 180 122
-0.436708 -0.109315 -0.107384 68 1 84
0.523508 0.071161 -0.074651 68 1 84
-0.028460 -0.440579 -0.177355 70 48 125
0.583332 -0.114989 0.312182 68 1 84
-0.518483 0.029794 -0.069217 68 1 84
-0.381298 -0.338653 -0.010036 68 1 84
-0.613972 0.093138 0.388218 68 1 84
-0.333574 -0.309777 -0.076407 68 3 87
-0.594050 0.059913 0.083842 68 1 84
0.095425 -0.180326 -0.230965 46 109 142
-0.020700 0.395443 -0.350710 30 152 138
0.294996 -0.032350 -0.198021 60 78 138
0.634863 0.129696 0.356630 68 1 84
-0.147094 -0.487265 -0.130287 72 34 115
0.563479 -0.116663 0.428199 68 1 84
-0.252453 0.439394 -0.319062 55 89 140
-0.499517 0.395653 -0.088088 68 1 84
-0.573802 -0.185343 0.463455 68 1 84
0.305320 0.237481 -0.186793 68 1 84
0.426744 -0.265485 -0.032227 68 1 84
-0.503721 0.312561 -0.067690 68 1 84
0.574722 -0.112152 0.173255 68 1 84
