ply
format ascii 1.0
element vertex 1255
property float x
property float y
property float z
property uchar red
property uchar green
property uchar blue
end_header
0.255553 0.358633 -0.103333 51 97 141
-0.566425 -0.468232 -0.010099 51 96 141
-0.364627 0.342259 -0.069759 57 84 139
0.394586 -0.461885 -0.247489 35 136 141
-0.223151 0.599883 -0.038923 30 156 137
-0.590378 -0.524169 0.068171 64 68 135
0.432223 0.258831 -0.011947 68 2 85
0.589809 0.004538 0.413197 68 1 84
0.492117 -0.482174 -0.160920 55 88 140
0.294513 0.081690 -0.187746 68 1 84
0.669713 -0.535323 0.305373 68 1 84
-0.664944 -0.300987 0.394840 68 1 84
0.096810 -0.344891 -0.246470 37 171 129
0.061610 -0.442240 -0.341116 170 219 50
-0.324813 -0.051960 -0.180525 70 12 95
-0.580769 -0.040725 0.085631 68 1 84
-0.666674 -0.306224 0.395209 68 1 84
-0.086476 -0.084415 -0.393427 38 172 129
0.540366 -0.490066 -0.062114 67 59 131
0.582594 0.021132 0.470220 68 1 84
-0.213925 -0.456651 -0.325786 215 226 25
-0.188865 0.012894 -0.204981 71 43 122
-0.192573 0.616360 -0.057179 30 156 137
0.610773 -0.148164 0.217226 68 1 84
-0.325774 -0.468601 -0.274923 141 214 68
-0.562941 -0.093134 0.010821 68 1 84
0.027981 0.199324 -0.292135 53 93 140
-0.596528 -0.063547 0.266604 68 1 84
-0.185405 0.066492 -0.197119 68 1 84
0.571644 -0.473276 0.025961 68 2 85
0.052610 -0.056973 -0.413937 44 112 142
-0.563270 0.021096 0.510182 68 1 84
0.496853 0.325117 0.394403 67 60 132
0.195867 -0.117605 -0.206498 68 1 84
-0.003565 0.447632 -0.184399 40 122 142
0.071823 -0.166624 -0.322042 48 103 141
-0.198646 0.486465 -0.138343 36 134 141
-0.291647 -0.205872 -0.157435 70 48 125
0.204365 -0.153695 -0.196699 68 1 84
-0.437129 0.428718 0.338134 48 103 141
-0.169869 -0.421446 -0.323683 144 214 67
0.250191 -0.216296 -0.182625 68 1 84
-0.281205 -0.388751 -0.234814 69 191 111
0.626244 -0.357614 0.161353 68 1 84
-0.353775 0.533735 0.193684 43 116 142
-0.121976 0.121721 -0.247725 71 38 118
-0.506933 -0.034947 -0.061754 68 1 84
0.473510 0.358038 0.411257 62 72 136
-0.650084 -0.265464 0.398443 68 1 84
0.681993 -0.417984 0.411826 68 1 84
0.450259 -0.293294 -0.077502 68 1 84
0.198651 0.507644 -0.090634 32 143 140
-0.328854 -0.255621 -0.147555 59 80 138
0.264335 0.034880 -0.201793 72 34 115
-0.570603 0.101011 0.426033 68 1 84
-0.071551 0.375472 -0.261726 31 161 135
0.287109 0.159094 -0.169512 68 1 84
0.557141 0.130039 0.261710 68 1 84
0.429638 -0.207347 -0.110184 68 1 84
-0.422402 -0.526172 -0.233556 103 204 92
-0.463094 -0.412897 -0.172689 34 139 141
0.084399 0.009660 -0.401640 50 98 141
-0.352694 0.494149 0.031811 40 122 142
0.360734 0.270746 -0.087596 71 24 106
-0.497424 -0.429974 -0.146217 38 129 142
-0.545904 0.151786 0.488089 68 1 84
-0.167195 -0.059534 -0.246153 63 71 136
-0.235766 0.029604 -0.193865 72 28 110
-0.464875 0.380126 0.088293 52 95 141
0.663880 -0.527467 0.287119 68 1 84
0.616925 -0.536378 0.151907 68 1 84
0.104466 0.583753 -0.149352 32 144 140
0.628366 -0.137564 0.522557 68 1 84
-0.514192 -0.332601 -0.017111 70 14 97
-0.588793 -0.062127 0.100024 68 1 84
-0.205390 -0.376570 -0.228883 53 183 120
0.489982 -0.089843 -0.072410 68 1 84
-0.437768 -0.226458 -0.100686 71 43 122
0.127189 0.050780 -0.230840 71 38 118
0.542629 -0.444575 -0.040330 72 30 112
-0.569141 0.057934 0.144315 68 1 84
-0.437037 0.432167 0.328440 51 96 141
-0.088577 0.325545 -0.262665 32 145 140
0.033755 0.644671 -0.107005 40 123 142
-0.642175 -0.365846 0.212294 68 1 84
0.580245 -0.150235 0.079066 68 1 84
-0.654462 -0.389488 0.299975 68 1 84
-0.523833 0.295114 0.157081 68 55 129
0.045865 0.112284 -0.277124 66 61 132
0.610945 -0.080586 0.386642 68 1 84
0.496991 -0.153689 -0.064192 68 1 84
-0.456526 0.391751 0.373341 63 69 135
0.193773 -0.116003 -0.207295 68 1 84
-0.130151 -0.072476 -0.347220 34 139 141
-0.649247 -0.460867 0.290734 68 1 84
-0.524409 0.279585 0.137627 69 53 128
0.271294 0.094998 -0.189768 70 9 92
-0.403388 0.166531 -0.118336 72 26 108
0.191094 0.183712 -0.200989 71 17 99
-0.315116 -0.456237 -0.273636 109 206 88
-0.087035 0.253020 -0.274201 33 140 141
-0.648145 -0.522931 0.299866 68 1 84
-0.573403 0.113166 0.346401 69 6 90
0.655495 -0.500497 0.263567 68 1 84
-0.447098 0.451161 0.184716 48 104 141
0.595069 -0.016418 0.431365 68 1 84
0.239101 0.562756 -0.003142 30 152 138
0.106086 0.076663 -0.310391 63 69 135
0.228713 -0.461148 -0.320211 134 212 73
0.483726 -0.408047 -0.136509 70 49 126
0.348524 -0.373924 -0.211026 44 112 142
0.662547 -0.341791 0.279828 68 1 84
-0.598497 -0.072157 0.277843 68 1 84
-0.044493 0.275925 -0.258135 48 104 141
0.494105 -0.509228 -0.159034 43 115 142
0.274248 0.233555 -0.156039 72 29 111
0.363427 0.437786 0.023242 55 89 140
-0.050665 0.090342 -0.402060 38 127 142
0.679041 -0.462548 0.361487 68 1 84
0.120072 0.137981 -0.227503 72 35 116
0.529681 0.262165 0.335778 72 26 108
0.236952 0.568056 0.001623 30 157 136
0.071063 0.036301 -0.411291 45 110 142
-0.425636 0.149113 -0.107697 71 20 102
-0.407347 0.430028 0.039926 45 111 142
-0.507944 -0.189771 -0.058611 68 1 84
-0.637765 -0.307904 0.195822 68 1 84
-0.049981 0.069546 -0.437686 30 154 137
0.267544 -0.372010 -0.220366 35 137 141
-0.074797 0.421586 -0.188761 47 105 141
-0.436382 0.429580 0.092048 42 119 142
0.463813 -0.370667 -0.123014 69 54 129
-0.481102 0.255745 0.020494 71 43 122
0.263131 -0.473624 -0.312788 81 196 104
-0.110740 0.242548 -0.275638 34 138 141
-0.287289 -0.043037 -0.193744 72 25 107
-0.133421 0.213908 -0.271652 44 112 142
-0.267845 0.193938 -0.182672 61 74 137
0.640289 -0.183355 0.501572 68 1 84
-0.539107 0.091145 0.042155 68 1 84
-0.638429 -0.270748 0.207059 68 1 84
0.491817 -0.488194 -0.161942 52 95 141
-0.212542 -0.360755 -0.199910 30 157 136
0.678384 -0.356101 0.473976 68 1 84
0.332420 0.217731 -0.129810 68 1 84
0.517867 -0.515212 -0.113811 53 92 140
-0.067005 0.618578 -0.125851 32 144 140
0.659458 -0.237724 0.467181 68 1 84
0.195491 0.481853 -0.101051 35 135 141
0.332209 -0.437838 -0.268103 33 141 140
0.065959 0.120369 -0.253218 68 2 85
0.525019 -0.510927 -0.099722 67 59 131
-0.156786 -0.043333 -0.295638 57 85 139
0.358939 0.369507 -0.038520 61 74 137
-0.427038 -0.440973 -0.213809 37 171 129
-0.074299 -0.351558 -0.310369 75 194 108
0.044927 -0.408980 -0.334082 159 217 56
0.036045 -0.314804 -0.310104 54 184 119
-0.631121 -0.453956 0.206892 68 1 84
0.337632 0.157273 -0.148334 68 1 84
0.544888 -0.481583 -0.048047 71 44 123
-0.232255 0.567219 -0.077377 31 163 134
-0.037860 0.101128 -0.372308 45 111 142
-0.169086 -0.062023 -0.241600 68 57 130
0.360198 0.065468 -0.162806 68 1 84
-0.175409 -0.176087 -0.207142 65 65 134
-0.504432 -0.251544 -0.038478 68 3 87
0.540619 0.106783 0.137807 68 1 84
-0.419811 0.436492 0.068470 44 112 142
0.561031 0.050934 0.213872 68 1 84
0.429949 -0.174812 -0.115663 68 1 84
-0.190806 -0.246626 -0.169269 61 76 137
0.571352 0.035695 0.517247 68 1 84
-0.024565 0.431057 -0.185518 47 105 141
-0.367785 -0.435036 -0.241001 46 178 124
-0.635546 -0.248974 0.510879 68 1 84
-0.498335 0.033691 -0.061341 68 1 84
-0.085649 -0.286963 -0.297332 37 171 129
-0.572327 -0.037318 0.543526 68 1 84
0.431082 0.055080 -0.109219 68 1 84
0.126214 0.064191 -0.300945 64 67 135
0.529330 0.230988 0.189730 70 14 97
0.542522 0.039841 0.096293 68 1 84
-0.605972 -0.371986 0.108086 68 1 84
0.349738 -0.092986 -0.167502 68 1 84
0.560168 0.086458 0.503253 68 1 84
0.544896 0.200868 0.272873 68 1 84
0.097443 0.211769 -0.258933 60 77 138
-0.293556 0.421515 -0.079198 38 128 142
0.242662 -0.141262 -0.189338 68 1 84
0.360558 -0.150766 -0.155914 68 1 84
0.362557 -0.367455 -0.191550 56 86 139
0.457237 0.377668 0.419044 59 80 138
-0.079285 0.077707 -0.382141 36 133 141
0.679449 -0.369060 0.461192 68 1 84
0.011424 0.391422 -0.240328 38 129 142
0.092797 -0.020600 -0.378065 55 88 140
-0.312402 0.520273 -0.002245 37 131 141
-0.197196 0.541979 -0.130465 32 145 140
-0.643928 -0.517596 0.287197 68 1 84
-0.653021 -0.281572 0.302419 68 1 84
-0.674232 -0.479042 0.482997 68 1 84
0.202190 -0.395362 -0.256752 33 166 133
0.031939 0.577629 -0.180868 32 144 140
-0.510181 0.343903 0.299396 69 53 128
0.281148 0.564665 0.077103 34 139 141
-0.090354 -0.290649 -0.291831 43 177 125
0.455490 0.381396 0.412639 66 61 132
-0.570822 -0.447138 0.013440 62 73 137
-0.203299 0.287745 -0.169899 52 94 141
0.369325 -0.519706 -0.275381 33 166 133
-0.637605 -0.236998 0.222370 68 1 84
-0.050621 0.389669 -0.240975 33 142 140
-0.233978 0.308380 -0.144501 53 93 140
0.556435 0.143402 0.456133 68 1 84
0.307489 0.556622 0.119157 34 138 141
-0.635379 -0.349393 0.185894 68 1 84
0.466578 0.149563 -0.021461 68 1 84
0.570123 0.070639 0.467948 68 1 84
-0.088695 -0.061171 -0.409480 33 167 132
-0.096621 -0.321636 -0.286586 85 198 102
0.181138 0.319684 -0.150524 71 44 123
0.341719 -0.443355 -0.266382 34 138 141
0.585167 0.021656 0.402247 68 1 84
0.437933 0.378372 0.086947 67 60 132
-0.666755 -0.322964 0.411965 68 1 84
0.596262 -0.315415 0.092993 68 1 84
0.305818 0.260112 -0.132078 71 38 118
-0.540229 -0.130854 -0.029382 68 1 84
0.574645 -0.281324 0.054925 68 1 84
0.475228 -0.393289 -0.135002 69 52 127
-0.544946 0.138358 0.092019 68 1 84
-0.230109 0.132725 -0.196958 71 39 119
-0.574590 0.001737 0.103245 68 1 84
-0.413242 0.237761 -0.079399 69 52 127
0.220976 -0.175358 -0.188527 68 1 84
-0.667956 -0.404216 0.428492 68 1 84
-0.622481 -0.153675 0.303703 68 1 84
-0.579495 0.053390 0.369346 68 1 84
-0.466659 0.424140 0.178063 48 103 141
-0.435477 -0.355781 -0.142628 46 107 142
-0.083969 -0.053094 -0.417915 38 172 129
0.155239 0.618036 -0.043075 34 139 141
-0.551319 0.218851 0.199054 71 21 103
0.464577 -0.526315 -0.197026 31 146 140
-0.476924 0.065002 -0.082299 68 1 84
-0.558809 0.092537 0.115198 68 1 84
-0.564746 0.076688 0.134068 68 1 84
-0.479235 0.338908 0.422102 67 58 131
0.112932 -0.165963 -0.245678 72 32 113
-0.528408 -0.305032 0.002402 68 1 84
-0.596890 -0.513915 0.089943 70 45 124
0.098324 -0.302266 -0.199819 57 85 139
0.565991 0.093513 0.464105 68 1 84
0.665065 -0.282282 0.298187 68 1 84
-0.662345 -0.440211 0.363975 68 1 84
0.344985 -0.377009 -0.231945 44 113 142
-0.228591 0.605906 0.009362 35 135 141
0.343602 0.273079 -0.101215 71 37 117
-0.475223 0.355693 0.396542 69 53 128
0.404705 0.270829 -0.041563 68 1 84
-0.550407 0.160085 0.129378 71 15 98
0.561506 -0.042410 0.093769 68 1 84
-0.650731 -0.257385 0.363655 68 1 84
-0.343345 -0.372609 -0.181142 34 139 141
-0.438922 0.452930 0.145608 39 125 142
-0.335249 -0.385842 -0.235828 32 143 140
0.446302 -0.281254 -0.084819 68 1 84
0.551227 -0.018258 0.075307 68 1 84
0.437963 0.071944 -0.097518 68 1 84
0.464079 0.388033 0.345052 61 75 137
-0.631603 -0.521068 0.235256 70 11 94
-0.634900 -0.199540 0.294800 68 1 84
-0.250667 0.164290 -0.191091 65 65 134
-0.173513 -0.386841 -0.282149 68 190 112
-0.485840 -0.297391 -0.039862 70 14 97
-0.245536 -0.263717 -0.156729 58 83 139
0.232659 0.362112 -0.113443 48 103 141
0.603377 -0.541837 0.104405 72 29 111
-0.082058 -0.318495 -0.299507 48 180 122
-0.287650 -0.455380 -0.291102 199 224 31
0.059675 0.318844 -0.254085 38 127 142
-0.110743 0.489078 -0.183627 31 149 139
-0.105725 0.620661 -0.131453 30 160 135
0.001180 0.092407 -0.364479 49 101 141
0.252730 0.574499 0.043546 34 137 141
-0.302931 0.240046 -0.153188 65 65 134
-0.648038 -0.251339 0.268247 68 1 84
0.304736 -0.089503 -0.182452 68 1 84
-0.130078 -0.320680 -0.206287 32 144 140
-0.008727 0.644760 -0.094949 37 130 142
-0.462359 0.294022 0.012937 67 59 131
0.428219 -0.398902 -0.198385 50 99 141
-0.559135 -0.465262 -0.034535 53 93 140
0.446098 0.380265 0.107346 69 52 127
0.289806 0.353672 -0.092984 63 71 136
-0.227875 0.208452 -0.201342 45 111 142
0.278074 0.436285 -0.057314 47 105 141
0.566748 -0.051999 0.107210 68 1 84
-0.017619 -0.285090 -0.329336 35 168 131
-0.208258 -0.011837 -0.202951 72 34 115
-0.335637 -0.372478 -0.183953 33 140 141
-0.563141 0.014061 0.518875 68 1 84
0.492208 0.318322 0.160457 70 45 124
0.121901 0.417314 -0.173145 48 103 141
-0.018569 0.452844 -0.187256 39 124 142
-0.159951 -0.029052 -0.305519 49 100 141
-0.042656 -0.133176 -0.383757 31 162 134
-0.141483 0.619607 -0.121210 31 163 134
-0.621702 -0.199406 0.537635 68 1 84
0.352981 0.433709 0.006717 54 90 140
-0.647428 -0.249869 0.378755 68 1 84
0.429315 -0.518243 -0.234419 30 160 135
0.466279 0.091966 -0.051669 68 1 84
0.633470 -0.152498 0.370911 68 1 84
0.484579 0.367531 0.290892 63 69 135
0.534317 -0.245074 -0.001494 68 1 84
0.562517 -0.502181 -0.001582 69 50 127
0.147604 -0.190700 -0.205427 68 1 84
-0.456352 -0.296242 -0.070421 71 43 122
0.416943 -0.512132 -0.245169 30 160 135
0.466093 0.202935 0.007433 68 1 84
-0.626025 -0.492130 0.201290 70 9 92
-0.666814 -0.386696 0.444875 68 1 84
-0.631384 -0.415771 0.187188 68 1 84
0.440178 -0.372210 -0.160412 63 69 135
-0.651862 -0.272553 0.403120 68 1 84
0.495787 -0.299689 -0.028543 68 1 84
0.011644 -0.164546 -0.367536 34 137 141
-0.098873 0.069188 -0.364839 35 135 141
-0.582963 0.021447 0.364666 68 1 84
-0.139993 -0.013345 -0.384708 35 168 131
-0.547585 -0.405375 -0.026620 64 67 135
-0.303855 0.526908 -0.008356 32 143 140
0.326963 -0.364058 -0.180753 67 59 131
0.353798 -0.200688 -0.154253 68 1 84
0.008470 0.417866 -0.195025 44 112 142
0.453126 -0.017268 -0.102778 68 1 84
-0.165485 0.299771 -0.208448 50 99 141
0.547749 -0.482266 -0.039837 70 47 124
-0.523963 -0.459597 -0.122327 36 133 141
-0.039885 -0.144516 -0.378403 50 181 122
-0.275417 0.233770 -0.166635 63 71 136
0.079208 0.026985 -0.406228 42 119 142
0.522781 0.248382 0.469370 71 17 99
-0.280114 0.579661 0.081361 39 126 142
-0.614162 -0.269670 0.120266 68 1 84
-0.651723 -0.268081 0.395788 68 1 84
-0.214461 0.529084 -0.117449 31 147 139
-0.576897 -0.541144 0.022861 44 114 142
0.385215 -0.009412 -0.154689 68 1 84
-0.270143 0.003552 -0.198075 70 45 124
0.592334 -0.051127 0.293053 68 1 84
-0.080224 0.139944 -0.282303 55 89 140
-0.193021 -0.170413 -0.194734 71 38 118
-0.114787 0.245214 -0.271949 31 147 139
0.568262 -0.019465 0.171686 68 1 84
0.532086 0.238854 0.410267 71 38 118
-0.672710 -0.349500 0.400671 68 1 84
0.504989 0.029212 -0.015061 68 1 84
-0.019483 -0.185847 -0.363161 30 157 136
0.631801 -0.156929 0.335128 68 1 84
0.415886 0.270752 -0.027491 70 12 95
0.508517 0.292953 0.437056 71 38 118
-0.410718 -0.243330 -0.114213 72 26 108
0.034480 -0.204926 -0.343566 42 117 142
0.604956 -0.061841 0.375917 68 1 84
0.636188 -0.246580 0.218831 68 1 84
0.063032 0.374318 -0.246566 41 120 142
0.489613 -0.159953 -0.070895 68 1 84
-0.214285 0.036246 -0.192179 71 22 105
0.585764 -0.332096 0.072045 68 1 84
0.041736 -0.184573 -0.348104 43 115 142
0.255439 0.381195 -0.096379 46 109 142
0.667973 -0.369376 0.325969 68 1 84
0.254971 0.584489 0.076252 31 149 139
0.464281 -0.079267 -0.097357 68 1 84
-0.626208 -0.167610 0.391898 68 1 84
0.097157 -0.370368 -0.292483 94 201 97
-0.548458 0.111528 0.513327 68 1 84
0.667582 -0.287734 0.485603 68 1 84
0.039345 0.249132 -0.275637 55 88 140
0.564827 -0.336567 0.036772 68 1 84
-0.569787 -0.494754 -0.004102 52 94 141
-0.399513 -0.465921 -0.238039 107 205 89
0.234874 0.595304 0.065177 30 157 136
0.005270 0.417603 -0.194512 48 103 141
0.259502 -0.088500 -0.195817 68 1 84
0.450747 -0.320320 -0.078343 68 1 84
-0.583427 -0.230758 0.052960 68 1 84
0.545585 -0.312791 0.015468 68 1 84
0.211877 -0.354694 -0.198515 42 119 142
-0.108306 0.356538 -0.261763 31 146 140
0.325777 -0.144493 -0.168836 68 1 84
0.485259 -0.470779 -0.169650 60 77 138
-0.183474 0.038025 -0.259493 39 124 142
0.653839 -0.448503 0.266091 68 1 84
0.311134 0.491954 0.012590 42 119 142
0.257480 0.105800 -0.188344 68 1 84
-0.614958 -0.140403 0.189220 68 1 84
0.183221 0.591682 -0.052246 31 147 139
0.062350 0.571995 -0.178646 34 139 141
0.425442 0.447132 0.172641 64 68 135
0.478787 0.092625 -0.031087 68 1 84
-0.589096 -0.021880 0.304173 68 1 84
0.211882 0.268970 -0.141233 72 30 112
-0.050538 0.493154 -0.198564 40 123 142
-0.077634 -0.273108 -0.309335 33 167 132
-0.182894 0.585625 -0.120458 30 156 137
0.024051 0.279449 -0.248270 52 95 141
-0.464550 0.289747 0.013815 69 53 128
-0.664474 -0.506902 0.369206 68 1 84
0.451864 -0.030007 -0.105437 68 1 84
-0.169565 -0.127971 -0.233251 48 103 141
-0.584340 -0.063445 0.494144 68 1 84
0.665330 -0.336526 0.298934 68 1 84
-0.613643 -0.137468 0.180440 68 1 84
0.570367 -0.011979 0.201160 68 1 84
-0.526157 -0.226084 -0.027322 68 3 87
-0.674184 -0.550179 0.430055 68 1 84
0.042534 0.402182 -0.219971 40 123 142
-0.316921 -0.371297 -0.188434 34 167 132
0.332713 0.533080 0.111753 39 125 142
-0.665878 -0.369798 0.423503 68 1 84
-0.519093 -0.268227 -0.016558 68 1 84
0.510394 0.303305 0.370543 72 30 112
0.246216 0.289177 -0.128207 71 37 117
0.014996 0.582124 -0.174053 33 141 140
0.666849 -0.556319 0.293820 68 1 84
0.542926 0.007865 0.068076 68 1 84
0.096691 -0.297099 -0.201706 55 88 140
0.311889 0.476304 -0.002121 40 122 142
0.076556 0.134922 -0.248454 71 44 123
-0.561016 0.137214 0.436356 68 1 84
-0.531824 -0.245661 -0.012837 70 9 92
-0.591900 -0.417139 0.075068 68 1 84
0.503393 0.288843 0.157197 70 48 125
-0.065437 0.640344 -0.096481 32 143 140
-0.621562 -0.160946 0.214008 68 1 84
0.022352 0.033986 -0.452456 39 124 142
0.106146 0.355714 -0.226659 51 97 141
-0.389673 0.341457 -0.051329 57 84 139
0.072976 0.121693 -0.246970 68 1 84
-0.361518 0.528390 0.160204 39 126 142
-0.313593 0.557362 0.096927 42 118 142
0.480913 0.321500 0.126322 71 37 117
0.435421 0.250680 -0.012202 68 1 84
-0.172194 0.065729 -0.257874 51 97 141
-0.503966 0.083868 -0.036602 68 1 84
0.194293 0.140471 -0.198310 71 24 106
-0.233374 0.560212 -0.081894 30 151 138
-0.119488 -0.435315 -0.336060 205 224 29
-0.475030 0.412298 0.183733 48 103 141
-0.323361 0.145465 -0.165466 70 45 124
0.238985 0.593463 0.068774 30 153 138
0.598136 -0.480493 0.093772 68 1 84
-0.583691 -0.004563 0.207693 68 1 84
0.476603 0.355640 0.402065 67 58 131
-0.287732 0.462566 -0.069154 35 135 141
-0.383989 -0.451716 -0.239773 83 197 103
0.578192 0.045543 0.369082 68 1 84
-0.576821 0.013627 0.139118 68 1 84
0.193218 -0.030654 -0.212345 68 1 84
-0.046839 0.636180 -0.104984 34 138 141
0.350253 -0.224485 -0.157096 68 1 84
-0.624163 -0.490050 0.191704 68 1 84
-0.395314 0.488579 0.108045 39 126 142
0.195974 0.560838 -0.067542 32 145 140
-0.505991 0.086138 -0.031991 68 1 84
-0.279616 0.480996 -0.069982 33 141 140
-0.587578 -0.014069 0.363554 68 1 84
-0.191109 0.362253 -0.192243 38 128 142
-0.247949 0.598085 0.052462 42 118 142
0.509775 0.029041 -0.005683 68 1 84
-0.121715 0.487370 -0.178804 31 146 140
0.479846 -0.059556 -0.080207 68 1 84
-0.449995 -0.374632 -0.162857 50 98 141
-0.467457 -0.278175 -0.062977 70 14 97
0.114959 0.426853 -0.171712 51 97 141
0.550591 0.169730 0.261778 68 1 84
-0.440924 0.137350 -0.098337 71 18 101
0.516492 0.289426 0.366517 72 35 116
-0.622345 -0.331724 0.144753 68 1 84
0.469846 -0.013548 -0.084440 68 1 84
-0.673895 -0.478874 0.454993 68 1 84
0.631799 -0.206318 0.238393 68 1 84
-0.013279 -0.277076 -0.331318 37 171 129
-0.103896 0.392339 -0.230638 30 152 138
-0.525505 0.254212 0.115531 71 40 120
0.136137 0.043330 -0.283025 68 57 130
0.294488 0.358800 -0.088741 61 75 137
-0.607939 -0.545829 0.133379 67 59 131
-0.437657 0.229964 -0.056889 72 30 112
0.006481 0.505756 -0.198485 41 121 142
-0.126667 -0.164806 -0.291313 34 138 141
-0.277456 -0.031182 -0.197238 72 26 108
-0.168119 -0.007941 -0.305261 52 94 141
-0.358185 -0.338746 -0.145634 48 104 141
-0.596022 -0.266261 0.082003 68 1 84
0.575051 -0.206342 0.056725 68 1 84
-0.579894 -0.019824 0.104960 68 1 84
-0.175461 -0.396858 -0.299130 83 197 103
-0.538033 0.150441 0.077560 68 2 85
0.527450 0.054905 0.055348 68 1 84
0.333064 0.006773 -0.182174 68 1 84
-0.619355 -0.145976 0.366567 68 1 84
0.525772 0.271940 0.259151 72 33 114
-0.154426 -0.056146 -0.286022 46 108 142
0.104877 0.300285 -0.215505 60 78 138
-0.238054 0.307680 -0.140109 58 83 139
-0.141538 -0.037076 -0.360919 30 152 138
0.212550 0.260006 -0.156222 72 25 107
0.322802 0.505196 0.042951 40 122 142
-0.556873 0.134410 0.461786 68 1 84
-0.530656 0.158488 0.061365 69 6 90
0.592795 -0.033317 0.330366 68 1 84
-0.638552 -0.212778 0.298862 68 1 84
-0.579666 0.043377 0.390941 68 1 84
0.512964 0.309706 0.288434 69 50 127
0.564677 0.025399 0.212779 68 1 84
0.540504 0.212046 0.415093 70 11 94
0.251427 0.379149 -0.099060 46 107 142
0.590699 -0.083939 0.220974 68 1 84
0.450552 -0.057665 -0.108450 68 1 84
-0.619102 -0.558381 0.177308 71 43 122
0.406454 0.253438 -0.048282 68 1 84
-0.431107 -0.245407 -0.101066 71 44 123
0.088872 -0.002267 -0.392216 49 102 141
0.629195 -0.421847 0.178464 68 1 84
-0.263972 -0.096377 -0.187204 72 33 114
-0.350721 0.494081 0.028285 39 126 142
0.487339 -0.410917 -0.133594 70 47 124
0.111510 0.523852 -0.156136 40 123 142
0.173727 0.061061 -0.198086 68 1 84
-0.476025 0.229844 -0.003801 71 20 102
0.434224 0.176168 -0.054997 68 1 84
0.546732 0.097544 0.158410 68 1 84
0.426688 0.410944 0.102348 65 66 134
0.693943 -0.521337 0.420754 68 1 84
-0.569540 -0.387723 0.034161 72 34 115
-0.130953 0.145016 -0.250445 70 45 124
0.622374 -0.108151 0.504369 68 1 84
0.685520 -0.462255 0.397160 68 1 84
0.284669 -0.161527 -0.177981 68 1 84
0.527861 0.270351 0.304308 72 35 116
-0.655874 -0.280972 0.402818 68 1 84
-0.310856 0.391816 -0.076913 40 123 142
-0.355219 0.472001 0.011675 40 122 142
-0.068252 0.222021 -0.293727 40 122 142
-0.415370 0.473805 0.269186 56 87 140
-0.588184 -0.016751 0.353755 68 1 84
0.642362 -0.295490 0.218392 68 1 84
0.462461 0.371399 0.140220 70 47 124
0.420857 -0.392717 -0.201667 51 97 141
-0.365129 -0.167433 -0.143495 71 21 103
0.607668 -0.533313 0.123128 69 6 90
-0.397311 -0.479504 -0.244167 116 208 84
-0.062282 0.072727 -0.426645 30 153 138
-0.380787 0.435607 0.009840 43 115 142
0.123417 0.112071 -0.217287 69 5 88
0.367931 -0.246556 -0.151963 68 1 84
0.385008 -0.356600 -0.169117 71 37 117
-0.540409 0.239948 0.156546 72 34 115
-0.550132 0.165775 0.132397 71 15 98
-0.429112 0.469350 0.172079 43 115 142
0.050017 -0.132352 -0.363171 46 107 142
0.634256 -0.160327 0.510833 68 1 84
0.240817 0.354213 -0.110445 53 93 140
-0.291976 0.567922 0.052454 35 136 141
-0.332084 0.341392 -0.087664 60 78 138
0.672489 -0.355677 0.369988 68 1 84
-0.117100 -0.255731 -0.242773 47 105 141
0.079944 0.283945 -0.228053 61 76 137
-0.205111 0.585525 -0.093071 30 157 136
0.013483 -0.303813 -0.320093 31 163 134
0.558509 0.001355 0.133943 68 1 84
-0.305627 -0.428680 -0.259540 42 176 126
0.212706 0.070723 -0.196484 68 1 84
0.101427 0.371202 -0.220794 44 114 142
0.112829 -0.128868 -0.260162 72 35 116
0.550702 -0.364101 0.011286 68 1 84
-0.381666 -0.037047 -0.158040 69 5 88
-0.210456 -0.385054 -0.240656 64 189 114
-0.177942 0.033612 -0.294184 40 122 142
0.297136 -0.432534 -0.273797 31 162 134
-0.520152 0.089841 -0.004227 69 5 88
0.583252 -0.018089 0.281186 68 1 84
0.281102 0.425576 -0.060605 50 98 141
0.638012 -0.442480 0.205375 68 1 84
-0.607497 -0.106592 0.267803 68 1 84
-0.355327 -0.439173 -0.247251 71 192 110
-0.663122 -0.442582 0.368780 68 1 84
-0.192186 0.516933 -0.139679 33 141 140
0.640039 -0.309386 0.206380 68 1 84
-0.157182 0.630839 -0.071691 32 145 140
-0.619472 -0.300407 0.135934 68 1 84
0.130772 -0.289359 -0.183623 69 52 127
0.336982 0.109782 -0.164147 68 1 84
0.337152 0.403827 -0.033358 56 87 140
-0.331417 -0.092248 -0.168069 71 40 120
0.303929 -0.376417 -0.224667 39 125 142
-0.633534 -0.197319 0.345046 68 1 84
0.056554 0.481636 -0.176135 40 122 142
-0.570950 0.136640 0.315836 68 3 87
0.609997 -0.422595 0.124882 68 1 84
0.396145 -0.291772 -0.134083 70 11 94
0.429705 0.155379 -0.072477 68 1 84
0.531116 0.251071 0.373039 72 32 113
-0.091795 0.378212 -0.255900 32 165 133
0.210724 -0.341852 -0.177055 60 77 138
-0.644027 -0.355954 0.218702 68 1 84
0.551928 0.176495 0.307864 68 1 84
0.096417 0.547005 -0.165580 45 111 142
-0.574003 0.112668 0.287604 68 1 84
0.145903 0.620791 -0.053274 31 148 139
-0.022757 -0.328955 -0.325225 83 197 103
-0.295488 -0.368418 -0.215813 30 160 135
-0.265980 0.567150 -0.021863 34 137 141
-0.003465 -0.280590 -0.328280 31 162 134
0.568093 0.101863 0.394370 68 1 84
-0.473556 0.415216 0.243513 55 89 140
0.072622 -0.286042 -0.248084 42 117 142
0.546781 0.197712 0.295161 68 1 84
0.498668 0.329195 0.364063 69 52 127
-0.570581 -0.531541 -0.001422 37 130 142
-0.130406 0.188397 -0.266432 42 117 142
-0.325582 -0.174316 -0.152830 69 53 128
-0.193230 0.396402 -0.170471 37 131 141
0.120581 0.070296 -0.303590 69 53 128
-0.630220 -0.544412 0.222818 68 3 87
0.462592 0.374647 0.145888 70 45 124
-0.503850 0.343125 0.146932 61 74 137
0.199698 0.603514 0.008240 32 165 133
-0.405396 0.052901 -0.147057 71 22 105
0.370034 0.262673 -0.083043 69 6 90
0.509827 0.170356 0.079190 68 1 84
0.653158 -0.487548 0.256022 68 1 84
0.602590 -0.084702 0.300059 68 1 84
0.671428 -0.301947 0.359184 68 1 84
-0.283995 0.552371 -0.009710 35 137 141
0.616985 -0.173705 0.206860 68 1 84
-0.415698 0.483132 0.178111 43 116 142
0.325897 0.506408 0.049125 41 120 142
-0.595638 -0.381913 0.085179 71 21 103
0.185018 0.547510 -0.087683 30 151 138
-0.557251 0.200113 0.355164 69 8 91
-0.565544 -0.013720 0.052577 68 1 84
0.571798 -0.034525 0.170502 68 1 84
-0.543606 0.263883 0.281150 71 38 118
0.591837 -0.099038 0.194144 68 1 84
0.033935 0.502419 -0.190372 35 135 141
-0.057448 0.377847 -0.260236 31 150 139
-0.174024 -0.351471 -0.194851 35 136 141
0.245751 -0.207171 -0.182740 68 1 84
0.665686 -0.535203 0.292183 68 1 84
-0.498734 0.063915 -0.052657 68 1 84
-0.583322 -0.431513 0.052356 71 38 118
-0.030493 0.102590 -0.390020 40 122 142
-0.636225 -0.344114 0.188702 68 1 84
-0.555514 0.206810 0.356857 70 14 97
0.195340 0.563061 -0.066618 31 148 139
-0.517562 0.141907 0.019295 68 3 87
0.221001 -0.444413 -0.314447 109 206 88
-0.593864 -0.432881 0.078850 68 1 84
0.003498 0.533611 -0.195858 37 131 141
-0.285435 -0.462310 -0.297007 228 227 24
-0.066796 0.361151 -0.268640 30 154 137
-0.438125 0.073121 -0.119853 70 12 95
-0.299605 0.422338 -0.074340 37 131 141
0.451689 0.403693 0.346623 66 64 133
-0.297702 0.440100 -0.068403 36 132 141
0.656972 -0.334668 0.255451 68 1 84
-0.017100 0.627297 -0.121902 34 138 141
0.460725 -0.302899 -0.064935 68 1 84
0.379676 0.224246 -0.091842 69 6 90
0.611463 -0.082073 0.387784 68 1 84
-0.123401 0.248440 -0.265701 31 150 139
-0.574337 -0.135530 0.026610 68 1 84
-0.603927 -0.098366 0.375054 68 1 84
0.294099 0.002144 -0.196415 68 1 84
0.291366 0.408369 -0.063203 52 94 141
0.100393 0.427105 -0.177090 45 110 142
-0.415675 0.251082 -0.070816 69 54 129
-0.466733 0.422049 0.252718 49 102 141
0.519434 -0.347809 -0.020535 68 1 84
-0.625991 -0.310780 0.154377 68 1 84
0.059264 -0.320303 -0.292570 41 175 127
0.163010 -0.154921 -0.208481 68 2 85
0.094875 0.163566 -0.246790 70 48 125
0.090438 0.425365 -0.181680 44 113 142
-0.508087 0.356548 0.246851 65 66 134
-0.286111 0.284374 -0.121332 61 74 137
0.309080 0.538602 0.073118 40 122 142
-0.091201 0.309661 -0.255139 34 137 141
-0.621825 -0.562857 0.187873 71 39 119
-0.552230 0.228692 0.242365 72 28 110
-0.482972 0.383113 0.141036 57 85 139
0.154343 0.486905 -0.132172 42 117 142
-0.387897 0.402058 -0.010122 47 106 141
0.684235 -0.431396 0.418578 68 1 84
-0.139400 0.641857 -0.054350 34 138 141
0.066985 0.072021 -0.309819 67 59 131
-0.259059 0.047584 -0.191040 71 17 99
0.680623 -0.510993 0.349250 68 1 84
0.101217 -0.054917 -0.321540 69 6 90
-0.146379 -0.397854 -0.312187 77 194 107
-0.663262 -0.414613 0.371736 68 1 84
0.281322 -0.451679 -0.288826 43 177 125
-0.131144 0.449021 -0.173669 46 109 142
-0.147623 -0.349468 -0.216466 30 151 138
0.659815 -0.364396 0.265147 68 1 84
-0.307124 0.470510 -0.046105 35 136 141
0.616807 -0.092053 0.510433 68 1 84
-0.124087 0.461982 -0.174514 39 126 142
0.344328 -0.434909 -0.263802 40 123 142
0.116286 -0.048461 -0.266857 69 54 129
-0.424326 0.384138 0.021384 48 103 141
-0.245876 0.445861 -0.111057 33 141 140
-0.582278 -0.021837 0.458722 68 1 84
-0.449939 0.417319 0.324864 51 97 141
-0.667514 -0.313746 0.388066 68 1 84
-0.362896 -0.250339 -0.138266 55 89 140
-0.588442 -0.512533 0.060587 63 71 136
-0.020379 0.419633 -0.189701 46 109 142
0.564585 0.014877 0.199140 68 1 84
0.510678 -0.325701 -0.019447 68 1 84
-0.167415 0.333190 -0.223764 34 138 141
0.154998 0.256699 -0.206424 69 52 127
0.562042 -0.428426 0.013897 68 1 84
-0.640658 -0.232940 0.401384 68 1 84
0.659740 -0.391828 0.285516 68 1 84
0.137812 0.026486 -0.261810 71 37 117
-0.065372 -0.238695 -0.332931 30 158 136
-0.376543 0.339569 -0.063013 55 89 140
0.469610 0.394702 0.234177 71 42 121
0.261108 0.094461 -0.191403 69 6 90
0.227863 0.545533 -0.041127 32 144 140
-0.203159 0.375449 -0.173117 38 129 142
-0.055127 -0.280153 -0.322406 30 154 137
0.229276 0.118116 -0.188971 68 1 84
-0.091453 0.238578 -0.284906 31 148 139
0.510201 0.257970 0.500862 72 32 113
0.124640 0.605402 -0.108022 33 141 140
-0.433811 0.452499 0.275681 50 98 141
0.189284 0.046500 -0.199905 68 1 84
0.642019 -0.380752 0.205956 68 1 84
0.321060 0.453696 -0.011567 44 114 142
-0.574211 -0.070071 0.044111 68 1 84
-0.450273 0.447803 0.188376 50 98 141
-0.671248 -0.465424 0.423391 68 1 84
0.614389 -0.486697 0.146825 68 1 84
0.180097 0.261656 -0.174510 71 37 117
-0.326880 0.174876 -0.157839 72 35 116
0.542073 -0.426733 -0.033208 68 1 84
-0.567302 0.086083 0.161595 68 1 84
-0.363504 -0.140162 -0.147750 69 8 91
0.507358 0.078218 0.018872 68 1 84
-0.276081 -0.363677 -0.196613 31 148 139
0.428589 -0.023374 -0.124328 68 1 84
-0.002770 0.497345 -0.198570 42 117 142
-0.579854 0.058076 0.343939 68 1 84
0.061958 0.652320 -0.068034 39 124 142
-0.415431 -0.346401 -0.113597 59 81 138
-0.068702 0.144048 -0.282449 59 80 138
-0.571469 -0.037949 0.559111 68 1 84
-0.193068 0.391596 -0.173195 32 145 140
-0.203862 0.129997 -0.207391 69 6 90
0.004461 0.402329 -0.216528 42 117 142
-0.529790 -0.290744 0.001755 68 1 84
-0.352100 -0.373022 -0.217942 33 141 140
0.171941 0.196645 -0.208719 70 48 125
0.398190 -0.033329 -0.146737 68 1 84
0.268898 0.524544 -0.007791 32 143 140
0.313343 0.198159 -0.147534 69 6 90
-0.553815 0.223880 0.253161 71 21 103
0.271305 -0.456599 -0.296529 64 189 114
-0.573458 -0.530600 0.009762 44 114 142
-0.197064 -0.340728 -0.163080 44 113 142
-0.107841 0.387996 -0.237097 30 158 136
0.571116 -0.011308 0.207543 68 1 84
0.215940 -0.345063 -0.180786 54 91 140
-0.086208 0.309134 -0.255645 34 137 141
-0.454353 -0.401720 -0.176151 39 126 142
0.017654 0.653209 -0.078254 42 117 142
-0.646957 -0.421747 0.253465 68 1 84
0.126075 0.341130 -0.210854 48 103 141
-0.326561 0.377813 -0.072772 49 101 141
0.469704 0.159873 -0.010698 68 1 84
0.392663 0.263769 -0.059115 68 1 84
-0.481667 0.379061 0.323776 64 68 135
0.643717 -0.308343 0.218736 68 1 84
0.542780 0.199509 0.242327 68 2 85
0.002636 -0.184655 -0.361781 31 147 139
0.553826 0.116669 0.213948 68 1 84
-0.478632 -0.353444 -0.096130 55 88 140
0.560885 -0.008715 0.135507 68 1 84
-0.211048 0.105054 -0.198861 70 9 92
-0.190881 -0.313751 -0.148159 61 76 137
0.246009 0.487079 -0.057694 32 143 140
0.613792 -0.241720 0.144469 68 1 84
-0.546847 -0.539088 -0.068783 31 161 135
-0.191484 -0.311542 -0.148516 61 75 137
-0.148914 -0.064361 -0.298693 46 107 142
-0.148918 -0.043084 -0.325968 41 121 142
0.494463 0.229528 0.078095 69 6 90
0.553283 -0.041552 0.061011 68 1 84
-0.546127 0.251454 0.225394 71 24 106
0.246316 0.459335 -0.069587 40 122 142
-0.634856 -0.207197 0.434326 68 1 84
0.439109 0.413074 0.370971 62 73 137
-0.163441 0.401860 -0.188285 38 128 142
0.522037 0.230236 0.497763 72 26 108
0.483077 0.297202 0.104910 72 33 114
0.070766 0.052889 -0.395272 50 98 141
0.670889 -0.326125 0.375968 68 1 84
-0.418692 -0.282090 -0.103697 72 33 114
0.046033 0.264045 -0.253052 57 84 139
0.602112 -0.189599 0.131477 68 1 84
0.443918 -0.051659 -0.113923 68 1 84
0.632415 -0.505504 0.203341 68 1 84
-0.208100 -0.322621 -0.142948 54 90 140
0.342562 0.198877 -0.130206 68 1 84
-0.464453 0.397765 0.329649 60 77 138
0.007723 0.051102 -0.450044 37 131 141
-0.160932 0.261251 -0.234874 36 134 141
0.490239 0.322570 0.446525 61 74 137
0.616774 -0.172312 0.207766 68 1 84
-0.143189 -0.395398 -0.310792 87 198 101
-0.282805 0.576711 0.065346 37 130 142
-0.065684 -0.421886 -0.339963 220 226 24
0.515510 -0.023417 -0.020928 68 1 84
0.262069 0.361244 -0.099646 52 95 141
-0.491447 -0.028485 -0.078740 68 1 84
-0.011296 -0.135273 -0.384730 31 150 139
-0.422076 -0.214312 -0.112668 71 21 103
-0.637045 -0.263015 0.518454 68 1 84
-0.548415 0.178868 0.446053 68 1 84
-0.228979 -0.351155 -0.176639 34 138 141
-0.399267 -0.075869 -0.143525 68 1 84
0.657912 -0.306729 0.264671 68 1 84
0.434460 0.433804 0.170988 65 66 134
-0.577781 0.077673 0.337811 68 1 84
0.585397 -0.110106 0.130228 68 1 84
0.560384 0.113300 0.268899 68 1 84
0.359854 0.452973 0.035169 51 96 141
-0.647212 -0.241246 0.289707 68 1 84
-0.176792 -0.293704 -0.159125 63 71 136
-0.412233 0.263458 -0.068729 66 62 133
0.387611 0.397975 0.019641 61 74 137
0.533202 -0.424094 -0.052706 70 12 95
-0.466170 -0.456337 -0.192087 32 164 133
0.466117 -0.478920 -0.196534 51 96 141
-0.657484 -0.445586 0.333506 68 1 84
-0.542417 0.242054 0.374412 72 33 114
0.665623 -0.524701 0.292950 68 1 84
0.493395 -0.095942 -0.069177 68 1 84
0.135470 0.047633 -0.274185 71 18 101
-0.508385 0.299203 0.406758 72 32 113
-0.307178 0.232059 -0.154416 65 65 134
0.269244 0.068264 -0.195617 71 24 106
-0.405822 0.289334 -0.063428 64 67 135
0.208364 0.152193 -0.193870 71 20 102
0.294270 0.553931 0.077680 35 136 141
-0.509933 -0.510406 -0.147331 33 166 133
0.311946 -0.115041 -0.176796 68 1 84
0.510230 -0.256749 -0.023396 68 1 84
-0.508647 0.348794 0.181902 65 65 134
0.613214 -0.440100 0.136193 68 1 84
-0.241882 0.065686 -0.187853 68 1 84
0.589851 -0.363372 0.077769 68 1 84
0.070697 0.072487 -0.314800 66 64 133
0.583600 -0.328729 0.067963 68 1 84
0.183774 0.541079 -0.092417 33 142 140
0.468151 -0.107288 -0.094660 68 1 84
0.256096 0.367618 -0.100415 51 96 141
-0.139652 0.465594 -0.169355 38 129 142
0.384317 -0.417808 -0.243189 45 111 142
0.171299 -0.391410 -0.260754 69 191 111
0.506554 -0.510429 -0.137377 54 90 140
0.159562 -0.380298 -0.244789 46 178 124
0.123512 0.542146 -0.147376 38 129 142
-0.174916 0.555635 -0.146892 30 154 137
0.144762 0.031789 -0.207313 68 1 84
-0.137629 -0.073727 -0.326834 44 114 142
-0.386179 -0.125577 -0.143745 69 6 90
0.530220 0.076360 0.079530 68 1 84
0.592642 -0.026729 0.502247 68 1 84
0.682621 -0.562357 0.349887 68 1 84
-0.573651 -0.062299 0.046232 68 1 84
0.642088 -0.259038 0.233333 68 1 84
-0.201937 0.600966 -0.076089 31 163 134
-0.121454 -0.040355 -0.394944 41 175 127
-0.179957 -0.251704 -0.171486 61 74 137
-0.603551 -0.092969 0.187575 68 1 84
-0.214310 0.612333 -0.010454 34 139 141
0.280130 0.200931 -0.162323 68 2 85
0.449594 0.424593 0.260295 67 59 131
0.460891 0.385111 0.158270 69 54 129
-0.123370 0.450733 -0.175045 42 118 142
-0.535633 -0.331427 0.006659 71 21 103
-0.494057 -0.450019 -0.161520 31 148 139
0.629565 -0.145443 0.356719 68 1 84
-0.570128 -0.021608 0.521628 68 1 84
0.520180 0.224067 0.512017 72 26 108
0.208306 0.607617 0.049865 30 154 137
-0.220908 0.605666 -0.024862 31 147 139
0.128597 -0.414092 -0.323343 103 204 92
0.433442 0.284738 0.003913 71 24 106
-0.412449 0.095631 -0.134948 71 22 105
0.427172 0.435933 0.146764 64 67 135
0.261473 -0.375188 -0.239294 30 158 136
-0.017393 0.038337 -0.460511 31 161 135
0.620797 -0.461136 0.160967 68 1 84
-0.248769 0.596276 0.033276 32 144 140
-0.662834 -0.388895 0.369879 68 1 84
0.096055 -0.346313 -0.254211 47 179 123
0.365203 0.488349 0.089602 55 89 140
0.072499 -0.239430 -0.267812 49 101 141
-0.465100 0.074262 -0.093603 68 1 84
-0.606211 -0.101842 0.296043 68 1 84
-0.083076 -0.150817 -0.357778 46 178 124
0.090779 -0.068147 -0.349725 62 73 137
0.132233 -0.303504 -0.178431 64 67 135
0.439907 0.324957 0.040376 72 29 111
-0.572885 0.116436 0.350286 68 1 84
0.507405 0.291760 0.176765 70 48 125
-0.111671 0.135441 -0.262501 63 69 135
-0.570664 0.138481 0.312928 68 1 84
0.650602 -0.220000 0.505476 68 1 84
0.524979 0.276565 0.329022 72 25 107
0.248015 0.189338 -0.177468 72 29 111
0.039081 -0.134116 -0.370625 43 116 142
0.245452 0.314172 -0.116383 68 55 129
-0.357245 -0.056894 -0.166192 69 5 88
-0.030788 0.260940 -0.276816 49 102 141
0.563367 0.092734 0.483395 68 1 84
-0.032313 -0.340480 -0.324121 79 195 105
-0.305320 0.448683 -0.057972 35 136 141
0.245435 0.462888 -0.068438 38 127 142
-0.498107 -0.514717 -0.161892 35 168 131
-0.115800 -0.232912 -0.264462 44 113 142
-0.302956 -0.232271 -0.154000 70 47 124
-0.629898 -0.190470 0.446029 68 1 84
0.640311 -0.512564 0.224361 68 1 84
-0.495183 0.127896 -0.031723 68 1 84
0.532095 0.233051 0.213888 68 1 84
-0.652729 -0.352128 0.280907 68 1 84
-0.255819 -0.308644 -0.149231 60 78 138
0.548090 0.124177 0.519643 68 1 84
0.537937 0.061141 0.095552 68 1 84
-0.123437 0.089332 -0.249916 65 66 134
-0.035818 -0.350995 -0.324080 100 203 93
0.109262 -0.137805 -0.262808 67 58 131
-0.339476 0.410726 -0.047380 44 112 142
-0.630112 -0.183078 0.256570 68 1 84
0.646957 -0.342566 0.218848 68 1 84
0.566473 0.056334 0.508748 68 1 84
0.554253 0.149781 0.261760 68 1 84
-0.487975 0.342133 0.098478 60 78 138
0.285429 -0.394826 -0.257000 32 145 140
-0.255056 0.262173 -0.145163 70 48 125
0.050626 -0.252286 -0.306994 36 133 141
-0.554729 0.169472 0.427976 68 1 84
0.104803 -0.063596 -0.296756 71 21 103
0.190639 0.434746 -0.121837 49 100 141
-0.593726 -0.053407 0.396757 68 1 84
0.593171 -0.027881 0.519062 68 1 84
-0.628892 -0.286035 0.164008 68 1 84
-0.349112 -0.454457 -0.256172 75 194 108
-0.309889 0.051840 -0.187094 68 57 130
-0.508821 0.268421 0.465917 71 15 98
0.279221 0.430383 -0.059498 51 96 141
-0.608165 -0.117054 0.395377 68 1 84
-0.098644 -0.433360 -0.338094 210 225 27
0.049225 0.424640 -0.191265 44 114 142
0.492578 0.208498 0.060344 68 1 84
-0.548939 -0.507797 -0.068641 34 139 141
0.070118 -0.311898 -0.271953 43 177 125
-0.523362 -0.174120 -0.046323 68 1 84
-0.671382 -0.447691 0.456156 68 1 84
-0.505380 0.129824 -0.012245 69 6 90
0.204294 0.587667 -0.023990 30 154 137
0.040356 -0.384135 -0.324352 81 196 104
0.179625 0.442135 -0.127324 46 109 142
0.062127 -0.262856 -0.282365 38 127 142
-0.522258 0.306076 0.340669 70 49 126
-0.367192 -0.461433 -0.251493 109 206 88
0.485670 -0.418809 -0.142632 70 47 124
0.321337 0.486672 0.019844 44 114 142
-0.160655 0.292857 -0.209916 50 99 141
0.434265 -0.300716 -0.095027 68 1 84
-0.578513 -0.512602 0.027133 55 89 140
0.480896 -0.349586 -0.070724 68 1 84
-0.288321 0.512013 -0.044592 35 136 141
0.235712 0.473894 -0.071573 41 121 142
-0.504808 0.360134 0.272356 63 69 135
0.148330 -0.417760 -0.322942 75 194 108
-0.153290 0.637753 -0.047653 35 135 141
0.670098 -0.555665 0.304562 68 1 84
0.392049 0.336231 -0.021942 69 52 127
-0.466457 0.182705 -0.046590 71 22 105
0.347006 0.402850 -0.025366 53 92 140
0.435799 0.336032 0.042091 71 40 120
0.248998 0.489001 -0.054511 35 135 141
0.328415 -0.446223 -0.271529 30 160 135
0.582345 0.010084 0.325708 68 1 84
-0.140106 -0.170607 -0.261464 43 115 142
0.306332 0.483052 -0.001812 38 128 142
-0.239010 0.183609 -0.196859 63 69 135
-0.635769 -0.391157 0.194415 68 1 84
0.151670 -0.445904 -0.335075 98 202 95
-0.033125 -0.242006 -0.341051 33 167 132
-0.218126 -0.447081 -0.321014 183 221 41
-0.606971 -0.138736 0.472673 68 1 84
0.658828 -0.437560 0.284626 68 1 84
0.416744 0.021792 -0.129507 68 1 84
0.537543 0.221701 0.413690 72 33 114
-0.596225 -0.246482 0.080235 68 1 84
-0.202281 0.273527 -0.183521 49 102 141
-0.506033 -0.349791 -0.047934 70 48 125
0.669794 -0.332385 0.335172 68 1 84
-0.501049 0.333399 0.123651 61 76 137
0.102459 -0.171069 -0.260217 71 37 117
-0.152350 -0.014196 -0.352231 31 147 139
0.547288 -0.397104 -0.007295 68 1 84
-0.167539 0.169976 -0.235304 52 95 141
-0.209777 -0.355431 -0.189759 31 149 139
0.569311 -0.104126 0.068793 68 1 84
0.195675 0.597381 -0.019205 30 153 138
-0.204562 0.171970 -0.214310 60 77 138
0.019169 0.371366 -0.263402 31 150 139
-0.462834 0.146378 -0.070350 70 11 94
-0.068927 0.634936 -0.107374 31 149 139
-0.638571 -0.365982 0.198681 68 1 84
0.417041 -0.347283 -0.129325 71 38 118
0.640455 -0.266377 0.222903 68 1 84
0.457600 0.344314 0.093558 72 30 112
-0.269051 -0.103385 -0.183910 71 39 119
0.537083 0.028309 0.064982 68 1 84
0.557969 -0.225327 0.026732 68 1 84
0.289989 -0.267732 -0.179850 72 29 111
-0.257052 -0.182902 -0.166657 70 47 124
0.147588 -0.415466 -0.321024 68 190 112
-0.067114 -0.386578 -0.325060 131 211 75
-0.556735 -0.247783 0.017981 68 1 84
-0.145508 0.628144 -0.098830 31 150 139
-0.414921 0.476153 0.255839 49 100 141
-0.175995 -0.348467 -0.188002 38 127 142
-0.580665 -0.518365 0.034897 58 83 139
0.179070 0.148317 -0.205006 71 24 106
-0.468132 -0.402315 -0.160952 46 108 142
-0.494834 0.190803 0.004816 71 15 98
-0.499215 0.060490 -0.053015 68 1 84
-0.397569 0.409571 0.008269 49 100 141
-0.596563 -0.100646 0.481182 68 1 84
-0.144160 -0.022143 -0.370159 32 165 133
0.311151 0.558255 0.196539 49 101 141
0.596718 -0.401294 0.090248 68 1 84
0.481862 0.342872 0.161839 70 45 124
-0.004515 -0.123117 -0.391356 43 116 142
0.092528 -0.074473 -0.338389 66 61 132
0.489737 0.138178 0.015564 68 1 84
0.386253 0.152002 -0.118764 68 1 84
-0.095930 0.448498 -0.180866 46 107 142
0.074430 -0.259826 -0.249810 47 106 141
-0.465589 0.428469 0.226060 52 94 141
-0.495037 0.092075 -0.048634 68 1 84
0.281923 0.575381 0.118501 37 131 141
0.305148 0.086128 -0.183493 68 1 84
0.037621 0.072754 -0.371536 50 99 141
-0.676574 -0.545533 0.462072 68 1 84
0.127320 0.049162 -0.309303 69 53 128
-0.563674 0.080516 0.477338 68 1 84
-0.383407 0.411650 -0.007064 46 109 142
-0.510843 -0.363263 -0.058614 68 55 129
-0.007310 0.554909 -0.184829 31 149 139
0.476400 0.225583 0.038620 68 1 84
0.512446 0.009505 -0.009635 68 1 84
0.583201 0.014677 0.349417 68 1 84
0.606445 -0.373833 0.112679 68 1 84
-0.642680 -0.283028 0.458730 68 1 84
-0.386806 0.446212 0.028080 42 118 142
-0.449090 0.029479 -0.116146 68 1 84
-0.484059 0.252499 0.023714 69 54 129
-0.001206 0.655665 -0.058286 46 107 142
-0.231770 -0.235686 -0.163866 66 64 133
-0.388967 0.202553 -0.114557 72 33 114
-0.297065 0.293256 -0.116614 61 76 137
-0.535372 0.284608 0.300370 70 47 124
0.121973 -0.329886 -0.186590 49 100 141
0.511029 0.289267 0.428297 72 35 116
0.564392 0.060122 0.244881 68 1 84
0.364836 0.129161 -0.142728 68 1 84
-0.598038 -0.427889 0.089589 68 1 84
0.023451 -0.427816 -0.343011 159 217 56
-0.292560 0.570399 0.069526 38 129 142
-0.021490 -0.431207 -0.345384 212 225 26
0.620397 -0.352766 0.145524 68 1 84
0.649179 -0.214491 0.505054 68 1 84
-0.554914 0.213497 0.233961 68 1 84
-0.150833 0.097375 -0.218015 70 12 95
0.275684 0.054779 -0.197439 71 18 101
0.345407 -0.126644 -0.165203 68 1 84
-0.058545 0.082425 -0.341727 55 89 140
0.639184 -0.160277 0.424271 68 1 84
-0.653328 -0.302155 0.289578 68 1 84
0.418999 0.441320 0.354121 67 59 131
0.635483 -0.417956 0.195356 68 1 84
0.419319 0.457643 0.281603 62 72 136
-0.606737 -0.412335 0.111103 71 15 98
-0.549228 0.109240 0.512641 68 1 84
-0.021697 0.121456 -0.293749 64 67 135
-0.341396 0.542860 0.155816 43 116 142
0.324352 0.548578 0.210230 55 88 140
0.045248 -0.117233 -0.376224 44 112 142
0.028334 -0.145711 -0.370498 42 119 142
0.543172 -0.240186 0.008104 68 1 84
-0.052925 -0.275340 -0.325109 30 153 138
0.601586 -0.498514 0.106987 68 1 84
-0.193503 0.537134 -0.135536 31 148 139
0.524317 0.190824 0.131005 69 8 91
-0.063896 0.644215 -0.085657 37 130 142
0.519463 -0.423047 -0.084478 72 30 112
-0.187382 0.486697 -0.145845 33 140 141
0.078500 -0.265203 -0.238156 51 96 141
0.567875 0.102498 0.358666 68 1 84
-0.227867 0.413615 -0.136233 34 137 141
-0.336681 0.540869 0.107339 37 130 142
-0.502926 -0.404604 -0.117651 48 103 141
0.301853 0.249629 -0.138042 72 35 116
-0.538821 0.226705 0.425844 69 6 90
-0.076302 -0.166482 -0.357246 50 181 122
-0.582689 0.035875 0.290542 68 1 84
0.164280 0.445518 -0.137088 48 103 141
-0.562550 -0.152990 0.005026 68 1 84
-0.435975 0.022720 -0.127626 68 1 84
-0.207044 -0.136535 -0.197932 66 61 132
0.218675 0.606114 0.075050 32 145 140
0.596940 -0.023602 0.425104 68 1 84
-0.198153 0.427949 -0.152832 36 133 141
0.538703 0.144421 0.535906 68 1 84
-0.336292 -0.100907 -0.163987 70 45 124
0.661538 -0.294213 0.279468 68 1 84
0.435275 -0.189490 -0.109009 68 1 84
-0.517219 -0.329670 -0.012630 68 3 87
0.544221 0.026098 0.090287 68 1 84
0.170251 0.036706 -0.200844 68 1 84
-0.555853 0.116519 0.119525 68 1 84
-0.284407 -0.083625 -0.185051 71 24 106
-0.149886 0.321269 -0.233733 37 131 141
0.680070 -0.404805 0.406020 68 1 84
-0.021908 0.146152 -0.277385 69 52 127
-0.498055 0.267307 0.058995 70 49 126
0.650735 -0.506929 0.247341 68 1 84
0.103927 -0.427776 -0.333036 121 209 81
0.378793 0.428450 0.036116 58 82 139
-0.311017 0.000646 -0.191083 69 50 127
-0.137669 -0.055920 -0.348305 32 145 140
-0.546187 -0.412087 -0.036866 58 83 139
-0.520136 -0.216940 -0.037394 68 1 84
0.264896 0.387254 -0.088689 51 97 141
0.172300 0.513762 -0.112327 33 140 141
0.404322 0.238882 -0.058352 68 1 84
0.496426 0.319449 0.177631 71 38 118
0.333508 -0.271628 -0.170862 68 1 84
0.537418 0.229429 0.261671 70 14 97
0.023157 0.186175 -0.289368 57 84 139
-0.562515 0.188035 0.293041 68 3 87
-0.166777 0.072131 -0.287430 46 109 142
0.589027 -0.217948 0.085946 68 1 84
0.255028 0.591611 0.127813 30 151 138
-0.425754 -0.347488 -0.114138 59 81 138
-0.238372 -0.068655 -0.201868 70 47 124
-0.097132 -0.210810 -0.317889 30 151 138
0.124923 0.068438 -0.295765 65 65 134
-0.286043 0.558359 0.006149 32 145 140
0.455521 -0.308344 -0.071147 68 1 84
0.158602 -0.384681 -0.255183 68 190 112
0.426656 -0.023420 -0.125861 68 1 84
0.026917 0.235665 -0.288449 49 100 141
0.325049 0.268860 -0.116449 72 32 113
0.416484 -0.234812 -0.118727 68 1 84
-0.340333 0.505970 0.026793 38 127 142
0.127721 0.621576 -0.079876 33 140 141
0.360231 -0.324197 -0.153311 69 5 88
0.498823 0.058383 -0.011162 68 1 84
0.552893 0.176115 0.340915 68 1 84
0.151467 0.607450 -0.072229 33 142 140
0.586055 0.017799 0.401966 68 1 84
0.357683 -0.167850 -0.154891 68 1 84
-0.529302 -0.387061 -0.050405 63 71 136
-0.652487 -0.313824 0.321532 68 1 84
0.330250 0.068081 -0.177138 68 1 84
-0.568484 -0.117464 0.016768 68 1 84
-0.094794 -0.382862 -0.315092 112 206 86
-0.558643 0.080064 0.495936 68 1 84
-0.629017 -0.200140 0.492177 68 1 84
-0.295500 0.268700 -0.133783 64 68 135
-0.104530 -0.145316 -0.337266 30 158 136
-0.606727 -0.117246 0.433943 68 1 84
0.456030 0.304217 0.052338 71 24 106
0.524847 0.193422 0.134508 71 17 99
0.361868 0.387218 -0.022427 56 87 140
0.129071 0.035678 -0.309443 71 40 120
0.627106 -0.126800 0.501981 68 1 84
0.522557 0.269507 0.219849 71 38 118
-0.174201 -0.451446 -0.333552 253 231 36
-0.580317 0.052350 0.348353 68 1 84
-0.228586 -0.359472 -0.198300 34 138 141
0.619650 -0.468334 0.159231 68 1 84
0.127811 0.001668 -0.296501 71 43 122
-0.097242 -0.132763 -0.351769 32 165 133
-0.586948 -0.064838 0.088577 68 1 84
-0.351322 0.535902 0.160347 36 133 141
-0.063148 -0.424166 -0.341193 228 227 24
-0.130117 0.022396 -0.406980 33 167 132
0.478752 -0.476381 -0.179810 64 68 135
0.168126 0.604561 -0.053050 32 144 140
0.491028 0.349763 0.335131 63 69 135
-0.541500 0.128809 0.074058 68 1 84
-0.268868 -0.476675 -0.307511 253 231 36
0.215767 -0.374897 -0.234085 30 151 138
-0.596564 -0.064937 0.369715 68 1 84
0.286103 0.476780 -0.027812 41 120 142
0.623750 -0.112992 0.423712 68 1 84
0.608608 -0.400834 0.119418 68 1 84
0.178469 0.113846 -0.201508 71 20 102
-0.568596 0.086768 0.173238 68 1 84
0.472345 -0.314955 -0.054794 68 1 84
-0.436278 -0.521326 -0.223975 91 200 98
-0.523695 0.031351 -0.022064 68 1 84
0.377929 -0.023664 -0.158942 68 1 84
0.642530 -0.548652 0.227781 68 1 84
-0.474955 -0.462553 -0.186434 34 167 132
0.582962 -0.522755 0.049834 64 67 135
-0.583273 -0.042173 0.476167 68 1 84
0.401446 0.415545 0.058771 67 59 131
-0.586915 -0.020346 0.213519 68 1 84
-0.489616 0.327511 0.410615 70 49 126
0.472844 -0.286192 -0.052689 68 1 84
0.190034 0.479973 -0.106376 40 122 142
-0.627771 -0.206554 0.191558 68 1 84
0.576223 -0.486081 0.035403 68 1 84
0.692368 -0.584130 0.423576 68 1 84
0.594839 -0.260295 0.093040 68 1 84
0.395859 -0.270133 -0.136248 68 1 84
-0.487912 -0.382524 -0.118466 54 90 140
-0.518479 0.329233 0.199648 67 60 132
0.027654 -0.425430 -0.342268 199 224 31
-0.240480 0.506357 -0.099279 32 145 140
0.599111 -0.260038 0.102683 68 1 84
0.096196 0.569345 -0.161976 35 135 141
-0.541509 0.122532 0.069829 68 1 84
-0.032827 0.651323 -0.070173 41 121 142
0.376209 0.061810 -0.153913 68 1 84
