ply
format ascii 1.0
element vertex 1256
property float x
property float y
property float z
property uchar red
property uchar green
property uchar blue
end_header
0.614993 -0.268151 0.171237 60 77 138
0.143934 0.019962 -0.228072 68 1 84
0.563880 -0.280042 0.070308 70 45 124
-0.461836 -0.398022 -0.135833 69 6 90
-0.675573 -0.461758 0.504092 32 144 140
-0.607796 -0.497504 0.209542 45 111 142
-0.447448 -0.383787 -0.130959 68 1 84
0.213584 -0.396556 -0.255304 70 47 124
-0.167656 0.300197 -0.204316 91 200 98
0.612598 -0.256082 0.164685 67 60 132
0.344268 0.196034 -0.140731 60 78 138
-0.543024 0.250824 0.359638 68 1 84
0.608761 -0.073135 0.475115 54 90 140
-0.497927 -0.505887 -0.143058 71 20 102
-0.260480 -0.141378 -0.190378 68 1 84
-0.643394 -0.203252 0.530199 60 78 138
-0.637645 -0.114955 0.440568 56 86 139
-0.592826 -0.028774 0.167887 71 44 123
0.449646 -0.465419 -0.165811 68 1 84
0.638780 -0.303525 0.260208 41 121 142
-0.021673 -0.246459 -0.365649 68 1 84
0.364290 0.123384 -0.144220 72 29 111
0.641128 -0.223105 0.293161 38 129 142
-0.061633 0.627941 -0.087627 51 96 141
0.383322 -0.196574 -0.122039 68 1 84
-0.015507 -0.348162 -0.333521 68 1 84
0.387039 -0.371484 -0.155749 68 1 84
0.451415 -0.427785 -0.138792 68 1 84
-0.458094 -0.323462 -0.054630 68 1 84
-0.476926 0.276958 0.094091 68 1 84
-0.084537 -0.134844 -0.395295 68 1 84
-0.171677 0.265595 -0.189438 31 148 139
0.480451 -0.516551 -0.116084 68 1 84
-0.371642 -0.360215 -0.170965 68 1 84
0.497665 0.371145 0.262999 71 17 99
0.648987 -0.506922 0.424451 50 181 122
0.044095 -0.263963 -0.306865 68 1 84
-0.163547 -0.034642 -0.258104 49 100 141
0.022984 0.238720 -0.304029 51 182 121
0.528702 -0.146622 -0.017653 69 6 90
-0.332194 0.531044 0.149353 72 25 107
0.609816 -0.254138 0.157247 67 59 131
-0.110300 0.034165 -0.291632 37 130 142
0.487374 0.123466 0.001325 71 40 120
0.640675 -0.361676 0.342291 46 108 142
0.652230 -0.547717 0.434299 46 178 124
-0.331607 0.097442 -0.170014 67 58 131
0.215814 0.571503 -0.089376 42 118 142
-0.010736 -0.178336 -0.399419 68 1 84
-0.005770 0.281325 -0.267906 107 205 89
-0.050743 0.242087 -0.295411 151 216 62
-0.475728 0.302976 0.109202 68 1 84
-0.496445 -0.180475 -0.038726 72 26 108
0.243828 -0.145018 -0.203851 68 1 84
-0.558171 0.088964 0.151985 68 1 84
-0.605216 -0.002945 0.275068 71 37 117
-0.631072 -0.140532 0.277950 57 85 139
0.469036 -0.396895 -0.088648 72 33 114
0.139681 -0.176446 -0.237964 68 1 84
0.589643 -0.171214 0.099551 67 60 132
-0.011741 0.599047 -0.142243 47 106 141
0.559040 0.236975 0.356441 71 20 102
0.642113 -0.329173 0.410252 39 126 142
0.479591 0.400818 0.310951 69 5 88
-0.528427 -0.063533 -0.013465 70 11 94
0.627694 -0.064123 0.399677 47 106 141
-0.372055 -0.496342 -0.269712 68 1 84
-0.165471 -0.124887 -0.237362 68 1 84
-0.478209 -0.226795 -0.033832 72 30 112
0.079754 -0.340579 -0.242814 68 1 84
-0.628158 -0.226271 0.211297 54 90 140
-0.122808 0.526207 -0.165872 33 166 133
-0.104926 0.087751 -0.283265 38 127 142
0.287482 -0.153747 -0.181842 68 1 84
0.138873 0.173987 -0.286224 32 143 140
0.587849 0.103257 0.306046 71 17 99
0.591081 -0.033025 0.180009 71 37 117
0.070344 -0.278177 -0.233977 68 1 84
0.102543 0.116356 -0.293492 55 89 140
0.581301 -0.212366 0.085925 51 96 141
-0.485843 -0.255464 -0.016875 71 21 103
0.278025 0.043625 -0.212358 72 28 110
-0.106105 -0.273272 -0.256158 68 1 84
-0.465094 0.343546 0.123924 68 1 84
0.233992 -0.386520 -0.223270 68 1 84
-0.572691 -0.505601 0.089614 59 81 138
0.386513 0.104148 -0.129635 71 18 101
-0.645841 -0.305676 0.451576 43 115 142
0.225114 0.603162 0.003756 44 112 142
-0.584493 0.111404 0.337539 68 1 84
0.541856 0.183499 0.142537 71 22 105
0.382911 0.490301 0.163110 70 45 124
0.631626 -0.279862 0.503861 31 150 139
-0.605013 -0.258544 0.137449 44 112 142
-0.447347 0.422121 0.262456 68 1 84
0.311888 -0.135556 -0.177152 68 1 84
-0.009882 -0.108669 -0.451192 68 1 84
0.426953 -0.523194 -0.194979 68 1 84
-0.439658 -0.204416 -0.076714 70 11 94
0.172324 -0.244481 -0.181707 68 1 84
0.409265 -0.204571 -0.100509 68 1 84
-0.494160 -0.526655 -0.146514 70 12 95
-0.563326 0.122492 0.521941 70 48 125
0.634122 -0.528813 0.351050 35 169 130
-0.644025 -0.180151 0.367020 52 94 141
0.494739 -0.004579 -0.039096 68 1 84
-0.481141 0.372366 0.260693 68 1 84
0.360471 -0.335453 -0.144495 68 1 84
-0.074710 0.338851 -0.258902 215 226 25
-0.471181 0.369373 0.185346 68 1 84
-0.668587 -0.424026 0.477656 31 150 139
0.512144 0.070382 0.015472 72 33 114
-0.640811 -0.144329 0.433811 53 92 140
0.123695 -0.066173 -0.315887 68 1 84
0.613163 -0.438883 0.230633 40 122 142
-0.640418 -0.211887 0.517909 55 89 140
0.608400 -0.016967 0.289043 71 44 123
-0.367722 0.250658 -0.085961 72 28 110
-0.493048 -0.471888 -0.150884 68 3 87
0.280439 0.549800 -0.022851 38 129 142
-0.644179 -0.141303 0.512556 68 55 129
0.112716 -0.201499 -0.249169 68 1 84
-0.562173 -0.446010 0.031521 61 74 137
0.055351 0.488980 -0.202748 36 134 141
-0.584639 -0.127848 0.077168 69 54 129
0.045190 0.062239 -0.313768 52 95 141
0.528343 -0.402790 0.012267 69 52 127
0.608880 -0.084992 0.227132 61 76 137
-0.524806 0.243703 0.531419 68 1 84
-0.020584 0.165164 -0.320889 31 163 134
-0.496959 0.176692 0.067105 68 1 84
-0.646415 -0.234168 0.316950 46 108 142
-0.597583 0.053063 0.312947 68 2 85
-0.077720 0.032379 -0.402069 48 104 141
0.634196 -0.379252 0.292648 39 126 142
-0.058385 -0.102001 -0.439639 68 1 84
-0.074727 0.571631 -0.165791 30 158 136
0.199309 0.249169 -0.187850 35 136 141
0.479205 0.092640 -0.023945 72 33 114
-0.080190 -0.060487 -0.453276 68 1 84
0.656697 -0.464350 0.482454 31 150 139
-0.349957 0.348820 -0.057107 64 67 135
0.238140 -0.056471 -0.221994 68 1 84
0.027671 -0.317548 -0.315478 68 1 84
-0.458190 -0.487305 -0.192963 68 1 84
0.616979 -0.495629 0.276793 32 144 140
0.041054 0.053022 -0.320751 66 61 132
-0.566776 -0.517380 0.068618 53 92 140
-0.065168 0.023779 -0.457580 64 67 135
0.586327 0.118728 0.370915 69 8 91
0.249742 -0.345303 -0.180342 68 1 84
-0.164337 -0.171295 -0.235403 68 1 84
-0.255685 -0.100991 -0.200109 70 12 95
-0.523038 -0.106380 -0.028047 71 44 123
0.339509 0.071038 -0.177598 68 1 84
0.274442 -0.181775 -0.177428 68 1 84
0.177747 -0.051790 -0.227839 68 1 84
0.065289 0.133765 -0.321550 33 141 140
-0.114556 0.048907 -0.259091 46 107 142
0.358971 0.499921 0.073776 54 91 140
-0.676299 -0.503433 0.497246 33 142 140
-0.442493 0.365988 0.093747 68 1 84
-0.448715 0.105697 -0.049469 68 1 84
0.604513 -0.050124 0.470991 54 90 140
-0.287085 -0.317952 -0.170394 68 1 84
-0.206885 -0.040923 -0.212213 46 109 142
-0.079075 0.032323 -0.418327 51 97 141
0.278813 0.098404 -0.201919 69 5 88
0.150725 0.235177 -0.253241 35 168 131
-0.408274 0.356319 0.025693 68 1 84
0.500696 0.185751 0.054026 71 38 118
0.307187 0.483909 -0.043599 35 135 141
0.429955 0.451100 0.211828 71 24 106
-0.138333 0.251373 -0.235005 131 211 75
-0.516895 0.282504 0.205871 68 1 84
0.223674 0.196232 -0.229364 54 90 140
-0.268378 -0.161487 -0.178847 68 1 84
0.139497 0.150940 -0.280994 39 125 142
-0.580177 -0.482769 0.115331 47 105 141
-0.602947 -0.019968 0.541970 71 20 102
0.579895 0.151249 0.434936 71 24 106
0.622534 -0.404883 0.243109 47 106 141
0.573204 0.078492 0.178515 70 48 125
-0.499042 0.332504 0.464560 68 1 84
-0.433232 0.248239 0.001307 68 1 84
-0.586174 0.102348 0.415912 68 1 84
-0.267408 -0.301767 -0.168641 68 1 84
0.288592 0.548814 -0.008734 39 126 142
-0.321491 0.370088 -0.073675 65 65 134
0.187453 0.057823 -0.220253 67 60 132
0.360250 0.189568 -0.128461 72 35 116
-0.473899 0.385757 0.319192 68 1 84
-0.073003 0.193467 -0.312967 40 174 127
0.576053 -0.548325 0.149237 58 83 139
-0.423334 0.125925 -0.077466 70 12 95
-0.656211 -0.485633 0.402277 31 146 140
-0.080336 0.383252 -0.211549 51 182 121
-0.600202 -0.426716 0.160523 47 106 141
-0.000918 0.064160 -0.380475 46 107 142
0.285097 0.391303 -0.110887 35 135 141
0.526648 0.090514 0.052527 69 6 90
-0.638778 -0.355231 0.259619 43 115 142
-0.404340 0.450105 0.136895 68 1 84
0.446497 0.136725 -0.052565 72 30 112
0.181623 0.558613 -0.133243 48 104 141
0.045584 -0.011503 -0.465225 68 1 84
-0.267766 -0.076751 -0.200836 68 1 84
-0.606369 -0.019515 0.499477 71 40 120
0.611335 -0.369389 0.184682 44 112 142
0.437801 0.433943 0.182022 71 20 102
-0.446993 -0.518273 -0.202921 68 1 84
0.612755 -0.290542 0.167821 65 65 134
-0.168812 0.214572 -0.255929 32 165 133
0.247530 -0.343243 -0.180342 68 1 84
0.375864 0.044539 -0.155378 68 1 84
-0.660179 -0.350320 0.504665 48 104 141
0.542196 0.227277 0.520746 72 25 107
0.062016 -0.170421 -0.357200 68 1 84
0.427351 -0.007415 -0.113548 68 1 84
0.139252 0.624273 -0.065042 41 120 142
0.109782 0.012559 -0.373662 71 43 122
0.576658 0.169313 0.396951 69 6 90
0.493442 -0.140182 -0.059716 68 1 84
0.560807 0.213822 0.450643 72 32 113
-0.525369 0.283781 0.412851 68 1 84
-0.580186 -0.207943 0.077352 61 75 137
0.591523 -0.061920 0.150853 69 50 127
0.565147 0.209453 0.291428 69 6 90
-0.647223 -0.315330 0.460421 42 117 142
-0.222311 0.237827 -0.191332 30 160 135
-0.647255 -0.227103 0.394815 44 113 142
0.568511 0.031499 0.128276 70 45 124
0.607176 -0.388949 0.180946 51 97 141
-0.005124 -0.035843 -0.482743 68 1 84
0.557855 -0.474714 0.088634 49 100 141
-0.468764 0.351031 0.144462 68 1 84
0.036026 -0.162517 -0.393971 68 1 84
0.462993 0.389521 0.149568 72 33 114
0.198308 0.252786 -0.175801 31 161 135
-0.488282 0.254889 0.102245 68 1 84
0.312500 0.162910 -0.172610 66 61 132
-0.429608 0.387899 0.090521 68 1 84
0.395888 -0.198976 -0.112416 68 1 84
-0.225626 -0.248493 -0.167773 68 1 84
0.588122 -0.467935 0.164296 40 122 142
-0.122691 0.433275 -0.169347 40 122 142
-0.107688 0.247802 -0.261672 199 224 31
-0.026967 0.053687 -0.434730 51 97 141
-0.247695 0.592090 0.012850 64 67 135
-0.285086 -0.220385 -0.158769 68 1 84
-0.390751 0.196905 -0.086278 72 33 114
-0.608571 0.006605 0.326177 70 47 124
0.581764 -0.141775 0.079679 72 30 112
-0.222973 0.397163 -0.129878 40 122 142
-0.367551 0.353209 -0.032429 72 32 113
-0.200042 0.327144 -0.167156 30 151 138
-0.013887 -0.285857 -0.347253 68 1 84
0.566115 0.208849 0.371468 69 6 90
-0.638171 -0.399145 0.292734 40 122 142
0.104202 -0.147935 -0.287354 68 1 84
0.616397 -0.254279 0.175579 60 78 138
0.586996 0.019938 0.496682 67 58 131
0.240985 0.298845 -0.146802 34 137 141
0.574186 -0.531380 0.146199 44 112 142
0.245346 0.457634 -0.115016 46 109 142
0.350632 -0.260114 -0.146411 68 1 84
0.352936 -0.420729 -0.226129 67 60 132
0.604075 -0.011078 0.446385 50 98 141
-0.619607 -0.353179 0.193377 46 109 142
0.030413 -0.194788 -0.374496 68 1 84
-0.478397 0.309122 0.120816 68 1 84
-0.233354 0.416828 -0.119805 37 130 142
0.249475 0.594853 0.032780 61 74 137
0.146800 -0.320439 -0.162460 68 1 84
-0.544495 0.232156 0.444618 72 29 111
-0.572297 0.071549 0.194273 68 1 84
-0.643048 -0.488123 0.347117 31 146 140
-0.259753 -0.297222 -0.167924 68 1 84
-0.503592 -0.236210 -0.007716 72 32 113
-0.631552 -0.238597 0.220201 55 88 140
0.307378 -0.303210 -0.178911 68 1 84
-0.229508 -0.065093 -0.211657 71 17 99
0.641961 -0.321301 0.500492 30 155 137
-0.352544 0.497392 0.084362 72 29 111
-0.156184 -0.356289 -0.248848 68 1 84
0.045045 0.438461 -0.204065 30 153 138
-0.306096 0.311414 -0.111524 69 54 129
0.479844 0.141017 -0.002028 72 32 113
-0.390209 -0.131466 -0.135200 69 53 128
0.126254 0.522453 -0.175343 51 96 141
-0.200378 0.139087 -0.232094 34 139 141
0.251824 0.087522 -0.209449 68 1 84
-0.277520 -0.397472 -0.252030 68 1 84
-0.072609 -0.206527 -0.363849 68 1 84
-0.309084 0.105784 -0.178186 57 85 139
-0.083298 0.601610 -0.131488 40 123 142
-0.071429 -0.146439 -0.398187 68 1 84
-0.488418 0.136723 0.030165 68 1 84
0.153677 -0.111055 -0.238703 70 9 92
-0.048885 0.413833 -0.198548 35 169 130
0.477997 0.119837 -0.014158 71 15 98
-0.485968 0.023591 -0.030394 68 1 84
0.142384 0.064843 -0.234647 68 55 129
-0.635528 -0.183013 0.269925 55 89 140
-0.597997 0.063270 0.410585 68 1 84
0.561461 0.228392 0.355918 70 11 94
-0.612528 0.011767 0.378099 71 22 105
-0.577613 0.134325 0.318121 68 1 84
-0.298933 -0.309750 -0.169912 68 1 84
0.562487 0.216725 0.282413 70 11 94
-0.501862 0.196374 0.088435 68 1 84
-0.404441 0.462253 0.187123 69 5 88
0.119764 0.141910 -0.290330 34 137 141
0.047083 -0.274026 -0.293037 68 1 84
0.217821 0.553830 -0.103643 45 110 142
-0.604711 -0.188024 0.135865 59 81 138
0.141864 0.290907 -0.222410 34 167 132
-0.482852 -0.389700 -0.103147 68 1 84
-0.581273 0.113945 0.438697 68 2 85
0.532960 0.176037 0.116656 71 43 122
-0.394824 0.302323 -0.026557 71 17 99
-0.338917 0.205782 -0.130821 69 50 127
0.348592 0.379576 -0.063115 50 99 141
0.042177 -0.369112 -0.328826 68 1 84
0.168436 -0.284365 -0.170617 68 1 84
0.081134 -0.208627 -0.285586 68 1 84
0.108385 0.559924 -0.166040 58 82 139
-0.565721 -0.135667 0.036836 71 43 122
0.587626 -0.284849 0.110767 70 45 124
0.484688 -0.035555 -0.059888 68 1 84
-0.082508 -0.007058 -0.459192 70 47 124
-0.543288 0.220455 0.485536 68 1 84
-0.567756 -0.139482 0.040819 71 43 122
-0.430933 -0.361024 -0.123610 68 1 84
-0.012086 0.051280 -0.439811 58 82 139
0.204013 0.249672 -0.183123 36 133 141
-0.227819 0.607670 0.012570 70 45 124
-0.557372 0.113706 0.172322 71 43 122
-0.519415 -0.034011 -0.013931 69 8 91
0.497050 0.353238 0.210674 70 9 92
-0.255202 -0.389326 -0.243250 68 1 84
-0.124452 0.119536 -0.285499 39 125 142
0.114155 0.291171 -0.243146 47 179 123
-0.557678 0.134841 0.191509 68 1 84
-0.516609 0.307410 0.282139 68 1 84
0.546686 -0.479902 0.063320 47 105 141
0.082427 0.605363 -0.134160 45 110 142
-0.040194 -0.281141 -0.349922 68 1 84
0.049125 -0.052653 -0.459764 68 1 84
0.465615 0.418140 0.275301 70 14 97
0.141040 0.020139 -0.310355 68 1 84
0.372115 0.420351 -0.001504 46 108 142
-0.149820 0.283358 -0.216885 119 208 82
-0.329268 -0.252054 -0.157735 68 1 84
0.602906 -0.063326 0.491109 55 89 140
-0.340969 0.525982 0.222635 68 1 84
-0.605029 0.009992 0.454778 70 45 124
0.147456 -0.195236 -0.225432 68 1 84
-0.367218 -0.414849 -0.231267 68 1 84
0.464862 0.090603 -0.044264 72 25 107
-0.242489 0.601686 0.056097 69 50 127
-0.625220 -0.405883 0.237254 44 114 142
-0.098350 0.093196 -0.293644 38 129 142
0.420576 -0.146044 -0.116540 68 1 84
-0.157307 -0.048268 -0.281385 47 106 141
0.562858 0.154241 0.189556 70 9 92
0.295745 -0.123944 -0.187790 68 1 84
0.144286 0.307926 -0.222511 37 171 129
-0.264264 -0.168854 -0.178123 68 1 84
0.129293 -0.002204 -0.353639 68 1 84
-0.494298 0.273770 0.128247 68 1 84
-0.065624 0.090956 -0.312534 38 129 142
0.385840 0.350167 -0.035966 62 73 137
0.582198 0.107723 0.255147 70 9 92
0.422512 0.318546 -0.001337 71 43 122
-0.497947 0.206267 0.087287 68 1 84
-0.410414 0.429170 0.106020 68 1 84
0.482078 -0.324403 -0.013752 71 20 102
-0.157269 -0.346114 -0.207813 68 1 84
0.602354 -0.120791 0.156831 59 81 138
-0.095250 -0.210078 -0.326687 68 1 84
-0.561098 0.195073 0.387836 68 1 84
-0.253452 0.501690 -0.074260 69 53 128
-0.189011 0.333001 -0.178016 36 170 130
-0.605328 0.037034 0.369332 68 1 84
0.594342 -0.010598 0.211781 65 65 134
0.501454 0.237902 0.085122 71 15 98
-0.010648 -0.071671 -0.470037 68 1 84
-0.647492 -0.317651 0.452326 42 119 142
-0.475057 -0.332015 -0.044869 68 1 84
-0.434876 0.061619 -0.085234 71 21 103
-0.647235 -0.227351 0.396359 44 113 142
0.473963 0.380065 0.168210 71 37 117
-0.326587 -0.101042 -0.170554 69 5 88
0.573449 -0.284565 0.086528 72 33 114
0.156483 0.275065 -0.204057 35 168 131
-0.098470 0.018680 -0.406734 47 106 141
-0.606707 -0.099928 0.170153 58 83 139
-0.650075 -0.170779 0.522294 62 72 136
0.584452 0.088059 0.245401 70 12 95
-0.500781 -0.003456 -0.023918 70 11 94
0.591100 -0.037306 0.175718 70 47 124
-0.220893 0.183878 -0.220923 33 142 140
-0.222123 -0.162768 -0.201311 68 1 84
0.641664 -0.332852 0.311847 41 121 142
0.641834 -0.362482 0.358959 40 123 142
0.339892 0.002661 -0.187629 68 1 84
-0.384795 0.487347 0.290156 68 1 84
0.464327 0.419864 0.275662 70 11 94
-0.029543 -0.140981 -0.422606 68 1 84
-0.673252 -0.466069 0.476213 31 162 134
-0.596761 0.064519 0.418471 70 9 92
0.020472 0.111329 -0.325351 35 135 141
-0.483543 0.129333 0.018327 68 1 84
0.123126 -0.215928 -0.229403 68 1 84
-0.548765 -0.022930 0.038864 72 29 111
-0.470724 -0.175666 -0.062987 72 30 112
-0.399321 0.049962 -0.128615 71 37 117
-0.455976 0.407473 0.227134 68 1 84
0.445608 -0.013700 -0.095775 68 1 84
-0.304716 0.501862 -0.012124 69 53 128
0.522224 0.249258 0.145942 69 5 88
0.520475 0.315781 0.450877 69 5 88
0.186984 0.135194 -0.246218 64 67 135
0.626012 -0.375791 0.231909 40 122 142
0.143663 -0.180822 -0.233767 68 1 84
0.272419 -0.338565 -0.177482 68 1 84
0.575487 0.171463 0.348239 68 1 84
-0.636277 -0.232646 0.481612 48 104 141
-0.164706 0.520991 -0.139680 35 135 141
0.028778 0.311891 -0.273838 157 217 58
0.313820 0.499862 -0.022090 39 126 142
0.010021 0.017583 -0.473471 71 38 118
-0.461248 0.404549 0.267877 68 1 84
0.185272 0.256209 -0.181596 30 153 138
0.308067 0.126149 -0.182531 68 1 84
0.626521 -0.115254 0.287747 57 84 139
0.520129 0.313002 0.459699 70 9 92
0.057804 0.378811 -0.224213 62 188 115
-0.163839 -0.388786 -0.339668 68 1 84
-0.375175 0.155505 -0.119473 71 17 99
-0.375845 -0.051983 -0.152625 71 44 123
-0.152462 0.360688 -0.196462 159 217 56
-0.637130 -0.473822 0.322521 37 131 141
0.341992 0.270264 -0.120577 63 69 135
-0.358798 -0.305594 -0.158469 68 1 84
-0.331002 0.436133 -0.023169 70 48 125
0.001589 -0.118769 -0.441605 68 1 84
-0.183405 0.286927 -0.178075 35 137 141
0.568756 0.029983 0.127930 72 33 114
-0.578363 0.135269 0.332079 68 1 84
-0.138535 -0.150145 -0.271350 68 1 84
-0.239508 -0.189376 -0.181612 68 1 84
-0.537868 -0.380605 0.005011 70 48 125
-0.237070 0.410759 -0.118739 41 121 142
-0.498463 0.343308 0.369943 68 1 84
-0.247886 0.166243 -0.199533 32 143 140
0.168505 -0.279184 -0.172419 68 1 84
-0.273061 -0.363782 -0.182739 68 1 84
0.608585 -0.080972 0.529914 71 39 119
0.639832 -0.493643 0.382319 50 181 122
0.462788 0.412920 0.221205 72 28 110
-0.321812 -0.400840 -0.241652 68 1 84
0.554749 -0.501405 0.088100 49 102 141
0.451257 -0.408068 -0.125490 68 1 84
0.538938 0.289250 0.312928 70 11 94
0.631952 -0.106989 0.411766 48 103 141
0.446940 -0.481468 -0.175625 68 1 84
-0.647007 -0.230742 0.401370 43 116 142
0.427523 -0.265739 -0.066742 68 1 84
-0.362905 -0.386421 -0.209913 68 1 84
-0.196185 -0.374270 -0.252853 68 1 84
0.040227 0.449774 -0.205891 31 161 135
0.429413 -0.008272 -0.111526 68 1 84
-0.316341 0.356393 -0.085953 53 93 140
0.091811 0.152383 -0.308514 34 138 141
0.443774 0.414422 0.143430 70 47 124
-0.528164 0.250468 0.514539 68 1 84
-0.321733 0.541020 0.188567 68 1 84
-0.046534 -0.102341 -0.444869 68 1 84
0.578587 0.105347 0.470486 69 52 127
-0.228491 0.547093 -0.076794 52 94 141
-0.408603 -0.091181 -0.129068 71 39 119
0.289627 0.109211 -0.195870 69 5 88
-0.133939 0.211873 -0.280614 96 201 96
0.587382 0.035391 0.215101 71 40 120
0.303012 -0.023090 -0.205848 68 1 84
-0.644006 -0.259336 0.268137 51 96 141
0.192639 0.068671 -0.221405 70 49 126
0.592314 -0.236165 0.112828 54 91 140
-0.448602 -0.504926 -0.201345 68 1 84
-0.442510 0.419349 0.407622 68 1 84
-0.561018 0.098139 0.172592 69 5 88
-0.554058 0.167413 0.513130 72 30 112
-0.022100 0.623135 -0.101540 49 100 141
0.461375 -0.017165 -0.080426 68 1 84
0.563255 -0.037521 0.063955 71 22 105
0.189378 0.542122 -0.136317 41 120 142
0.025203 0.044148 -0.397095 66 62 133
-0.465795 -0.330778 -0.052823 68 1 84
0.520330 -0.167848 -0.023306 72 34 115
0.463559 0.380076 0.135839 71 42 121
0.090630 0.102941 -0.295476 55 89 140
0.014543 0.524395 -0.190451 46 109 142
-0.648218 -0.276421 0.316663 49 100 141
0.422060 -0.088783 -0.124257 68 1 84
0.490371 -0.305641 -0.003876 71 18 101
0.233554 -0.385319 -0.215871 68 1 84
0.652596 -0.556500 0.441460 39 173 128
-0.369087 0.303396 -0.060160 71 43 122
0.159421 0.251254 -0.219394 35 169 130
0.583049 -0.064306 0.107884 67 58 131
0.549578 0.032172 0.068332 72 30 112
-0.124036 0.439669 -0.167862 39 125 142
-0.021698 0.132562 -0.323014 42 117 142
-0.647820 -0.173034 0.532513 66 64 133
-0.160651 0.062802 -0.220159 35 137 141
-0.420562 -0.308482 -0.097185 68 1 84
0.079478 0.323593 -0.262179 151 216 62
0.032715 -0.386812 -0.343927 68 1 84
-0.375228 0.330567 -0.037061 68 1 84
0.167251 -0.366624 -0.187748 68 1 84
-0.155226 0.437907 -0.153184 53 92 140
-0.021806 -0.322673 -0.335820 68 1 84
-0.667644 -0.419616 0.475462 37 131 141
-0.560817 0.013100 0.087217 70 14 97
-0.246320 -0.219270 -0.167530 68 1 84
-0.317174 0.376333 -0.074204 70 49 126
-0.626092 -0.278803 0.193176 51 97 141
-0.202138 -0.368413 -0.218105 68 1 84
0.626917 -0.367997 0.230539 45 110 142
0.655048 -0.445832 0.478669 47 179 123
-0.635773 -0.119967 0.341116 47 105 141
0.603569 0.024495 0.316947 71 21 103
0.487139 0.073984 -0.020811 71 17 99
-0.100325 0.519350 -0.180368 31 163 134
-0.167118 0.133056 -0.253950 32 143 140
0.333189 0.045531 -0.187221 68 1 84
0.134119 0.222024 -0.277042 30 153 138
0.000801 -0.013649 -0.484539 70 14 97
0.467859 -0.457841 -0.136525 68 1 84
-0.274959 0.518577 -0.041699 66 62 133
0.566707 -0.042451 0.069767 70 9 92
0.403855 0.207277 -0.077380 72 32 113
-0.067596 -0.440502 -0.357391 68 1 84
0.568611 -0.289032 0.079717 72 35 116
0.027103 -0.301253 -0.318754 68 1 84
-0.110580 0.020540 -0.376065 46 109 142
-0.645022 -0.442124 0.358647 38 128 142
-0.128425 0.634658 -0.043911 64 68 135
-0.371265 0.248007 -0.083476 71 40 120
0.453464 0.430186 0.311741 68 1 84
-0.104681 0.388565 -0.199866 37 171 129
-0.101188 0.001022 -0.430121 71 44 123
-0.307459 -0.026279 -0.194010 62 73 137
-0.536853 0.147667 0.133010 68 3 87
-0.250547 0.229273 -0.181711 44 112 142
-0.221680 0.610520 0.006750 69 50 127
0.569274 0.198331 0.325984 69 5 88
-0.463489 -0.252588 -0.038754 70 14 97
0.062345 -0.266106 -0.258890 68 1 84
-0.322415 0.128865 -0.166132 72 35 116
-0.517932 0.256018 0.538433 68 1 84
-0.193755 0.114983 -0.226552 34 137 141
-0.193650 0.620658 -0.013425 69 50 127
0.286170 -0.274928 -0.180316 69 5 88
-0.415455 0.362337 0.041322 68 1 84
-0.364785 -0.195902 -0.130763 68 1 84
0.304613 -0.444825 -0.269054 66 64 133
0.141294 0.544885 -0.161627 46 107 142
-0.015757 -0.203409 -0.386521 68 1 84
-0.189408 -0.167192 -0.216836 68 1 84
0.218456 0.256477 -0.165484 38 127 142
-0.343847 0.523589 0.174414 70 11 94
0.587121 -0.368155 0.125442 62 72 136
-0.037404 0.634797 -0.067374 49 100 141
0.601467 -0.014630 0.455706 53 93 140
-0.369473 -0.336399 -0.153543 68 1 84
0.477931 -0.044422 -0.069495 68 1 84
-0.066679 -0.389724 -0.345553 68 1 84
-0.245793 0.595044 0.018409 59 80 138
-0.612700 -0.480055 0.225489 44 114 142
-0.510182 -0.521101 -0.120930 69 52 127
0.467428 -0.533540 -0.135865 68 1 84
0.023836 -0.419312 -0.355608 68 1 84
0.542494 -0.452799 0.046238 56 86 139
0.584360 0.045597 0.206047 72 30 112
-0.140140 0.626143 -0.060545 57 85 139
-0.169767 0.331168 -0.198530 154 216 60
-0.307818 -0.223303 -0.153204 68 1 84
-0.647318 -0.340124 0.307830 48 103 141
-0.317657 -0.108170 -0.173185 68 1 84
-0.078632 -0.206237 -0.356979 68 1 84
0.488888 0.200684 0.040871 63 69 135
0.369652 0.212094 -0.112281 66 61 132
-0.476700 0.379985 0.344520 68 1 84
-0.150170 -0.351905 -0.241603 68 1 84
0.515477 0.320856 0.463661 68 1 84
-0.561744 0.169583 0.255565 68 1 84
-0.169222 0.052131 -0.212470 45 111 142
0.571283 -0.240631 0.073650 57 84 139
0.178514 0.396894 -0.162684 43 115 142
-0.552960 0.214778 0.419064 68 1 84
-0.376680 0.463646 0.082615 71 21 103
0.078833 0.391972 -0.207869 31 161 135
-0.218626 0.594916 -0.040665 65 66 134
0.525343 0.237056 0.142858 72 26 108
-0.387873 -0.501502 -0.258126 68 1 84
0.457310 -0.460717 -0.152790 68 1 84
-0.636578 -0.088086 0.411205 56 86 139
0.100676 -0.122546 -0.315419 68 1 84
0.459283 -0.401709 -0.108139 71 15 98
-0.310374 0.530709 0.037130 50 99 141
0.642350 -0.239537 0.293774 44 112 142
0.473497 -0.045841 -0.074001 68 1 84
0.348667 -0.484465 -0.260200 69 50 127
-0.044672 0.333033 -0.269513 253 231 36
-0.584871 -0.005208 0.155662 72 30 112
-0.579789 0.066285 0.520877 71 39 119
0.199852 -0.206683 -0.194211 68 1 84
0.505088 0.341619 0.217146 68 1 84
0.597063 -0.031894 0.527054 69 54 129
-0.407170 -0.003339 -0.129361 66 64 133
-0.037673 -0.163416 -0.405203 68 1 84
-0.436970 0.425825 0.202388 68 1 84
-0.645682 -0.287598 0.507734 49 101 141
0.317772 0.288189 -0.134970 46 107 142
-0.102099 0.595799 -0.132414 43 116 142
0.369894 0.506055 0.205343 72 35 116
0.392906 0.168389 -0.105022 70 47 124
0.481905 0.119701 -0.008432 71 15 98
0.497177 -0.458275 -0.081160 72 35 116
0.575809 0.127138 0.233043 65 65 134
0.533757 -0.505718 0.037775 58 83 139
0.605251 -0.292033 0.149733 68 57 130
-0.473776 0.003706 -0.054562 68 1 84
0.193894 -0.385996 -0.219979 68 1 84
0.061810 0.309267 -0.269168 157 217 58
-0.417134 0.378643 0.057112 68 1 84
-0.214317 -0.108583 -0.213235 68 1 84
-0.603686 0.019243 0.298046 70 47 124
0.060208 -0.133369 -0.399757 68 1 84
-0.114706 0.153784 -0.300547 36 133 141
0.059711 0.017039 -0.423023 72 35 116
0.149652 0.223586 -0.267069 30 155 137
-0.203306 0.350749 -0.157314 31 146 140
-0.647814 -0.178515 0.516389 58 82 139
-0.581924 -0.438467 0.110019 54 91 140
-0.339491 0.396251 -0.038764 71 44 123
-0.467036 -0.021680 -0.070753 68 1 84
0.415462 -0.425282 -0.179883 68 1 84
0.139351 -0.097621 -0.247374 68 1 84
0.131693 -0.277329 -0.180604 68 1 84
0.310085 -0.234895 -0.158897 68 1 84
-0.185252 0.268132 -0.168162 32 143 140
0.075119 0.605632 -0.136343 46 108 142
-0.426869 0.082862 -0.088039 70 11 94
-0.674963 -0.518394 0.514876 38 128 142
-0.118124 -0.142009 -0.328760 68 1 84
0.416178 -0.249867 -0.081189 68 1 84
0.468325 0.407248 0.375366 69 5 88
-0.303432 0.555766 0.142778 69 8 91
-0.475408 0.176413 0.029789 68 1 84
-0.255701 -0.320866 -0.165798 68 1 84
-0.310996 0.433549 -0.047357 70 45 124
-0.300901 -0.259647 -0.166912 68 1 84
0.367281 0.310083 -0.077391 52 94 141
-0.593538 -0.269631 0.114077 49 101 141
0.514754 0.004152 -0.008901 68 1 84
-0.571217 -0.115218 0.047274 72 33 114
-0.642027 -0.274121 0.508078 49 101 141
-0.579411 0.130106 0.330410 68 1 84
0.578845 0.156403 0.333085 68 3 87
0.498679 -0.474422 -0.079849 71 24 106
-0.600703 0.053069 0.355758 68 1 84
0.532471 0.031997 0.032655 71 15 98
0.510673 0.350920 0.387266 68 1 84
0.605383 -0.024862 0.451115 52 94 141
0.631639 -0.526891 0.342319 35 168 131
0.400772 -0.059862 -0.140106 68 1 84
-0.442669 0.420362 0.209399 68 1 84
0.052036 -0.223564 -0.323744 68 1 84
0.644263 -0.275699 0.322193 38 127 142
0.633542 -0.577021 0.351760 32 143 140
0.195570 0.182963 -0.247367 49 100 141
0.415579 0.295288 -0.022065 71 43 122
-0.487287 0.350459 0.467993 68 1 84
0.548024 -0.285620 0.049037 71 21 103
0.597709 0.053176 0.420606 66 62 133
0.633494 -0.365065 0.265850 44 114 142
0.078242 -0.002951 -0.425036 71 17 99
0.293231 0.561930 0.050063 54 90 140
0.631389 -0.181684 0.492679 46 107 142
-0.219317 0.613929 0.030060 65 66 134
0.080871 -0.360734 -0.303136 68 1 84
-0.419510 -0.353452 -0.130166 68 1 84
0.012146 0.528424 -0.188662 46 107 142
0.265059 -0.379488 -0.195551 68 1 84
0.089408 0.621549 -0.105595 42 117 142
-0.398000 -0.324680 -0.128492 68 1 84
-0.415413 -0.487872 -0.233285 68 1 84
0.005951 -0.074961 -0.466137 68 1 84
0.129707 -0.279740 -0.180123 68 1 84
0.597923 0.020236 0.258752 64 67 135
0.419413 0.465414 0.246903 69 8 91
-0.177263 0.029914 -0.205918 51 97 141
0.604028 -0.021792 0.452950 51 96 141
0.627385 -0.152794 0.258703 66 61 132
-0.104740 0.025034 -0.349144 48 104 141
0.422057 0.042358 -0.108709 68 1 84
0.649662 -0.437122 0.436327 43 177 125
-0.604872 -0.414960 0.170123 45 110 142
0.116091 0.108977 -0.279906 42 117 142
0.523742 -0.102884 -0.026436 71 17 99
0.080318 0.121553 -0.310647 35 137 141
-0.434505 0.437364 0.251032 68 1 84
0.486849 0.260377 0.070941 71 17 99
-0.019646 -0.360350 -0.334842 68 1 84
0.450757 0.411353 0.160351 70 14 97
0.518667 0.052083 0.017904 70 14 97
-0.069606 0.158391 -0.320158 31 150 139
0.061481 0.022369 -0.309601 59 80 138
-0.535564 0.270298 0.326617 68 1 84
-0.552298 -0.459696 -0.006398 60 78 138
-0.155161 -0.345775 -0.209566 68 1 84
0.040292 0.269336 -0.269118 107 205 89
-0.637333 -0.218508 0.498177 46 109 142
-0.138304 0.141295 -0.281062 36 133 141
0.067059 0.573344 -0.167508 46 108 142
-0.090228 0.208051 -0.303069 40 174 127
-0.139147 -0.338569 -0.217948 68 1 84
0.514589 0.297916 0.180584 68 1 84
-0.629112 -0.110647 0.300319 49 100 141
0.129618 -0.122397 -0.256131 68 1 84
-0.544203 -0.203025 0.020487 69 53 128
-0.643220 -0.288734 0.257623 53 93 140
0.038011 -0.361938 -0.324585 68 1 84
-0.524998 -0.493739 -0.101084 67 60 132
0.440191 -0.484935 -0.184134 68 1 84
-0.305373 -0.317476 -0.167993 68 1 84
-0.484812 0.367587 0.323865 68 1 84
0.344056 -0.081255 -0.176154 68 1 84
0.616001 -0.015100 0.373988 62 72 136
0.639665 -0.315989 0.440240 37 130 142
0.432589 -0.250493 -0.065152 68 2 85
0.063796 -0.197744 -0.327124 68 1 84
0.308070 -0.442978 -0.265702 65 66 134
0.415216 0.348487 0.005914 70 49 126
0.541545 0.228896 0.521421 72 25 107
-0.606261 -0.518342 0.200509 47 106 141
-0.329973 -0.026247 -0.183034 65 66 134
-0.476791 0.378645 0.387887 68 1 84
0.274453 0.553656 -0.028108 40 122 142
-0.582903 -0.027719 0.116821 72 35 116
-0.591565 -0.198864 0.100337 66 62 133
0.131378 0.136514 -0.281788 46 109 142
0.512671 -0.404904 -0.020354 69 50 127
-0.418487 -0.060947 -0.122119 71 40 120
0.630840 -0.096975 0.412448 47 106 141
-0.465955 0.228884 0.044738 68 1 84
-0.422960 0.451685 0.295126 68 1 84
0.565374 -0.093584 0.047593 66 61 132
0.518337 -0.305788 0.020405 71 44 123
-0.379298 0.493158 0.243426 68 1 84
-0.473644 0.292808 0.097839 68 1 84
0.306556 0.191577 -0.172837 52 95 141
-0.487628 -0.308408 -0.016304 71 22 105
-0.192564 -0.433059 -0.349729 68 1 84
-0.114700 -0.255611 -0.249290 68 1 84
-0.643815 -0.156330 0.394293 53 92 140
0.634083 -0.142308 0.418761 43 116 142
0.521525 0.201212 0.106226 70 14 97
-0.480356 0.141594 0.019454 68 1 84
0.258789 -0.280891 -0.183876 71 18 101
-0.598185 0.056103 0.427296 72 26 108
-0.434036 -0.493664 -0.214455 68 1 84
0.604120 0.036556 0.368822 71 20 102
-0.560661 -0.002770 0.075044 71 22 105
0.263582 0.369692 -0.128889 38 127 142
-0.284087 0.387200 -0.095729 67 58 131
0.113372 -0.121079 -0.278539 68 1 84
-0.662501 -0.368338 0.493043 42 118 142
-0.396937 -0.008590 -0.138392 72 32 113
0.221081 0.515107 -0.119941 38 128 142
-0.122382 0.052704 -0.241004 45 111 142
-0.371326 -0.133307 -0.144044 70 47 124
-0.517271 -0.038547 -0.018613 69 6 90
-0.186106 -0.130922 -0.222990 68 1 84
-0.266656 0.585110 0.097037 71 21 103
0.643761 -0.273555 0.339291 41 121 142
-0.566359 -0.481036 0.071691 54 90 140
0.485115 -0.083622 -0.069116 68 1 84
-0.099779 -0.192913 -0.327578 68 1 84
-0.451932 -0.312394 -0.056687 68 1 84
0.500981 0.347716 0.214882 71 17 99
0.290009 0.101888 -0.197248 68 1 84
-0.610935 -0.011352 0.310375 70 48 125
0.639788 -0.253119 0.392321 36 132 141
-0.299164 0.192271 -0.160232 56 86 139
0.065370 0.246354 -0.284044 54 184 119
-0.153272 0.149941 -0.272201 32 144 140
0.163572 0.049477 -0.222824 72 35 116
0.138382 -0.023086 -0.329107 68 1 84
-0.087899 0.477987 -0.190454 30 157 136
-0.573159 0.096692 0.509345 71 15 98
0.222358 0.274588 -0.152535 42 117 142
0.189235 0.122801 -0.241201 56 86 139
-0.566736 -0.043077 0.061505 71 42 121
-0.316876 0.501391 0.009102 71 43 122
0.621807 -0.038913 0.376593 63 69 135
-0.636010 -0.138778 0.312911 43 116 142
-0.348005 0.485472 0.050008 71 21 103
-0.010764 0.621659 -0.105833 46 107 142
-0.191173 -0.129035 -0.220295 68 1 84
-0.405248 0.384668 0.041839 68 2 85
0.635341 -0.550443 0.356949 30 156 137
-0.104825 0.157480 -0.306729 32 143 140
-0.299127 0.244269 -0.145262 57 85 139
-0.496675 -0.436440 -0.129042 72 35 116
0.534424 -0.527979 0.040657 62 73 137
0.042055 0.031086 -0.399861 66 62 133
-0.509452 -0.339618 -0.010187 71 24 106
0.551575 0.240865 0.260496 68 1 84
-0.427696 -0.526250 -0.221072 68 1 84
0.476081 0.357094 0.136488 68 55 129
-0.555445 -0.288277 0.056556 61 75 137
-0.115725 -0.029730 -0.424325 71 40 120
0.004047 0.581286 -0.161999 47 105 141
0.314584 -0.372046 -0.193732 68 1 84
-0.368208 0.198216 -0.109098 70 45 124
-0.423758 -0.104082 -0.119239 70 48 125
0.383808 0.384403 -0.013687 51 97 141
-0.601688 -0.004086 0.503616 72 35 116
-0.624830 -0.336293 0.202802 47 106 141
0.493617 -0.376747 -0.031263 72 30 112
0.257939 -0.002125 -0.220122 71 37 117
0.054538 0.509308 -0.198832 44 114 142
0.187744 0.571609 -0.118057 44 112 142
0.121629 0.559556 -0.161597 49 102 141
0.437154 0.187365 -0.043418 72 30 112
-0.415793 0.210284 -0.048872 68 1 84
0.086251 -0.177365 -0.304224 68 1 84
-0.218716 0.535096 -0.092929 41 120 142
0.563668 -0.438675 0.092220 48 103 141
-0.002863 -0.435579 -0.355961 68 1 84
-0.644481 -0.289515 0.494347 44 112 142
-0.642145 -0.334720 0.264157 46 107 142
0.138501 -0.182958 -0.236395 68 1 84
0.121619 0.496096 -0.181483 55 88 140
0.182369 0.606464 -0.072533 40 122 142
-0.556522 0.145326 0.524935 72 32 113
0.080950 -0.130382 -0.370497 68 1 84
0.160001 -0.139151 -0.233766 68 1 84
0.596003 0.039481 0.270230 71 37 117
0.397385 0.484066 0.235162 72 33 114
-0.421512 0.383097 0.069778 68 1 84
-0.633297 -0.470624 0.304584 40 122 142
0.296587 0.561982 0.089854 66 62 133
0.504960 -0.015843 -0.029787 68 1 84
0.637244 -0.198683 0.277837 36 132 141
0.262551 -0.287311 -0.184786 68 1 84
-0.190735 -0.224621 -0.190823 68 1 84
-0.328340 0.422717 -0.034851 71 43 122
-0.335319 0.519912 0.091580 64 68 135
-0.193541 0.622056 -0.007287 70 48 125
-0.545388 0.204429 0.211670 68 1 84
-0.643317 -0.377020 0.303632 45 110 142
0.488644 -0.518948 -0.095658 68 1 84
0.121613 0.132699 -0.286536 40 123 142
0.306144 -0.355541 -0.181828 68 1 84
-0.592362 0.086312 0.367739 68 1 84
0.631878 -0.279437 0.512553 30 153 138
-0.372810 -0.448493 -0.259724 68 1 84
-0.589538 0.004580 0.200582 71 24 106
-0.598156 0.034439 0.278455 71 38 118
0.637095 -0.302906 0.442004 41 120 142
0.179463 -0.120627 -0.227995 68 1 84
0.613894 -0.485758 0.258593 41 120 142
-0.065804 -0.182912 -0.380815 68 1 84
-0.611491 -0.025388 0.289044 62 72 136
-0.165947 -0.083998 -0.231218 70 45 124
-0.029809 -0.436058 -0.356532 68 1 84
0.144486 -0.403248 -0.335551 68 1 84
0.291459 -0.216188 -0.164203 68 1 84
-0.655279 -0.353469 0.463470 44 113 142
-0.219659 0.471031 -0.113075 54 90 140
0.556578 -0.283661 0.060308 72 30 112
-0.045655 0.374157 -0.226005 107 205 89
0.166358 0.439676 -0.162279 48 104 141
-0.193221 0.608359 -0.047281 63 71 136
0.521197 0.092593 0.043250 70 12 95
0.558607 0.239847 0.394436 70 12 95
-0.200047 -0.362853 -0.195198 68 1 84
0.501703 0.013980 -0.023286 68 1 84
0.642086 -0.238213 0.363491 36 133 141
0.281232 -0.387899 -0.226565 68 1 84
0.402901 -0.268379 -0.094333 68 1 84
-0.127607 0.042206 -0.281223 35 135 141
-0.488218 0.360130 0.380296 68 1 84
-0.055146 0.021454 -0.468423 64 68 135
0.030565 0.600425 -0.142302 51 96 141
-0.437033 0.132011 -0.056017 68 1 84
0.474793 0.390825 0.209426 72 33 114
0.477499 -0.339605 -0.025237 68 1 84
0.532975 -0.166919 -0.007730 70 48 125
-0.594437 -0.360840 0.129889 52 94 141
-0.251467 0.209093 -0.191203 44 112 142
-0.087331 -0.302593 -0.312616 68 1 84
-0.632064 -0.204314 0.240594 58 83 139
0.549831 0.199287 0.517709 72 32 113
-0.558941 -0.158622 0.028480 70 45 124
-0.387590 0.254715 -0.061134 72 26 108
0.598515 -0.208643 0.125416 59 81 138
0.165096 0.487724 -0.160563 56 86 139
0.249864 0.124748 -0.210428 68 57 130
-0.458317 -0.028586 -0.081800 68 1 84
0.400511 0.031785 -0.134252 68 1 84
-0.620001 -0.266778 0.177446 49 100 141
0.639230 -0.177569 0.392947 32 143 140
-0.637453 -0.251030 0.238699 53 92 140
0.392712 -0.111723 -0.141828 68 1 84
0.181165 -0.105679 -0.229515 68 1 84
0.540667 -0.178559 0.006352 72 30 112
0.231160 0.143336 -0.222949 59 81 138
-0.073710 0.584465 -0.154142 30 151 138
0.570189 0.104221 0.183463 72 33 114
-0.505800 0.015495 -0.007309 70 9 92
0.586268 -0.383166 0.126991 64 68 135
0.302169 0.279204 -0.148119 46 107 142
-0.372471 -0.086451 -0.150604 71 43 122
0.163649 0.314037 -0.202976 38 172 129
-0.645227 -0.282761 0.537718 51 96 141
-0.187115 -0.273247 -0.172324 68 1 84
-0.129845 0.074543 -0.244952 42 117 142
0.491663 0.356283 0.190922 72 33 114
0.622598 -0.391561 0.229868 44 114 142
-0.480536 0.298897 0.116416 68 2 85
0.027737 0.621190 -0.111570 55 88 140
0.454030 0.245939 0.009767 69 52 127
0.284149 -0.424226 -0.263857 71 44 123
-0.263224 -0.258602 -0.167029 68 1 84
-0.583498 -0.078643 0.085721 70 49 126
-0.304803 0.158479 -0.165208 61 76 137
-0.379808 -0.336680 -0.149107 68 1 84
0.583234 0.131749 0.421609 71 15 98
-0.490976 0.353414 0.434964 68 1 84
0.408813 0.318358 -0.020534 66 61 132
-0.638422 -0.267033 0.237121 55 88 140
0.245528 0.584418 -0.023679 42 118 142
-0.184627 0.625414 -0.011277 70 47 124
0.439971 -0.400840 -0.134116 70 12 95
0.492443 -0.407647 -0.059192 69 6 90
0.070037 -0.343190 -0.280172 68 1 84
0.366592 0.177798 -0.126761 69 50 127
0.607658 -0.255909 0.151644 65 66 134
-0.491675 0.330903 0.188954 68 1 84
0.286515 0.278479 -0.152883 46 107 142
-0.040758 -0.131498 -0.426309 68 1 84
0.629465 -0.209500 0.236543 44 114 142
-0.301917 0.498735 -0.019116 71 43 122
0.066172 0.595271 -0.148627 43 115 142
-0.562080 -0.145341 0.031357 69 53 128
-0.579757 -0.227713 0.080500 58 82 139
0.579579 0.083352 0.208009 70 11 94
-0.473738 -0.255584 -0.028333 72 28 110
0.255531 -0.385683 -0.219413 68 1 84
0.386426 -0.030767 -0.152621 68 1 84
-0.049098 0.062291 -0.319134 48 104 141
-0.317540 -0.396908 -0.239283 68 1 84
0.469935 0.191671 0.006588 70 47 124
0.594020 -0.148750 0.113801 65 66 134
-0.142869 -0.060131 -0.331974 66 62 133
-0.405889 -0.244105 -0.098639 68 1 84
-0.596194 0.002253 0.548786 71 15 98
-0.637160 -0.127015 0.343096 45 111 142
-0.559491 -0.136375 0.026164 71 42 121
0.620023 -0.027782 0.394920 59 80 138
-0.382528 -0.109395 -0.142661 72 25 107
0.103811 -0.373332 -0.308701 68 1 84
-0.246098 0.251174 -0.159442 40 122 142
0.270243 -0.235747 -0.169160 68 1 84
-0.615698 -0.319098 0.171643 47 106 141
-0.434665 -0.203351 -0.081159 70 9 92
-0.208614 0.589770 -0.059544 57 84 139
-0.069946 0.615241 -0.112337 52 95 141
0.643745 -0.269606 0.339828 37 130 142
-0.559618 -0.112485 0.025898 70 45 124
0.214486 -0.382770 -0.199244 68 1 84
0.034244 -0.215603 -0.355010 68 1 84
0.597356 -0.412477 0.164036 47 106 141
0.225224 0.108935 -0.218842 62 72 136
0.641960 -0.361257 0.360161 40 122 142
-0.452574 -0.025234 -0.087006 68 1 84
-0.316663 0.056624 -0.186071 46 108 142
-0.166611 0.083758 -0.229098 38 127 142
0.157936 -0.247357 -0.184085 68 1 84
0.055559 0.227613 -0.306929 46 178 124
0.076387 0.018185 -0.363359 67 60 132
-0.528744 0.248751 0.205289 68 1 84
-0.265802 0.288555 -0.134368 47 106 141
0.538947 0.249278 0.205110 72 28 110
-0.065660 -0.158280 -0.393945 68 1 84
0.510627 -0.053786 -0.033977 68 1 84
0.418724 -0.378331 -0.131845 69 53 128
0.600200 0.030641 0.433681 63 71 136
0.643751 -0.292822 0.330238 39 125 142
-0.072742 0.471575 -0.195603 33 166 133
-0.643896 -0.174238 0.415500 50 98 141
0.279835 0.198211 -0.193302 49 101 141
-0.525989 0.212869 0.157657 68 1 84
-0.226964 0.190737 -0.214752 34 138 141
-0.640813 -0.134882 0.505755 70 47 124
-0.040946 0.216628 -0.311984 91 200 98
0.280638 0.435183 -0.096936 35 136 141
-0.100220 0.129566 -0.306838 35 135 141
0.051061 -0.306961 -0.274554 68 1 84
-0.358103 -0.352350 -0.165229 68 1 84
0.361368 -0.108364 -0.160658 68 1 84
-0.634193 -0.080020 0.425484 58 83 139
0.642139 -0.515363 0.385858 56 185 118
0.255486 0.240115 -0.188298 33 142 140
-0.183340 -0.391125 -0.335154 68 1 84
-0.514439 0.077191 0.039333 68 1 84
0.444270 0.272917 0.008755 72 30 112
-0.194346 0.143488 -0.237955 32 143 140
-0.207323 -0.371654 -0.223339 68 1 84
0.087852 0.553286 -0.176973 58 83 139
-0.439806 0.395031 0.122547 68 1 84
0.628147 -0.205235 0.511584 43 116 142
-0.644265 -0.190372 0.418091 46 108 142
0.541397 0.284421 0.322285 71 24 106
0.423384 0.454500 0.194885 72 25 107
-0.543379 0.248790 0.368656 68 1 84
-0.570734 0.131005 0.245408 68 1 84
-0.169376 0.206082 -0.258699 44 177 125
-0.175230 0.630706 -0.002430 71 38 118
-0.244146 0.395420 -0.118525 40 122 142
-0.322944 0.343154 -0.087650 56 86 139
-0.424800 -0.301874 -0.089759 68 1 84
0.632481 -0.112253 0.362197 54 91 140
0.027346 0.040221 -0.435148 67 60 132
0.562607 -0.031286 0.065493 68 3 87
-0.057449 0.046238 -0.392298 44 113 142
0.180218 0.361109 -0.172079 31 146 140
0.586524 0.091632 0.266254 68 2 85
-0.466973 0.393368 0.392673 68 1 84
0.364881 0.355649 -0.059396 56 87 140
0.027325 0.252518 -0.289247 56 185 118
-0.129556 -0.232470 -0.244068 68 1 84
-0.136302 0.456764 -0.161201 46 107 142
0.413782 0.438750 0.100943 59 80 138
0.272041 0.066348 -0.210703 68 1 84
0.610327 -0.112761 0.209207 56 86 139
-0.008980 0.636805 -0.065828 43 115 142
-0.393579 -0.507415 -0.253089 68 1 84
0.503611 0.359323 0.257497 70 12 95
-0.458281 -0.377393 -0.112930 68 1 84
0.631824 -0.371986 0.260931 44 113 142
0.297442 0.254142 -0.161000 49 100 141
-0.395751 0.478254 0.282201 68 1 84
0.345328 0.465956 -0.002431 41 120 142
0.537170 -0.130643 -0.007463 71 22 105
0.585577 -0.169681 0.089400 72 32 113
-0.419239 0.107740 -0.089143 70 11 94
-0.564958 0.185112 0.358787 68 1 84
-0.633611 -0.072444 0.395655 59 80 138
0.553798 0.247919 0.296081 70 11 94
0.642950 -0.318052 0.319794 42 119 142
-0.301879 0.467511 -0.039673 63 69 135
0.103033 0.023658 -0.350827 71 44 123
-0.153759 0.399072 -0.167899 35 137 141
-0.060096 0.061175 -0.307772 49 102 141
0.144558 0.365359 -0.195348 30 158 136
-0.306033 -0.372112 -0.186981 68 1 84
0.592543 -0.009922 0.204457 71 37 117
0.566657 -0.404419 0.091557 49 100 141
-0.558414 0.187145 0.267669 68 1 84
-0.520497 -0.103641 -0.031148 69 50 127
-0.617651 -0.423204 0.218580 49 100 141
-0.447400 0.001830 -0.086813 71 22 105
-0.415171 0.458106 0.334109 68 1 84
-0.160458 0.372067 -0.181754 34 167 132
-0.429734 0.200929 -0.033064 68 1 84
0.222408 0.370663 -0.145775 39 126 142
-0.237856 0.262256 -0.147852 40 123 142
-0.498761 -0.356114 -0.042213 70 14 97
0.450170 -0.504768 -0.170843 68 1 84
0.627076 -0.146740 0.504745 56 86 139
0.593535 -0.498178 0.192351 40 123 142
0.031715 0.037742 -0.353562 46 107 142
-0.480499 0.373340 0.259094 68 1 84
0.133021 0.458792 -0.175992 51 97 141
-0.355149 -0.292042 -0.160794 68 1 84
-0.364496 -0.405723 -0.227218 68 1 84
-0.450719 0.187708 -0.005689 68 1 84
0.027324 0.635489 -0.069451 46 108 142
0.013868 -0.161949 -0.405896 68 1 84
-0.529840 -0.356348 0.008784 65 65 134
-0.330308 0.235307 -0.127019 71 44 123
0.639805 -0.319557 0.471646 30 155 137
-0.275052 0.270306 -0.141718 60 77 138
0.339005 0.066098 -0.179281 68 1 84
-0.568638 0.171390 0.377099 68 1 84
0.514027 0.346485 0.343258 68 1 84
0.530005 0.302781 0.435143 70 14 97
-0.430956 0.173251 -0.046643 68 1 84
0.589497 -0.187569 0.100382 62 73 137
0.012368 -0.002994 -0.480047 72 32 113
-0.003248 -0.206173 -0.383379 68 1 84
0.126120 0.037751 -0.276309 69 54 129
-0.397319 -0.305938 -0.124279 68 1 84
0.354480 -0.211046 -0.137182 68 1 84
-0.629276 -0.049354 0.407451 61 74 137
-0.431562 -0.444929 -0.202800 68 1 84
0.411790 0.277169 -0.035990 69 54 129
0.621618 -0.440823 0.275092 40 122 142
-0.157182 -0.359835 -0.263655 68 1 84
-0.433188 -0.444538 -0.201365 68 1 84
-0.639266 -0.116892 0.379609 56 87 140
-0.619395 -0.088736 0.512636 64 68 135
0.641246 -0.326375 0.443855 32 143 140
0.499719 0.345723 0.204718 70 14 97
-0.438634 -0.227003 -0.069284 68 1 84
0.406255 -0.306695 -0.088859 71 22 105
-0.141875 -0.113262 -0.268827 68 1 84
-0.484055 0.346085 0.492353 68 1 84
-0.653123 -0.336045 0.479576 43 116 142
0.127427 0.246584 -0.249581 36 170 130
0.642541 -0.330425 0.360487 40 122 142
0.553250 -0.320775 0.062112 70 14 97
0.490942 0.337546 0.152921 71 42 121
-0.040073 0.587749 -0.153395 42 119 142
0.240034 0.147413 -0.218683 64 67 135
0.485621 0.020038 -0.042049 68 1 84
0.469454 0.082070 -0.041041 68 2 85
0.642243 -0.305463 0.372294 35 135 141
-0.405065 -0.412540 -0.204677 68 1 84
0.254462 0.259334 -0.166334 41 121 142
-0.674713 -0.519019 0.486460 37 130 142
0.281141 0.094660 -0.201764 68 1 84
-0.457541 0.017638 -0.070082 70 9 92
0.544305 0.266688 0.271143 72 28 110
0.285826 0.276936 -0.153715 49 100 141
-0.178131 -0.390640 -0.337304 68 1 84
-0.100828 0.632900 -0.063859 57 84 139
-0.275885 0.174447 -0.178064 43 116 142
0.619620 -0.128183 0.243863 63 71 136
0.444968 -0.223403 -0.064040 68 1 84
-0.131945 0.087391 -0.256017 33 140 141
0.024990 -0.311358 -0.318959 68 1 84
-0.265802 -0.067242 -0.203043 69 6 90
-0.590417 -0.183479 0.095801 68 55 129
-0.125535 0.444526 -0.166302 44 113 142
-0.098053 0.160337 -0.310184 34 139 141
-0.592315 0.086207 0.381819 68 1 84
0.557807 0.008699 0.074320 71 18 101
0.378046 0.495485 0.165507 70 47 124
-0.120862 0.084459 -0.263870 39 124 142
0.191194 -0.446003 -0.319623 70 9 92
0.099290 -0.133564 -0.308927 68 1 84
0.361286 0.249925 -0.107226 63 69 135
-0.289430 -0.154564 -0.171964 68 1 84
-0.399090 -0.415251 -0.211270 68 1 84
-0.519320 0.174710 0.111031 68 1 84
0.513173 0.339600 0.251232 70 9 92
0.108114 0.020079 -0.360517 72 32 113
-0.529899 -0.148917 -0.014086 72 35 116
0.308830 -0.366612 -0.189052 68 1 84
-0.531553 -0.096702 -0.016723 70 48 125
-0.271337 0.041525 -0.200137 45 110 142
0.551068 0.115846 0.129142 72 32 113
0.588093 0.024584 0.484016 60 78 138
0.577510 0.086640 0.483187 71 42 121
-0.164219 0.476420 -0.145147 49 102 141
-0.636765 -0.444227 0.315721 44 112 142
0.063015 0.046823 -0.296500 44 114 142
-0.267698 0.492141 -0.064686 69 50 127
0.207847 -0.396117 -0.255853 68 1 84
0.181671 0.613150 -0.050690 40 123 142
-0.081528 -0.187957 -0.361614 68 1 84
0.608579 -0.542750 0.245001 40 122 142
0.005190 0.592471 -0.151454 53 92 140
-0.611252 -0.199213 0.156431 56 86 139
0.638015 -0.286789 0.254207 42 118 142
-0.021931 0.363207 -0.246137 178 221 44
0.422323 -0.170071 -0.105693 68 1 84
0.415284 0.333143 -0.003653 69 52 127
0.533305 -0.261931 0.025956 72 35 116
0.605630 0.017464 0.328039 65 65 134
0.185548 0.304461 -0.178757 30 153 138
0.599167 -0.041348 0.528061 69 53 128
-0.566081 0.057761 0.149929 70 9 92
0.069164 0.214297 -0.311370 50 181 122
0.100227 0.569110 -0.162790 53 93 140
0.507193 -0.254414 -0.000803 69 5 88
0.294773 -0.478352 -0.283317 63 69 135
0.346921 0.486950 0.021267 45 110 142
-0.106762 0.562251 -0.159917 31 150 139
0.586807 0.073399 0.247386 71 24 106
-0.472250 0.359801 0.170676 68 1 84
-0.561689 0.191741 0.314636 68 1 84
0.539154 -0.529059 0.051964 61 76 137
0.616640 -0.453764 0.258197 39 124 142
0.354122 0.514720 0.118904 66 61 132
-0.029252 0.141513 -0.322067 40 122 142
0.571937 0.130456 0.485595 72 26 108
-0.652022 -0.381875 0.385585 42 119 142
-0.575665 -0.413802 0.079038 53 92 140
-0.127832 -0.039335 -0.400972 72 28 110
-0.133372 -0.165650 -0.275738 68 1 84
-0.461692 0.387974 0.462401 68 1 84
0.606643 -0.003070 0.295555 72 33 114
0.537710 0.270991 0.471358 70 9 92
0.154092 -0.316456 -0.158989 68 1 84
-0.528824 0.280607 0.283672 68 1 84
-0.380831 0.483931 0.156285 68 1 84
-0.144236 0.612534 -0.084311 57 85 139
0.377278 0.004142 -0.160061 68 1 84
-0.310479 0.549427 0.170730 68 1 84
0.576244 0.107749 0.479264 71 42 121
0.351486 0.513702 0.096161 63 71 136
-0.506683 0.323084 0.255605 68 1 84
0.126347 -0.430413 -0.346427 68 1 84
0.496281 0.185377 0.045986 70 49 126
-0.366760 0.038983 -0.158363 61 74 137
0.628793 -0.278565 0.217059 48 103 141
0.107629 -0.258493 -0.204931 68 1 84
0.584496 -0.305420 0.109332 72 34 115
0.473843 0.151527 -0.006215 72 25 107
-0.144958 -0.368855 -0.314283 68 1 84
-0.072527 0.032707 -0.303184 56 86 139
0.099740 -0.356712 -0.252016 68 1 84
0.642543 -0.284792 0.364102 37 131 141
0.513361 -0.237623 -0.001824 71 21 103
-0.649669 -0.331121 0.449582 44 113 142
-0.566134 -0.386480 0.055776 60 78 138
-0.565526 0.146501 0.237559 68 1 84
0.439383 0.098944 -0.074657 68 1 84
0.437173 0.152608 -0.059286 71 39 119
0.359908 0.502282 0.083824 62 73 137
-0.494664 0.300261 0.154382 68 1 84
0.021354 0.235287 -0.307366 96 201 96
-0.628492 -0.381197 0.234998 50 99 141
-0.637255 -0.253283 0.236818 52 94 141
0.561853 0.143848 0.515664 72 30 112
0.094933 -0.325513 -0.201736 68 1 84
0.223546 0.595278 -0.030581 44 114 142
0.461329 0.397441 0.161546 64 67 135
0.602322 -0.283680 0.142014 68 57 130
-0.642058 -0.201674 0.435211 49 100 141
0.103190 -0.088990 -0.358576 68 1 84
0.360276 0.116602 -0.149376 70 14 97
-0.584913 -0.016419 0.137373 71 42 121
-0.438336 -0.307022 -0.073906 68 1 84
0.405114 -0.309136 -0.090006 70 9 92
-0.403924 -0.428444 -0.215197 68 1 84
