ply
format ascii 1.0
element vertex 1268
property float x
property float y
property float z
property uchar red
property uchar green
property uchar blue
end_header
-0.678330 -0.373158 0.313776 57 84 139
0.091828 -0.046082 -0.293537 68 1 84
0.184786 -0.237842 -0.164930 68 1 84
-0.420413 0.411933 0.079652 68 1 84
-0.124871 0.311063 -0.221374 35 168 131
-0.126238 -0.321625 -0.222646 68 1 84
0.230160 0.527013 0.054277 68 1 84
0.505719 -0.105049 -0.058040 68 1 84
0.240601 0.501438 0.010352 68 1 84
0.182722 0.227611 -0.210655 70 48 125
-0.697384 -0.403437 0.455926 65 66 134
0.516132 0.264984 0.142780 68 1 84
0.713444 -0.353004 0.359305 53 93 140
0.041733 0.520155 -0.139096 31 161 135
-0.643214 -0.269498 0.211708 71 38 118
0.698244 -0.331873 0.337606 71 38 118
-0.259950 -0.355801 -0.224110 63 71 136
0.473265 0.350967 0.246407 68 1 84
-0.572213 -0.317124 0.054998 44 112 142
0.463094 0.341525 0.328166 68 1 84
-0.252788 -0.381462 -0.257105 53 93 140
-0.289396 -0.164237 -0.148132 68 1 84
-0.473135 0.389683 0.268742 68 1 84
-0.447468 -0.416813 -0.190713 73 193 109
-0.090207 -0.061719 -0.317373 68 1 84
-0.319698 0.111576 -0.197824 60 77 138
-0.283565 -0.191108 -0.155033 68 1 84
0.705324 -0.402932 0.309334 45 110 142
-0.602604 -0.122405 0.113154 68 1 84
-0.612806 -0.177461 0.129009 72 28 110
-0.616407 -0.038705 0.258027 68 1 84
0.102055 0.253248 -0.215709 40 122 142
0.362471 -0.369267 -0.264578 59 80 138
-0.609616 -0.140750 0.130152 68 1 84
0.733765 -0.339035 0.413464 71 20 102
0.456266 0.288743 -0.004297 68 1 84
0.621977 -0.098636 0.480644 68 1 84
0.632627 -0.089604 0.240546 68 1 84
0.257794 0.001843 -0.206239 68 1 84
0.149153 -0.349760 -0.282937 60 77 138
0.091081 -0.336076 -0.305316 63 71 136
0.202306 -0.288083 -0.173006 68 1 84
0.402003 -0.380984 -0.256440 40 122 142
-0.103172 0.566201 -0.089767 31 146 140
0.383296 -0.293865 -0.181834 63 69 135
-0.607788 -0.150330 0.121342 68 2 85
-0.583963 0.166645 0.243079 68 1 84
0.453626 0.381421 0.167949 68 1 84
0.596912 0.005040 0.195150 68 1 84
-0.559833 0.238842 0.302546 68 1 84
-0.615228 -0.054701 0.235431 68 1 84
-0.474662 0.030387 -0.105600 71 21 103
-0.396526 -0.297405 -0.114043 70 47 124
-0.245150 -0.016636 -0.208814 68 1 84
-0.677102 -0.486963 0.301109 47 179 123
0.128107 -0.125543 -0.242638 68 1 84
-0.467623 -0.271592 -0.044973 52 95 141
0.200883 0.049025 -0.218107 68 1 84
-0.413996 0.264710 -0.105654 59 80 138
-0.121229 -0.334147 -0.248094 68 1 84
0.056946 0.164377 -0.268959 69 54 129
-0.379817 0.454207 0.114852 68 1 84
0.565391 0.110687 0.427782 68 1 84
-0.620705 -0.095649 0.491191 68 1 84
0.722769 -0.391258 0.368832 66 61 132
-0.015047 -0.204478 -0.318906 68 1 84
0.252478 0.137349 -0.206465 68 3 87
-0.209434 -0.103881 -0.193061 68 1 84
-0.586548 -0.020537 0.099634 68 1 84
-0.405340 -0.485266 -0.243074 129 211 76
-0.058155 0.418593 -0.176540 35 136 141
-0.614693 -0.066723 0.217953 68 1 84
-0.659336 -0.213259 0.326441 68 1 84
0.474480 -0.300226 -0.106414 52 94 141
-0.043255 0.285415 -0.241675 46 178 124
0.534563 0.098984 0.030256 68 1 84
-0.072852 -0.219326 -0.269642 68 1 84
0.110154 0.217968 -0.238081 53 93 140
-0.577012 -0.453339 0.068983 71 192 110
-0.630901 -0.498788 0.193187 44 177 125
0.212144 0.382556 -0.138806 50 98 141
-0.286525 0.019998 -0.205634 71 38 118
-0.542674 -0.436182 -0.001062 39 173 128
-0.167151 -0.148607 -0.197531 68 1 84
0.715646 -0.302747 0.445042 70 9 92
-0.592462 -0.188884 0.081848 59 80 138
-0.398751 0.123861 -0.161408 61 75 137
0.289012 0.163927 -0.194055 69 8 91
0.715507 -0.401451 0.342592 50 99 141
0.669171 -0.278107 0.227282 71 37 117
-0.632845 -0.401971 0.186620 34 137 141
0.585723 -0.194727 0.051181 71 40 120
-0.058342 -0.256277 -0.283716 68 1 84
-0.611005 -0.273561 0.112285 48 103 141
0.333934 0.480737 0.139593 68 1 84
-0.436245 0.392196 0.067737 68 1 84
-0.066335 -0.050898 -0.359681 68 1 84
0.579792 -0.430284 0.008070 37 171 129
0.040054 -0.344763 -0.328113 66 62 133
0.200171 0.196932 -0.212113 68 1 84
0.033451 0.070476 -0.284841 68 1 84
0.519602 -0.033199 -0.043093 68 1 84
-0.423818 0.358903 -0.014370 70 12 95
0.653917 -0.269817 0.173025 68 57 130
0.197128 0.379119 -0.147537 44 113 142
-0.444340 -0.213715 -0.070135 69 52 127
-0.603020 0.054323 0.245858 68 1 84
-0.421678 0.364846 -0.009518 70 11 94
-0.260104 -0.120610 -0.162950 68 1 84
0.437193 0.351111 0.392993 68 1 84
0.643071 -0.106239 0.358461 68 1 84
-0.517905 0.298910 0.408305 68 1 84
-0.400735 -0.128146 -0.121671 72 26 108
-0.544337 0.238947 0.115752 68 1 84
0.533834 0.166191 0.077805 68 1 84
-0.079582 -0.103606 -0.310149 68 1 84
-0.615199 -0.010203 0.420804 68 1 84
0.528964 0.174169 0.468985 68 1 84
-0.030789 -0.235982 -0.307294 68 1 84
-0.444165 -0.027570 -0.128373 72 29 111
0.557037 0.014794 0.036855 68 1 84
0.551332 -0.050754 0.003928 68 1 84
-0.488934 0.108895 -0.083907 71 18 101
0.547864 -0.416393 -0.066273 31 161 135
0.692473 -0.327253 0.324587 72 29 111
0.610543 -0.346767 0.068051 59 81 138
0.401078 -0.320629 -0.197212 56 86 139
-0.238264 0.205621 -0.206259 50 99 141
-0.005380 -0.118916 -0.346945 68 1 84
0.486718 0.129872 -0.049740 68 1 84
-0.598010 0.066173 0.216469 68 1 84
-0.338555 0.364549 -0.095541 60 78 138
0.267717 -0.148141 -0.161680 68 1 84
-0.129237 -0.262931 -0.186332 68 1 84
0.399070 0.408838 0.058984 68 1 84
-0.262464 0.521503 0.085163 68 1 84
-0.450483 0.385116 0.084399 68 1 84
-0.300739 0.395373 -0.086981 41 121 142
0.050689 0.054480 -0.277572 68 1 84
-0.129440 -0.014796 -0.269243 68 1 84
0.435167 0.391705 0.264426 68 1 84
0.610828 -0.453096 0.072078 35 169 130
0.109064 0.460182 -0.137135 42 118 142
-0.468082 -0.368650 -0.124451 36 133 141
0.472374 0.298564 0.415247 68 1 84
-0.472299 -0.042064 -0.105489 71 38 118
-0.565988 0.224950 0.313199 68 1 84
0.651979 -0.337790 0.161087 56 86 139
0.253769 0.190563 -0.199603 71 44 123
0.035131 0.056240 -0.292100 68 1 84
-0.688907 -0.415915 0.355966 45 110 142
-0.215103 -0.205791 -0.162960 68 1 84
0.083929 -0.013490 -0.330678 68 1 84
-0.177804 0.547169 -0.046521 54 184 119
0.710396 -0.424585 0.316100 39 126 142
-0.511674 -0.480026 -0.073858 210 225 27
-0.574382 -0.379796 0.055837 31 146 140
-0.339494 -0.178080 -0.135361 70 9 92
-0.357743 0.276272 -0.138691 55 88 140
-0.364298 -0.424332 -0.262523 100 203 93
0.722861 -0.480274 0.328878 30 152 138
0.342129 0.039118 -0.181401 68 1 84
0.134952 0.483102 -0.110916 34 138 141
-0.417332 0.412173 0.073194 68 1 84
-0.578648 -0.444886 0.070185 43 177 125
-0.121260 0.379553 -0.194771 77 194 107
-0.127438 -0.321707 -0.221463 68 3 87
0.420670 -0.206717 -0.110305 68 1 84
-0.483569 -0.272415 -0.029821 66 64 133
0.042255 0.198586 -0.278305 30 153 138
0.466873 -0.298395 -0.111868 56 87 140
-0.613111 -0.471359 0.153602 32 165 133
-0.625354 -0.114839 0.498148 68 1 84
-0.685357 -0.319039 0.420222 69 8 91
0.483896 -0.108114 -0.078656 68 1 84
-0.568276 0.100660 0.091676 68 1 84
0.595362 -0.097918 0.082368 68 1 84
-0.110590 0.210682 -0.264236 30 156 137
-0.032959 -0.017177 -0.395796 70 12 95
0.667264 -0.416162 0.203965 33 140 141
0.581550 0.039247 0.170206 68 1 84
0.204494 0.081912 -0.215325 68 1 84
-0.015191 -0.233806 -0.313158 68 1 84
0.692264 -0.325318 0.324945 72 26 108
-0.445377 -0.373544 -0.158678 31 148 139
-0.219139 0.368161 -0.146865 34 139 141
-0.527252 -0.449207 -0.038603 87 198 101
0.046391 0.297667 -0.243976 54 184 119
-0.657709 -0.203164 0.335299 68 1 84
0.482127 -0.377936 -0.185910 48 104 141
-0.568325 0.196116 0.410115 68 1 84
-0.465176 -0.326738 -0.083262 52 94 141
-0.700642 -0.461090 0.466685 67 58 131
-0.438012 0.402422 0.097880 68 1 84
0.516355 0.250987 0.117652 68 1 84
-0.655054 -0.188039 0.416724 68 1 84
0.215257 0.235688 -0.204325 71 39 119
0.340390 -0.295766 -0.192816 61 76 137
0.087620 -0.323910 -0.296199 71 37 117
0.505367 0.304056 0.211895 68 1 84
0.460103 -0.323911 -0.154246 40 122 142
0.105205 0.587675 -0.040547 71 38 118
0.407717 -0.101509 -0.122514 68 1 84
-0.694712 -0.400388 0.401033 58 83 139
-0.645247 -0.307275 0.213890 70 47 124
0.665399 -0.183621 0.347088 68 1 84
0.401880 0.170794 -0.131019 68 1 84
0.455607 0.377029 0.221899 68 1 84
-0.026499 -0.238683 -0.308808 68 1 84
0.422398 -0.357900 -0.226488 55 89 140
0.488545 0.296680 0.081712 68 1 84
0.093678 -0.182412 -0.254977 68 1 84
0.320933 0.492913 0.164895 68 1 84
0.464688 0.360113 0.133443 68 1 84
-0.630241 -0.502060 0.191183 38 172 129
-0.508629 -0.428247 -0.086327 71 192 110
-0.027496 0.319839 -0.252141 136 213 71
-0.007310 -0.211971 -0.318493 68 1 84
-0.487108 -0.013315 -0.091867 71 21 103
0.061253 0.357585 -0.223575 100 203 93
-0.180347 0.194495 -0.224633 35 137 141
-0.572076 0.128056 0.125914 68 1 84
0.024134 -0.207286 -0.314675 68 1 84
-0.540825 0.261460 0.138967 68 1 84
0.046977 0.571131 -0.096054 30 153 138
-0.409164 0.330438 -0.064853 49 101 141
-0.316742 -0.064782 -0.169516 68 1 84
-0.497416 0.304650 0.056454 68 1 84
-0.115233 -0.214767 -0.208836 68 1 84
-0.295191 0.172043 -0.196326 43 115 142
-0.080272 -0.086746 -0.318012 68 1 84
-0.410928 0.379634 -0.004940 66 62 133
0.198602 0.190960 -0.212724 71 20 102
-0.410406 -0.467870 -0.240554 167 219 51
0.630693 -0.126572 0.503831 68 1 84
0.072031 0.335146 -0.233435 121 209 81
0.455691 0.353809 0.085925 68 1 84
-0.144610 -0.308641 -0.195053 68 1 84
0.520313 -0.206516 -0.016152 68 1 84
0.681228 -0.235547 0.325201 69 8 91
0.109890 -0.244998 -0.216292 68 1 84
0.696381 -0.479152 0.267221 30 159 136
0.438429 0.223720 -0.074737 68 1 84
-0.268952 -0.051567 -0.190208 68 1 84
0.513691 0.143702 0.006240 68 1 84
-0.388039 -0.415543 -0.242213 31 163 134
-0.194174 0.333722 -0.167827 39 126 142
0.073769 -0.374794 -0.339775 46 107 142
0.540298 -0.079361 -0.015786 68 1 84
-0.527910 0.170585 -0.000330 68 1 84
0.309971 0.163747 -0.186110 72 29 111
0.150697 -0.341750 -0.265691 56 86 139
-0.218613 -0.385352 -0.273305 55 88 140
-0.299186 -0.460306 -0.305736 77 194 107
-0.336181 -0.173671 -0.136512 71 24 106
0.003742 0.030791 -0.394222 71 21 103
-0.356468 0.399515 -0.042231 69 53 128
-0.614931 -0.058016 0.476428 68 1 84
0.422809 0.376766 0.042797 68 1 84
-0.544151 0.271135 0.178035 68 1 84
0.496584 -0.059526 -0.072984 68 1 84
0.199431 -0.082719 -0.205245 68 1 84
-0.288889 -0.137656 -0.149988 68 1 84
0.058008 0.112731 -0.261426 68 1 84
0.645419 -0.277493 0.146706 69 54 129
-0.483625 0.375826 0.239387 68 1 84
-0.690177 -0.351528 0.483250 72 32 113
-0.518642 0.242354 0.035159 68 1 84
-0.058797 0.178200 -0.283903 44 112 142
-0.464433 0.401105 0.236561 68 1 84
0.095618 0.228550 -0.242414 38 127 142
0.466663 -0.208454 -0.064451 68 1 84
0.200335 -0.016994 -0.218360 68 1 84
0.556651 0.071594 0.077626 68 1 84
-0.195567 -0.081329 -0.211890 68 1 84
0.531734 0.191052 0.102784 68 1 84
0.610726 -0.054609 0.466322 68 1 84
0.040058 0.122286 -0.272891 68 1 84
0.682406 -0.486692 0.228171 33 167 132
-0.353967 -0.062691 -0.160091 68 1 84
0.372935 0.428874 0.054555 68 1 84
0.317591 -0.030826 -0.175028 68 1 84
0.310453 -0.238460 -0.178259 70 9 92
0.396780 0.423906 0.286312 68 1 84
-0.578388 -0.106700 0.052277 70 14 97
0.574769 0.037756 0.506189 68 1 84
0.014178 0.359403 -0.225803 85 198 102
0.272509 -0.045655 -0.187422 68 1 84
-0.247444 -0.379747 -0.255362 61 76 137
-0.279983 0.472389 -0.007380 39 126 142
-0.086415 0.138530 -0.266933 46 107 142
-0.486905 0.372039 0.249179 68 1 84
-0.231754 0.388383 -0.129301 36 134 141
0.228886 0.038048 -0.215749 68 1 84
0.058795 -0.363151 -0.335995 64 68 135
-0.513883 0.072394 -0.054175 71 39 119
0.007425 0.367064 -0.217602 46 178 124
-0.144113 0.443081 -0.142553 30 153 138
0.666280 -0.219410 0.465671 68 1 84
-0.075694 -0.077011 -0.330583 68 1 84
-0.204358 -0.380511 -0.270355 67 60 132
-0.530355 0.154454 -0.004106 68 1 84
-0.099464 0.290684 -0.229587 53 183 120
-0.042024 0.061123 -0.330751 68 1 84
-0.314099 0.472056 0.045566 72 30 112
0.090889 -0.046764 -0.294801 68 1 84
-0.139239 0.584282 -0.020353 56 87 140
-0.514611 -0.459359 -0.071451 157 217 58
0.532644 -0.145996 -0.016524 68 1 84
0.490867 0.110924 -0.050076 68 1 84
-0.659504 -0.295596 0.288650 70 11 94
-0.586946 0.155527 0.258301 68 1 84
0.204158 0.087435 -0.214788 68 1 84
0.492675 0.308289 0.306742 68 1 84
0.028512 -0.086053 -0.356024 68 1 84
0.393823 0.056025 -0.153353 68 1 84
-0.228650 -0.450314 -0.326156 68 190 112
0.536193 -0.218411 -0.001350 70 11 94
0.415976 -0.341328 -0.212991 50 98 141
-0.161803 0.305947 -0.191292 34 137 141
0.706864 -0.370929 0.336044 61 75 137
0.443078 -0.311935 -0.153516 55 89 140
-0.593274 -0.332918 0.085113 46 107 142
-0.495371 0.021592 -0.082830 68 1 84
-0.353898 0.473184 0.129929 68 1 84
-0.627879 -0.203414 0.172233 71 24 106
0.419912 0.390564 0.329520 68 1 84
-0.553841 0.077140 0.024971 72 29 111
-0.534304 0.298305 0.234691 68 1 84
-0.592557 0.103134 0.410711 68 1 84
-0.432458 0.263856 -0.090065 63 69 135
-0.140034 0.514149 -0.114212 57 185 118
-0.301141 0.447389 -0.022492 48 104 141
0.190369 0.476961 -0.073278 53 93 140
-0.157950 -0.035015 -0.233473 68 1 84
0.589224 -0.454930 0.020071 69 191 111
-0.580322 -0.375152 0.065805 32 144 140
-0.408687 0.074395 -0.159889 70 49 126
-0.550521 0.260675 0.300724 68 1 84
-0.666204 -0.254258 0.487271 68 1 84
0.100395 -0.121234 -0.270845 68 1 84
-0.573844 -0.391641 0.054976 31 147 139
-0.036399 -0.035910 -0.387361 71 21 103
0.337367 -0.389761 -0.288327 38 128 142
0.607337 -0.095546 0.114246 68 1 84
0.673599 -0.233260 0.295989 68 1 84
-0.420182 -0.346231 -0.147922 45 111 142
0.456973 -0.458775 -0.234718 89 199 100
-0.041186 0.219160 -0.284360 36 170 130
0.006141 -0.261598 -0.310426 68 1 84
-0.007775 -0.392405 -0.347450 54 90 140
0.684436 -0.226945 0.363075 68 1 84
-0.228429 -0.149810 -0.162838 68 1 84
0.562905 0.113049 0.437069 68 1 84
-0.418509 0.254659 -0.107384 59 80 138
-0.445001 -0.421401 -0.195992 59 186 117
-0.296485 -0.399356 -0.271447 43 115 142
-0.470243 -0.486530 -0.163925 238 229 27
0.643363 -0.112263 0.295796 68 1 84
0.073114 -0.031287 -0.341045 68 1 84
0.435754 0.118875 -0.114399 68 1 84
0.637217 -0.113380 0.423714 68 1 84
-0.410388 0.001630 -0.153595 68 1 84
-0.374372 -0.035312 -0.162607 70 45 124
-0.257423 -0.105632 -0.170108 68 1 84
-0.613462 0.009982 0.314215 68 1 84
-0.575902 -0.442057 0.064035 41 175 127
-0.584094 -0.015427 0.091475 68 1 84
0.655176 -0.253904 0.181131 70 12 95
0.586097 -0.309330 0.033813 63 69 135
-0.611143 -0.159668 0.128846 70 9 92
-0.486425 0.371498 0.232748 68 1 84
0.546692 0.117602 0.487248 68 1 84
-0.494715 0.355168 0.185084 68 1 84
-0.048875 0.082233 -0.281787 68 1 84
0.019207 0.064970 -0.321484 68 1 84
0.278698 0.425637 -0.065512 71 20 102
-0.061583 0.266037 -0.236740 30 155 137
-0.667686 -0.562030 0.271339 175 220 46
0.298034 -0.031370 -0.183207 68 1 84
-0.542430 0.279326 0.331292 68 1 84
0.597712 -0.030066 0.139864 68 1 84
-0.084997 -0.302020 -0.264195 68 1 84
0.165442 -0.145887 -0.199396 68 1 84
-0.346645 0.157323 -0.181529 63 69 135
0.072083 0.478082 -0.145119 56 185 118
0.204594 -0.100147 -0.195081 68 1 84
-0.216387 -0.124012 -0.179049 68 1 84
0.002166 -0.317402 -0.319545 68 1 84
0.560580 0.118147 0.439714 68 1 84
0.367112 -0.408557 -0.290521 30 160 135
-0.418222 -0.148460 -0.106361 67 58 131
-0.447605 -0.425059 -0.194536 91 200 98
-0.589328 0.047190 0.467004 68 1 84
0.456085 -0.346610 -0.188003 49 101 141
0.353219 0.384270 -0.056060 68 1 84
0.406386 0.116693 -0.139665 71 18 101
-0.077149 0.266460 -0.232664 32 145 140
-0.386360 0.455082 0.133415 68 1 84
-0.274642 -0.456905 -0.314837 116 208 84
-0.630819 -0.082887 0.296958 68 1 84
0.568355 0.137033 0.334119 68 1 84
-0.396119 0.416114 0.039793 68 1 84
0.574383 0.049589 0.482743 68 1 84
0.690628 -0.370502 0.278818 58 82 139
0.195597 -0.369869 -0.296008 42 117 142
0.466579 -0.417397 -0.222525 31 148 139
0.364150 0.020314 -0.168837 71 18 101
0.579542 -0.439039 0.003643 73 193 109
0.678905 -0.301710 0.263518 71 38 118
-0.676001 -0.264343 0.368709 68 1 84
0.594920 0.017117 0.205810 68 1 84
0.233835 -0.345531 -0.242070 40 122 142
-0.118201 -0.376376 -0.316235 62 72 136
-0.512158 -0.364355 -0.040450 33 142 140
-0.563772 0.171401 0.118133 68 1 84
0.449908 -0.324659 -0.165000 56 87 140
-0.102856 0.183237 -0.268797 39 126 142
0.621667 -0.472450 0.088098 31 150 139
0.145627 0.495688 -0.095171 43 116 142
-0.149872 0.583733 -0.008576 72 30 112
-0.471649 0.133912 -0.100178 72 29 111
-0.254356 0.525566 0.072000 68 1 84
-0.357049 -0.081202 -0.152430 68 1 84
-0.373245 0.396028 -0.030528 52 94 141
0.150257 -0.185296 -0.191455 68 1 84
0.510547 -0.268095 -0.033182 49 100 141
0.398059 -0.355069 -0.238274 62 72 136
0.363527 0.440820 0.066952 68 1 84
-0.338905 0.157742 -0.184741 63 71 136
0.582648 -0.470128 0.000166 33 167 132
-0.587994 -0.021127 0.106107 69 5 88
-0.281335 -0.264399 -0.166049 71 20 102
-0.471598 -0.390300 -0.140415 51 182 121
0.067234 -0.253646 -0.275512 72 29 111
0.364075 0.464584 0.177240 68 1 84
-0.578392 0.155322 0.171935 68 1 84
-0.529750 0.130792 -0.014892 68 1 84
-0.187900 -0.250872 -0.160915 68 1 84
-0.360948 0.448847 0.059274 68 1 84
-0.246484 -0.149084 -0.158619 68 1 84
0.092319 0.355427 -0.214011 136 213 71
-0.546379 0.189031 0.066507 68 1 84
0.582542 -0.233156 0.042553 64 67 135
-0.283820 0.417459 -0.074686 52 94 141
-0.106842 -0.396333 -0.335204 39 126 142
-0.413574 0.327968 -0.062469 48 103 141
0.512998 0.283443 0.273034 68 1 84
0.562211 -0.170012 0.022957 68 1 84
-0.421514 -0.185818 -0.090489 72 25 107
0.095742 0.119212 -0.238243 68 1 84
-0.001419 -0.163553 -0.332175 68 1 84
0.471340 0.301372 0.040990 68 1 84
0.052792 -0.102754 -0.329829 68 1 84
0.639498 -0.146262 0.188712 68 1 84
-0.190400 0.086757 -0.213746 69 54 129
0.407961 -0.345962 -0.223254 57 85 139
0.621649 -0.037439 0.352314 68 1 84
0.654289 -0.194016 0.209997 72 33 114
0.437106 0.398949 0.163636 68 1 84
0.179229 0.418256 -0.133597 54 90 140
-0.545185 -0.223986 0.021532 53 92 140
0.256135 0.411459 -0.094080 62 72 136
0.428602 -0.337362 -0.199677 51 96 141
0.416903 0.195696 -0.109596 68 1 84
0.116265 0.297294 -0.205911 31 161 135
0.331759 0.485902 0.165346 68 1 84
0.471900 -0.028702 -0.097374 68 1 84
-0.582952 0.162603 0.345844 68 1 84
0.652519 -0.185226 0.460506 68 1 84
-0.598357 -0.229315 0.091389 64 68 135
0.005562 0.246061 -0.262915 47 179 123
0.481205 0.291598 0.396790 68 1 84
0.520580 0.175064 0.042790 68 1 84
-0.137515 0.199409 -0.249840 33 142 140
-0.058775 -0.273289 -0.285827 68 1 84
0.431142 -0.257895 -0.109168 72 25 107
0.397367 -0.353133 -0.236709 63 71 136
0.156246 0.387497 -0.165571 47 105 141
0.088465 0.605004 0.003876 68 1 84
-0.062035 0.385807 -0.202818 34 139 141
0.625858 -0.086527 0.203256 68 1 84
0.464167 -0.440113 -0.228968 68 190 112
-0.062531 -0.129803 -0.316256 68 1 84
0.426283 -0.198224 -0.102279 68 1 84
0.460177 0.335663 0.063691 68 1 84
-0.401519 0.149571 -0.155131 65 65 134
0.039652 0.132265 -0.272937 68 1 84
0.719149 -0.310240 0.446919 71 40 120
-0.002555 0.147849 -0.278176 70 48 125
-0.521981 0.118503 -0.032739 68 1 84
0.660191 -0.423073 0.184115 31 149 139
0.479071 0.279339 0.443428 68 1 84
0.431374 0.183103 -0.100272 68 1 84
0.735731 -0.400899 0.403009 59 81 138
-0.618876 -0.161645 0.155686 71 15 98
0.501021 -0.280706 -0.052031 68 57 130
-0.485343 0.350252 0.106407 68 1 84
-0.560422 -0.517670 0.044195 207 225 28
-0.176595 0.548204 -0.046749 50 181 122
0.702609 -0.274360 0.398641 69 5 88
-0.089009 -0.305616 -0.260564 68 1 84
-0.451373 0.123001 -0.122998 71 24 106
0.561294 0.144364 0.205166 68 1 84
-0.293756 0.291577 -0.165825 58 83 139
-0.171869 -0.364055 -0.255100 67 59 131
0.072248 0.585840 -0.064122 45 110 142
-0.524351 0.109370 -0.030588 68 1 84
0.519714 -0.081860 -0.044456 68 1 84
-0.506812 0.166531 -0.044356 68 1 84
-0.461657 0.400788 0.271491 68 1 84
0.236525 0.335337 -0.155979 69 50 127
-0.417176 -0.403294 -0.212918 32 164 133
0.227411 -0.277318 -0.171853 68 1 84
-0.171437 -0.146715 -0.195183 68 1 84
-0.489843 -0.178422 -0.051654 58 82 139
0.071116 0.510261 -0.132960 39 173 128
0.571319 0.111098 0.215588 68 1 84
0.345190 -0.318171 -0.210759 66 62 133
0.712980 -0.481034 0.307475 32 145 140
0.555310 0.047248 0.053021 68 1 84
0.340730 -0.386928 -0.285303 37 130 142
0.402074 0.369119 -0.008217 68 1 84
0.396655 0.189826 -0.129124 72 35 116
-0.534058 0.294318 0.326957 68 1 84
-0.025100 0.267006 -0.243229 37 171 129
-0.129251 0.109648 -0.233276 71 37 117
0.412788 -0.366185 -0.239285 34 138 141
-0.330911 0.271255 -0.155727 64 68 135
-0.525291 -0.101683 -0.039507 68 1 84
0.311515 0.150994 -0.187913 68 2 85
0.369683 0.119864 -0.163271 68 1 84
-0.601702 -0.006884 0.200896 68 1 84
0.698184 -0.488641 0.269077 30 155 137
-0.215331 0.526075 -0.020513 30 157 136
-0.494976 0.360047 0.292297 68 1 84
0.565291 0.053667 0.094312 68 1 84
0.541592 -0.235189 0.002977 72 30 112
-0.593410 -0.433783 0.097434 31 149 139
-0.561372 0.068193 0.042861 68 1 84
0.306229 -0.413963 -0.307438 43 177 125
-0.475039 -0.292515 -0.042934 49 102 141
-0.573086 -0.015154 0.051953 68 1 84
-0.551316 0.151658 0.056894 68 1 84
-0.674476 -0.469970 0.298733 40 174 127
0.540596 -0.462853 -0.092981 50 181 122
0.625094 -0.422830 0.100734 31 146 140
-0.688764 -0.343278 0.442847 72 34 115
0.203589 0.502778 -0.037013 72 35 116
-0.596499 -0.014393 0.161508 68 1 84
-0.490338 0.365759 0.228304 68 1 84
0.593418 0.055090 0.345868 68 1 84
-0.641682 -0.403732 0.216532 31 146 140
0.369912 -0.104888 -0.135190 68 1 84
-0.232259 0.265741 -0.189862 44 113 142
0.414769 -0.220783 -0.121481 68 1 84
-0.091501 0.316277 -0.239125 59 186 117
-0.503020 -0.475942 -0.099708 231 228 25
0.118949 -0.011532 -0.266002 68 1 84
-0.136935 0.372374 -0.191890 34 167 132
-0.619381 -0.100190 0.494570 68 1 84
-0.565498 0.207094 0.403113 68 1 84
-0.566565 -0.358807 0.045266 32 143 140
-0.633466 -0.134953 0.499400 68 1 84
0.661275 -0.323622 0.189957 39 126 142
-0.583710 -0.304798 0.069076 49 101 141
0.219647 -0.004467 -0.215043 68 1 84
-0.371236 0.412731 -0.004117 71 42 121
-0.283236 0.272551 -0.177885 60 78 138
0.349679 0.383879 -0.060300 68 1 84
0.614922 -0.020402 0.390483 68 1 84
-0.215362 0.488351 -0.061308 42 176 126
0.137513 0.462289 -0.121466 47 105 141
-0.148755 0.070166 -0.219269 68 1 84
0.164694 -0.262409 -0.168649 68 1 84
-0.570449 0.211814 0.310571 68 1 84
0.051447 0.074398 -0.270158 68 1 84
0.556850 -0.183980 0.017705 68 1 84
-0.087182 0.355546 -0.226869 144 214 67
-0.689318 -0.308858 0.370373 69 5 88
0.421694 -0.081981 -0.123550 68 1 84
0.566588 0.149197 0.290328 68 1 84
-0.544487 -0.329629 0.020682 38 128 142
-0.014616 -0.408959 -0.349489 43 115 142
0.137666 -0.377870 -0.327539 48 104 141
-0.477627 0.187817 -0.078292 69 50 127
-0.130106 -0.149872 -0.233254 68 1 84
-0.123815 0.043081 -0.295912 68 1 84
-0.590407 0.033451 0.166764 68 1 84
-0.647578 -0.307548 0.227697 44 112 142
0.630228 -0.379996 0.108328 43 116 142
-0.610847 -0.001411 0.428473 68 1 84
-0.265352 -0.403629 -0.287543 39 126 142
-0.230204 -0.210526 -0.163597 68 1 84
0.039519 -0.407886 -0.347549 34 138 141
0.022387 0.064717 -0.302864 68 1 84
-0.172031 -0.044625 -0.228617 68 1 84
0.529629 0.253330 0.230601 68 1 84
-0.207111 0.557062 0.043056 68 1 84
0.077826 0.597382 -0.038686 61 74 137
-0.386874 -0.056345 -0.152188 71 40 120
-0.636140 -0.198120 0.217556 68 1 84
0.274211 0.248937 -0.180893 63 69 135
0.085422 -0.267204 -0.255645 71 24 106
-0.102090 -0.280066 -0.220608 68 1 84
-0.684874 -0.487406 0.333132 31 161 135
0.044473 0.442451 -0.164650 31 147 139
-0.540986 -0.207419 0.013149 65 66 134
-0.579075 -0.134357 0.054438 68 2 85
0.506456 -0.326179 -0.093972 43 115 142
0.069643 0.043577 -0.304535 68 1 84
0.487745 0.315702 0.115752 68 1 84
0.417790 0.200144 -0.107049 68 1 84
0.635846 -0.400709 0.123024 32 145 140
0.063582 0.379055 -0.205249 42 176 126
-0.610648 -0.303952 0.112948 59 80 138
0.127701 -0.250741 -0.197060 68 1 84
-0.037667 0.555494 -0.122569 33 167 132
0.256745 -0.037278 -0.195996 68 1 84
0.614284 -0.059530 0.458927 68 1 84
-0.220185 -0.375146 -0.253086 62 72 136
-0.532399 0.278807 0.134090 68 1 84
0.417435 -0.284761 -0.139477 67 59 131
0.381119 0.005232 -0.157996 68 1 84
0.625778 -0.237414 0.107879 71 37 117
-0.543357 -0.166753 0.004333 69 52 127
0.512211 0.222342 0.445070 68 1 84
0.513166 -0.321132 -0.076742 30 152 138
0.681484 -0.241216 0.441487 68 1 84
0.117509 0.594080 -0.012997 68 1 84
-0.615769 0.003167 0.325602 68 1 84
-0.490273 -0.021534 -0.088209 71 17 99
0.352648 0.468352 0.243991 68 1 84
-0.006074 0.136213 -0.278309 72 29 111
0.541879 0.150229 0.101536 68 1 84
0.209091 0.498403 -0.035611 71 44 123
-0.469033 0.292444 -0.022031 67 60 132
-0.655403 -0.206205 0.316325 68 1 84
-0.590970 0.137307 0.263094 68 1 84
-0.665192 -0.250714 0.493025 68 1 84
-0.518311 0.318573 0.173386 68 1 84
-0.660864 -0.315881 0.289392 69 53 128
0.518764 0.255535 0.330273 68 1 84
0.552262 0.112953 0.112705 68 1 84
0.151229 -0.150245 -0.209036 68 1 84
-0.662540 -0.228414 0.315738 68 1 84
0.542521 0.045221 0.018352 68 1 84
-0.004054 -0.315520 -0.318967 70 14 97
-0.069552 -0.145983 -0.302313 68 1 84
-0.303723 0.207125 -0.186575 53 93 140
0.629710 -0.221162 0.119841 68 1 84
0.457478 -0.259252 -0.082432 72 35 116
0.409145 0.090937 -0.140640 68 1 84
-0.185676 -0.366070 -0.250263 71 18 101
-0.518335 0.195687 -0.006920 68 1 84
-0.425151 -0.200566 -0.084505 71 24 106
0.226535 -0.176896 -0.166785 68 1 84
0.349728 -0.378879 -0.276726 48 104 141
0.553256 0.186773 0.300807 68 1 84
-0.372424 -0.243494 -0.123771 67 59 131
-0.319003 -0.221921 -0.156527 68 1 84
0.382018 0.264249 -0.110978 68 1 84
-0.137567 0.034609 -0.288602 68 1 84
0.065439 0.171211 -0.264567 67 59 131
-0.206400 0.546847 -0.002388 61 76 137
0.553133 0.188977 0.283638 68 1 84
0.550542 -0.360159 -0.043302 35 136 141
-0.664627 -0.245428 0.484421 68 1 84
0.332980 0.432203 -0.004693 68 1 84
0.627211 -0.104074 0.461934 68 1 84
0.530496 0.246476 0.198349 68 1 84
0.687851 -0.263382 0.331687 68 1 84
-0.551010 -0.275634 0.032273 49 101 141
-0.338709 -0.473980 -0.288664 79 195 105
-0.165700 -0.434050 -0.335202 56 185 118
0.234435 0.499846 -0.001754 68 1 84
-0.643300 -0.161335 0.312929 68 1 84
0.338981 -0.112798 -0.143622 68 1 84
0.112302 -0.043146 -0.264630 68 1 84
0.453801 -0.007309 -0.111563 68 1 84
-0.510885 0.334106 0.202100 68 1 84
-0.115621 0.428295 -0.162707 59 186 117
-0.415455 -0.343543 -0.147657 42 119 142
-0.461682 0.373620 0.088371 68 1 84
0.263911 0.515646 0.092270 68 1 84
-0.508059 -0.081281 -0.064482 69 5 88
-0.490226 -0.456764 -0.133009 119 208 82
0.336637 -0.031613 -0.167906 68 1 84
0.171080 0.148646 -0.217878 68 1 84
0.031940 0.020368 -0.390457 71 18 101
-0.106300 0.044226 -0.295631 68 1 84
0.759088 -0.490502 0.428009 68 1 84
-0.652863 -0.517429 0.228491 81 196 104
0.105043 0.114741 -0.232667 68 1 84
-0.684254 -0.438945 0.333273 57 84 139
0.320865 0.027423 -0.189032 68 1 84
0.452148 -0.267645 -0.092144 71 24 106
0.437111 0.185092 -0.093370 68 1 84
0.068616 -0.139285 -0.299419 68 1 84
-0.626364 -0.159537 0.191932 68 1 84
0.158891 -0.238441 -0.172560 68 1 84
-0.698145 -0.464858 0.400723 55 88 140
0.590876 -0.001430 0.149466 68 1 84
0.502540 0.259486 0.076359 68 1 84
-0.548612 0.042491 0.003025 68 1 84
0.567379 -0.137214 0.028300 68 1 84
-0.651059 -0.200795 0.515171 68 1 84
-0.374742 -0.395758 -0.237679 30 160 135
-0.195196 0.386534 -0.153120 35 137 141
0.671249 -0.402076 0.216646 39 124 142
0.689797 -0.434723 0.262422 40 122 142
-0.382848 0.180512 -0.158890 67 58 131
0.416754 -0.437043 -0.269676 100 203 93
0.560679 0.167493 0.269826 68 1 84
0.303984 -0.365173 -0.271217 55 89 140
-0.583378 0.111465 0.474813 68 1 84
-0.594054 0.038047 0.186946 68 1 84
-0.288406 0.491319 0.049584 70 9 92
-0.217303 0.183164 -0.213402 56 87 140
0.493873 -0.165051 -0.051671 68 1 84
-0.031707 -0.289652 -0.306503 68 1 84
0.571759 0.068805 0.163667 68 1 84
-0.472269 0.043939 -0.107981 72 34 115
0.546673 0.133622 0.469412 68 1 84
-0.176404 -0.432501 -0.332628 68 190 112
0.205673 -0.112042 -0.189273 68 1 84
0.551291 0.193529 0.232630 68 1 84
0.662404 -0.221210 0.235049 68 1 84
0.684673 -0.358219 0.263331 47 105 141
0.665001 -0.312184 0.203151 57 85 139
-0.292194 0.355905 -0.124443 71 38 118
0.544158 0.020051 0.010041 68 1 84
-0.620534 -0.014622 0.323196 68 1 84
0.089155 -0.273351 -0.253309 72 30 112
-0.184742 -0.014308 -0.222738 68 1 84
0.530895 -0.352109 -0.077283 34 167 132
-0.583117 0.170707 0.267089 68 1 84
-0.685925 -0.417053 0.338073 62 72 136
-0.009592 0.175145 -0.281918 53 93 140
-0.590569 0.138368 0.274620 68 1 84
0.259990 -0.333958 -0.222564 41 121 142
0.241094 0.096964 -0.212413 71 15 98
-0.672314 -0.285179 0.492854 68 1 84
-0.093641 0.348658 -0.229462 162 218 55
0.644909 -0.114917 0.315247 68 1 84
0.574689 -0.432190 -0.004231 34 167 132
-0.187960 0.256798 -0.200825 40 122 142
-0.125299 -0.065704 -0.261880 68 1 84
-0.482281 0.376358 0.296790 68 1 84
-0.516703 -0.462302 -0.064672 146 215 65
-0.272806 0.499230 0.034474 64 67 135
0.311154 -0.274730 -0.179980 68 1 84
-0.531521 -0.238566 0.010312 64 67 135
0.108444 -0.338769 -0.296826 63 71 136
-0.341836 0.383502 -0.074559 46 108 142
0.574041 0.123164 0.312801 68 1 84
-0.623927 -0.530915 0.176064 64 189 114
-0.151456 -0.003759 -0.234422 68 1 84
-0.502394 -0.098620 -0.067739 68 1 84
-0.357067 -0.070366 -0.156330 68 1 84
0.440815 0.388740 0.129226 68 1 84
-0.154679 0.366334 -0.185712 30 156 137
0.302877 -0.359781 -0.265224 49 100 141
0.282609 0.387046 -0.105205 63 71 136
0.582849 -0.450759 0.005662 75 194 108
0.388957 0.139840 -0.147924 69 6 90
0.580960 0.041177 0.170072 68 1 84
-0.579069 0.182422 0.313305 68 1 84
-0.052504 0.112656 -0.276507 68 1 84
-0.191228 0.520349 -0.059857 81 196 104
0.179398 -0.178077 -0.175190 68 1 84
0.593063 0.061542 0.295286 68 1 84
0.613874 -0.248343 0.083021 70 49 126
-0.321495 -0.240384 -0.154247 72 28 110
-0.428715 0.412610 0.103224 68 1 84
0.497803 0.207089 0.012072 68 1 84
-0.476774 0.242945 -0.051474 68 2 85
0.590135 -0.072758 0.078461 68 1 84
0.153979 -0.109288 -0.225210 68 1 84
0.070958 0.365104 -0.215405 136 213 71
0.590608 0.034292 0.437185 68 1 84
-0.038422 0.344429 -0.241983 238 229 27
-0.431287 0.345889 -0.019880 72 30 112
0.075318 -0.050309 -0.325409 68 1 84
-0.364746 0.111339 -0.180004 38 127 142
-0.090966 -0.044114 -0.326598 68 1 84
-0.481496 0.086961 -0.095415 68 1 84
-0.684442 -0.321500 0.438054 69 8 91
0.253312 0.015506 -0.209636 68 1 84
-0.304904 0.469801 0.023067 59 81 138
0.532455 0.214499 0.370215 68 1 84
-0.483837 -0.337521 -0.066309 46 107 142
0.580622 0.096658 0.256711 68 1 84
-0.659814 -0.249417 0.297084 69 53 128
0.380185 -0.050735 -0.147918 68 1 84
0.511374 0.239962 0.081233 68 1 84
-0.052625 0.039885 -0.373172 70 48 125
-0.691699 -0.358839 0.432442 72 30 112
0.416593 0.390029 0.056290 68 1 84
-0.007529 -0.205706 -0.319858 68 1 84
-0.685434 -0.437025 0.338652 52 95 141
0.633487 -0.084212 0.400952 68 1 84
-0.570441 0.025753 0.057765 68 2 85
0.013034 0.070030 -0.335998 68 1 84
-0.639594 -0.278599 0.192109 63 71 136
0.117575 -0.232589 -0.207484 68 1 84
0.745652 -0.398408 0.458917 69 5 88
-0.556548 0.249595 0.246820 68 1 84
-0.569406 -0.115838 0.033734 68 1 84
-0.277116 -0.391157 -0.266626 43 115 142
-0.322843 0.491749 0.136867 68 1 84
-0.561969 -0.402157 0.034314 34 167 132
-0.635154 -0.083497 0.372001 68 1 84
-0.070034 -0.061361 -0.348239 68 1 84
0.396166 0.426482 0.276359 68 1 84
0.477064 -0.097417 -0.086654 68 1 84
0.592392 -0.333804 0.038459 59 80 138
-0.054607 0.484500 -0.158118 30 151 138
0.262377 0.358500 -0.135699 56 87 140
0.044855 -0.030565 -0.376990 68 2 85
-0.511652 -0.196245 -0.024030 67 59 131
0.598939 0.005560 0.443581 68 1 84
0.025596 0.061237 -0.304393 68 1 84
-0.127271 -0.183551 -0.213649 68 1 84
-0.503364 0.257023 0.012030 68 1 84
-0.001042 -0.283516 -0.312781 68 1 84
0.045864 -0.081882 -0.346825 68 1 84
-0.002721 0.074978 -0.326268 68 1 84
-0.297289 -0.301165 -0.168631 72 34 115
-0.182748 -0.332261 -0.200828 68 1 84
-0.004497 0.160561 -0.279104 65 65 134
-0.049379 -0.257353 -0.293071 68 1 84
0.571704 0.039441 0.106872 68 1 84
0.426768 0.404007 0.127534 68 1 84
-0.332537 0.480614 0.118066 68 1 84
0.252901 0.454464 -0.045265 71 37 117
0.453837 0.037805 -0.107041 68 1 84
0.653995 -0.435696 0.167791 38 129 142
-0.647995 -0.280014 0.239926 60 77 138
-0.533055 -0.135615 -0.019979 70 12 95
-0.511647 0.310089 0.403719 68 1 84
0.627602 -0.106805 0.464058 68 1 84
0.679303 -0.253820 0.302309 68 1 84
-0.435940 -0.370045 -0.164696 32 144 140
0.297804 0.344080 -0.130398 68 55 129
-0.474561 0.322186 0.027955 68 1 84
-0.543530 0.178722 0.049324 68 1 84
0.516844 0.116337 -0.001419 68 1 84
-0.363516 -0.407744 -0.252720 31 146 140
0.647816 -0.154369 0.223034 68 1 84
0.143363 0.376780 -0.176991 39 126 142
-0.624006 -0.545045 0.175198 56 185 118
-0.488817 -0.506467 -0.125183 246 230 31
-0.543655 -0.184115 0.009646 69 52 127
-0.050185 0.343582 -0.242826 191 223 36
-0.510504 0.283367 0.063732 68 1 84
-0.668270 -0.251473 0.452646 68 1 84
-0.535047 0.250784 0.095576 68 2 85
0.483945 0.154470 -0.044613 68 1 84
-0.329365 0.422252 -0.034249 57 84 139
-0.199046 -0.131079 -0.184873 68 1 84
0.236778 -0.281267 -0.176109 68 1 84
0.620815 -0.047924 0.416521 68 1 84
0.238922 -0.164169 -0.165658 68 1 84
0.306922 0.217737 -0.174821 69 54 129
-0.573589 -0.189854 0.051451 53 92 140
0.620061 -0.058078 0.216523 68 1 84
-0.188190 0.183999 -0.221298 36 134 141
-0.415010 -0.445153 -0.233638 85 198 102
-0.586278 0.080094 0.168818 68 1 84
0.354651 0.301904 -0.114154 71 18 101
0.163706 -0.243848 -0.169068 68 1 84
-0.173711 0.453596 -0.120553 32 164 133
-0.217070 -0.208628 -0.163258 68 1 84
0.389401 0.444390 0.197017 68 1 84
-0.385751 0.190308 -0.154697 64 68 135
0.296511 0.130043 -0.196375 72 26 108
-0.601055 0.069735 0.244568 68 1 84
0.566765 0.129005 0.372974 68 1 84
0.537802 -0.056804 -0.018379 68 1 84
-0.522770 0.279921 0.096549 69 8 91
0.652490 -0.168263 0.407550 68 1 84
0.610895 -0.000314 0.333203 68 1 84
0.113562 0.596619 -0.006286 68 1 84
0.636760 -0.102302 0.244943 68 1 84
-0.660372 -0.366301 0.274464 48 103 141
0.458386 0.365573 0.265092 68 1 84
-0.502831 -0.051336 -0.073067 72 28 110
-0.437194 -0.438797 -0.211398 114 207 85
0.429496 0.049493 -0.127448 68 1 84
0.689513 -0.417958 0.262840 47 105 141
-0.085555 0.553630 -0.115084 32 164 133
-0.438909 -0.441064 -0.210549 105 204 91
-0.643381 -0.300803 0.205296 63 69 135
-0.173511 -0.265840 -0.159120 68 1 84
0.733665 -0.406892 0.392426 62 72 136
0.264564 0.263784 -0.182240 61 76 137
-0.116475 -0.034486 -0.277603 68 1 84
0.577992 0.067875 0.197433 68 1 84
-0.450136 -0.301713 -0.075133 54 91 140
-0.055676 0.328212 -0.249672 100 203 93
-0.590365 0.137483 0.289012 68 1 84
0.507886 0.298488 0.190310 68 1 84
0.059945 0.383743 -0.202033 30 156 137
0.057340 0.483974 -0.149174 50 181 122
0.229363 0.041839 -0.215616 68 1 84
-0.077910 0.044456 -0.285056 68 1 84
0.595066 -0.455737 0.035402 37 171 129
0.507179 -0.122918 -0.052306 68 3 87
0.520091 0.224102 0.406908 68 1 84
0.023809 0.480243 -0.158693 37 171 129
-0.434243 -0.443719 -0.216040 165 218 53
0.152309 0.248127 -0.209996 72 35 116
-0.615459 -0.082273 0.534771 68 1 84
0.744857 -0.423859 0.406576 59 81 138
-0.586501 0.105212 0.177558 68 1 84
0.562113 -0.458359 -0.042571 33 166 133
0.544828 0.018370 0.010611 68 1 84
-0.051097 0.042537 -0.371575 65 66 134
-0.486975 0.372551 0.273526 68 1 84
-0.106764 -0.367141 -0.311742 70 47 124
0.611518 -0.231521 0.081964 72 33 114
0.135250 0.008278 -0.238835 68 1 84
-0.482051 0.143773 -0.085680 68 1 84
0.163765 0.276748 -0.187336 58 83 139
-0.483488 -0.292535 -0.032493 51 96 141
-0.284970 0.479047 0.012528 47 105 141
-0.598421 -0.104745 0.104637 68 1 84
-0.163126 -0.282331 -0.167243 68 1 84
-0.656329 -0.247670 0.288267 71 17 99
0.672487 -0.254757 0.263801 71 17 99
0.489656 0.294982 0.082803 68 1 84
-0.388752 -0.481688 -0.256384 112 206 86
0.690973 -0.258855 0.461843 68 1 84
0.315501 0.237193 -0.164279 70 12 95
0.068742 0.044537 -0.314514 68 1 84
-0.564031 -0.478704 0.050041 105 204 91
-0.083180 0.219843 -0.273270 44 177 125
-0.568854 0.204808 0.386411 68 1 84
0.679276 -0.225808 0.328652 69 8 91
0.195409 0.545030 0.014973 69 5 88
-0.427290 -0.275476 -0.084792 69 54 129
0.185136 -0.187898 -0.172021 68 1 84
-0.677922 -0.530387 0.301044 66 190 113
-0.162807 0.080635 -0.215495 68 1 84
0.445744 0.390136 0.201752 68 1 84
0.582123 0.036779 0.467326 68 1 84
0.427131 -0.102898 -0.113917 68 1 84
-0.108551 -0.048564 -0.284297 68 1 84
-0.539879 -0.065683 -0.022154 68 1 84
0.658174 -0.190069 0.248470 68 1 84
-0.587265 -0.049644 0.087290 68 2 85
0.642185 -0.428900 0.139455 35 135 141
0.011873 0.351539 -0.234228 165 218 53
-0.307956 0.170407 -0.192829 50 98 141
0.379484 0.143413 -0.153483 70 11 94
0.105946 0.020950 -0.311226 68 1 84
-0.610676 -0.184756 0.121603 71 20 102
0.100359 0.412364 -0.171196 32 165 133
-0.644509 -0.519272 0.211695 59 186 117
0.685262 -0.242978 0.335485 68 1 84
0.651024 -0.147365 0.275488 68 1 84
0.259939 0.414752 -0.089050 68 1 84
0.647312 -0.416619 0.151808 32 145 140
0.007132 0.341990 -0.242474 126 210 78
0.586579 -0.082187 0.067115 68 1 84
-0.139281 0.543883 -0.090267 40 123 142
0.375486 0.312695 -0.090490 69 6 90
0.672461 -0.223251 0.302205 68 1 84
0.502258 -0.129829 -0.055307 68 1 84
0.330286 -0.423812 -0.303037 30 151 138
0.559703 -0.379897 -0.030400 36 170 130
-0.675108 -0.277454 0.436837 68 2 85
0.698361 -0.266226 0.381261 68 3 87
-0.348850 0.446778 0.033604 68 1 84
-0.595087 0.035175 0.190264 68 1 84
0.041034 -0.397590 -0.346067 39 124 142
0.071194 0.049551 -0.271518 68 1 84
0.546759 0.203325 0.301381 68 1 84
-0.297968 0.218161 -0.185953 51 97 141
0.148499 0.009506 -0.226903 68 1 84
-0.434883 0.053380 -0.141444 71 37 117
-0.272413 -0.012780 -0.202295 68 1 84
-0.637643 -0.158031 0.276901 68 1 84
-0.668898 -0.262678 0.315285 71 18 101
-0.211275 -0.427499 -0.321914 31 162 134
0.567299 -0.034537 0.039877 68 1 84
0.633382 -0.075709 0.288457 68 1 84
0.264529 0.400251 -0.101596 60 77 138
-0.486943 -0.377595 -0.102137 31 149 139
-0.640444 -0.158377 0.296070 68 1 84
-0.204185 -0.141958 -0.176813 68 1 84
0.194198 0.112152 -0.214059 68 1 84
-0.331395 0.485508 0.130871 68 1 84
-0.015728 -0.164617 -0.329759 68 1 84
0.740336 -0.379004 0.427978 72 26 108
-0.248747 -0.126684 -0.164775 68 1 84
0.637062 -0.090296 0.383720 68 1 84
0.373830 0.432445 0.066024 68 1 84
-0.510044 0.039716 -0.063170 72 26 108
0.611516 -0.106108 0.120449 68 1 84
0.160799 -0.215709 -0.176205 68 1 84
0.413494 -0.297586 -0.160399 68 57 130
0.528131 0.198162 0.427729 68 1 84
-0.168222 -0.400437 -0.321151 46 108 142
-0.436349 -0.100820 -0.119005 68 57 130
0.114306 -0.317934 -0.261529 55 88 140
0.457201 0.152648 -0.082520 68 1 84
0.697669 -0.378920 0.299249 61 75 137
-0.618621 -0.091496 0.523809 68 1 84
-0.281395 0.452418 -0.034732 44 114 142
-0.179858 -0.168404 -0.176201 68 1 84
0.298503 0.338960 -0.132996 64 67 135
0.068208 -0.231088 -0.274319 68 1 84
0.494001 -0.235852 -0.039730 68 1 84
-0.644918 -0.167155 0.476700 68 1 84
0.294648 0.416675 -0.066195 71 24 106
-0.590634 -0.174744 0.078493 65 66 134
-0.684005 -0.436292 0.331219 55 88 140
0.344331 0.110278 -0.178389 70 12 95
0.134723 -0.281830 -0.199245 68 1 84
0.287971 0.398024 -0.092224 47 106 141
0.537631 0.078964 0.026939 68 1 84
0.655841 -0.359035 0.172920 67 58 131
-0.081164 -0.324057 -0.287424 68 1 84
0.128752 -0.154188 -0.229695 68 1 84
0.194880 0.025524 -0.219791 68 1 84
-0.385741 -0.116262 -0.131281 71 17 99
-0.163174 -0.078929 -0.230912 68 1 84
0.077185 0.419961 -0.170731 44 177 125
-0.087276 -0.045543 -0.334399 68 1 84
-0.503384 0.347951 0.289091 68 1 84
-0.590772 0.088597 0.190800 68 1 84
-0.233726 0.087881 -0.213803 49 101 141
0.587893 -0.055067 0.079996 68 1 84
-0.525777 0.126637 -0.023880 68 1 84
0.070945 0.354154 -0.223221 139 213 70
-0.617031 -0.474962 0.163630 30 157 136
-0.413650 0.295126 -0.087856 50 98 141
0.027256 0.254332 -0.244496 35 135 141
0.580314 -0.028536 0.074955 68 1 84
-0.459193 -0.048385 -0.115328 72 29 111
-0.394093 -0.103425 -0.134186 68 1 84
0.672763 -0.258776 0.260854 68 1 84
-0.191275 -0.051736 -0.221572 68 1 84
-0.677397 -0.422748 0.307517 33 140 141
0.279001 0.508734 0.102132 68 1 84
0.518408 -0.313097 -0.060479 53 93 140
0.248921 0.187764 -0.201303 70 48 125
-0.111074 0.273116 -0.220496 31 146 140
0.464740 -0.438160 -0.228567 69 191 111
-0.222679 0.545371 0.034327 71 39 119
0.725017 -0.320858 0.433756 72 34 115
-0.084156 0.498074 -0.149372 44 177 125
0.561805 -0.397856 -0.029274 34 138 141
0.554931 -0.094519 0.007193 68 1 84
-0.043685 -0.074282 -0.359076 68 1 84
0.583388 0.040180 0.458045 68 1 84
-0.527735 0.168890 -0.001860 68 1 84
-0.579894 0.177587 0.353312 68 1 84
-0.415518 -0.024610 -0.146607 70 9 92
-0.176205 -0.370797 -0.266188 63 71 136
0.501531 -0.115680 -0.060126 68 1 84
-0.494399 0.202398 -0.048892 68 1 84
-0.071875 -0.404741 -0.344810 32 145 140
0.027730 0.041897 -0.380861 68 1 84
0.576164 -0.172096 0.040251 68 1 84
-0.068173 -0.181248 -0.290787 68 1 84
0.369963 -0.295633 -0.188325 62 72 136
-0.603779 -0.072568 0.144508 68 1 84
-0.531633 0.272738 0.417146 68 1 84
-0.653796 -0.185524 0.427871 68 1 84
0.312458 0.217646 -0.172185 71 40 120
0.042031 -0.367090 -0.339866 53 92 140
0.227310 0.491585 -0.022270 68 1 84
0.364644 0.265634 -0.123795 68 1 84
-0.078370 -0.188976 -0.274162 68 1 84
-0.397721 -0.461767 -0.250434 141 214 68
0.480509 -0.344947 -0.157640 45 111 142
0.417731 -0.263556 -0.124764 71 17 99
-0.172644 0.389944 -0.163630 35 137 141
0.442479 -0.228794 -0.089522 68 3 87
-0.513190 -0.126595 -0.048220 71 17 99
0.565136 0.140747 0.224564 68 1 84
-0.631086 -0.145939 0.242700 68 1 84
0.143413 0.120010 -0.220754 68 1 84
-0.408146 0.044909 -0.159460 71 22 105
0.621607 -0.036015 0.341050 68 1 84
-0.121928 0.171153 -0.256583 41 121 142
0.359435 0.347815 -0.083431 68 1 84
0.633131 -0.142353 0.166882 68 1 84
-0.699428 -0.431408 0.470761 71 40 120
0.346057 -0.008070 -0.171822 68 1 84
0.643391 -0.198182 0.162806 71 37 117
0.648059 -0.169255 0.451822 68 1 84
-0.000666 -0.037085 -0.391383 68 1 84
0.643646 -0.448547 0.142677 30 154 137
-0.662743 -0.223828 0.440234 68 1 84
0.514786 -0.440214 -0.150098 149 215 63
-0.294595 -0.326094 -0.195963 70 49 126
-0.272089 0.511642 0.074321 68 1 84
0.174121 -0.399959 -0.326495 36 132 141
-0.457808 0.030956 -0.121702 72 29 111
-0.618622 -0.036717 0.273230 68 1 84
-0.571862 0.187801 0.405430 68 1 84
-0.001908 0.111231 -0.281024 68 1 84
0.558216 0.170383 0.313538 68 1 84
0.527809 0.218898 0.382808 68 1 84
-0.420806 0.336079 -0.046095 49 100 141
-0.307640 0.484448 0.074352 68 1 84
-0.374155 0.438786 0.055185 68 1 84
0.691215 -0.273738 0.340598 68 1 84
-0.525613 0.297358 0.141965 68 1 84
0.442675 -0.351533 -0.204875 54 90 140
-0.298389 0.236780 -0.181281 54 90 140
0.181076 0.344265 -0.164083 49 102 141
-0.430803 0.291305 -0.073864 47 105 141
-0.220805 0.548852 0.071021 68 1 84
0.362859 0.243177 -0.134294 68 1 84
0.581267 0.004850 0.109534 68 1 84
-0.471783 0.344927 0.056387 68 1 84
0.421124 0.094823 -0.130839 68 1 84
-0.697510 -0.571677 0.399730 30 158 136
-0.239188 0.401049 -0.116511 46 107 142
-0.030866 0.130383 -0.278998 70 12 95
0.217816 0.307389 -0.173835 66 64 133
0.756841 -0.486021 0.375244 42 117 142
0.603537 0.025440 0.317767 68 1 84
-0.499659 0.335981 0.126720 68 1 84
0.102672 -0.159489 -0.255621 68 1 84
0.322787 0.067110 -0.191053 70 12 95
0.264341 -0.176222 -0.165867 68 1 84
-0.608681 -0.354498 0.115118 54 91 140
0.065896 -0.013546 -0.360441 68 1 84
-0.038131 -0.371746 -0.339640 58 83 139
-0.143703 0.025473 -0.275837 68 1 84
-0.142722 -0.223923 -0.179885 68 1 84
-0.357542 0.475880 0.152502 68 1 84
-0.052359 0.600419 -0.047433 66 61 132
-0.504979 0.115595 -0.060464 68 1 84
0.306345 -0.416237 -0.307846 50 181 122
-0.501510 -0.448177 -0.107936 116 208 84
-0.150498 0.560386 -0.057994 39 173 128
-0.682031 -0.313878 0.446470 71 20 102
-0.424630 -0.307154 -0.102410 70 48 125
-0.653660 -0.270287 0.273957 68 55 129
-0.446304 -0.107085 -0.111859 71 44 123
0.425808 0.371284 0.371325 68 1 84
0.575156 -0.316150 0.016837 49 102 141
0.348929 0.413072 -0.019193 68 1 84
0.045296 -0.330642 -0.319960 72 32 113
0.300248 0.329189 -0.137377 69 52 127
0.644489 -0.157538 0.198876 68 1 84
0.388485 0.179192 -0.138372 72 30 112
-0.283778 0.399815 -0.091839 38 127 142
0.555089 0.119153 0.142155 68 1 84
-0.017383 -0.071893 -0.371131 68 1 84
-0.679879 -0.306462 0.450940 70 12 95
0.676848 -0.324447 0.243869 70 47 124
-0.007118 0.545205 -0.131404 34 167 132
0.493462 -0.138654 -0.060800 68 1 84
-0.453656 0.409737 0.263878 68 1 84
0.424465 -0.135981 -0.104787 68 1 84
-0.501621 0.209868 -0.031823 68 2 85
-0.417603 0.363186 -0.017422 63 69 135
-0.321124 0.489035 0.120377 68 1 84
0.400626 -0.146962 -0.116109 68 1 84
0.474943 0.240691 -0.010081 68 1 84
0.541837 -0.065917 -0.012851 68 1 84
0.571201 0.025928 0.089339 68 1 84
0.484196 0.290935 0.061537 68 1 84
-0.532016 -0.407822 -0.022213 43 177 125
-0.416079 0.385037 0.012860 69 54 129
-0.583032 -0.292120 0.069153 56 87 140
-0.100484 0.027362 -0.338028 68 1 84
0.635832 -0.137729 0.478608 68 1 84
-0.137879 -0.019897 -0.249299 68 1 84
-0.210286 0.297885 -0.163233 63 71 136
-0.598061 0.101222 0.272129 68 1 84
-0.606261 -0.155486 0.115489 72 25 107
0.716528 -0.434793 0.329144 36 132 141
0.725920 -0.438228 0.349170 34 138 141
0.129865 0.015278 -0.267907 68 1 84
0.656358 -0.269865 0.181062 71 22 105
-0.542413 0.250501 0.126565 68 1 84
0.586298 0.000710 0.128794 68 1 84
-0.277403 -0.117095 -0.158360 68 1 84
-0.569122 0.075279 0.078679 68 1 84
0.328229 0.086387 -0.187980 71 17 99
0.244830 0.247552 -0.194071 69 54 129
-0.584864 0.135714 0.435600 68 1 84
-0.482498 -0.095867 -0.088904 72 26 108
0.008397 -0.202869 -0.319835 68 1 84
0.534612 0.165725 0.080879 68 1 84
-0.231232 0.516405 -0.010116 40 122 142
0.533820 0.235461 0.297186 68 1 84
-0.611318 -0.074494 0.189236 68 1 84
0.476081 -0.447513 -0.211657 38 172 129
0.593965 -0.014514 0.482732 68 1 84
0.619700 -0.093602 0.489786 68 1 84
-0.659732 -0.203227 0.359984 68 1 84
-0.599246 -0.231481 0.092833 53 92 140
0.618600 -0.052439 0.217931 68 1 84
-0.650209 -0.569521 0.227418 89 199 100
0.320363 0.488926 0.134883 68 1 84
0.222764 0.542689 0.109341 68 1 84
0.008248 0.593332 -0.073213 58 82 139
0.507339 0.273569 0.337251 68 1 84
-0.321410 0.138060 -0.194529 41 121 142
0.052323 0.013255 -0.378423 68 1 84
-0.457606 0.355544 0.041688 68 1 84
0.529123 0.202200 0.105691 68 1 84
-0.440838 0.182311 -0.118090 71 21 103
0.499798 0.314405 0.199322 68 1 84
-0.401665 0.370834 -0.028775 60 78 138
-0.017058 0.552315 -0.125737 32 143 140
0.336351 0.375126 -0.081381 63 71 136
-0.163395 -0.217714 -0.171652 68 1 84
-0.661574 -0.232379 0.486963 68 1 84
-0.501013 0.302039 0.062830 68 1 84
0.120301 -0.390560 -0.334381 37 130 142
-0.498582 0.139553 -0.064652 68 1 84
-0.239843 0.221063 -0.203378 54 90 140
-0.611790 0.018679 0.316548 68 1 84
0.252775 0.479292 -0.010187 68 1 84
-0.048795 0.106373 -0.276829 68 1 84
-0.314365 0.356072 -0.115701 70 49 126
-0.647851 -0.184688 0.497596 68 1 84
0.274430 0.388690 -0.107938 62 72 136
0.325083 -0.141492 -0.147244 68 1 84
-0.383600 0.421894 0.030773 68 1 84
-0.056972 -0.085445 -0.343449 68 1 84
-0.276314 -0.040442 -0.192139 68 1 84
0.496203 0.146787 -0.027474 68 1 84
0.058984 0.038626 -0.362060 68 1 84
-0.583818 -0.443037 0.079942 34 167 132
0.337531 0.131042 -0.178968 71 15 98
0.136358 0.065794 -0.222118 68 1 84
-0.030582 -0.158196 -0.327577 68 1 84
-0.591907 0.045881 0.180982 68 1 84
-0.553479 0.243891 0.171935 68 1 84
0.362634 -0.216275 -0.160777 71 20 102
-0.004810 0.131510 -0.278534 70 11 94
-0.584419 0.145153 0.196835 68 1 84
0.232370 0.446217 -0.071452 55 88 140
0.228804 0.497714 -0.012676 68 1 84
0.434262 -0.327491 -0.182666 52 95 141
-0.655108 -0.326504 0.268900 65 66 134
-0.030068 -0.040507 -0.386359 68 1 84
-0.577491 0.175184 0.387794 68 1 84
-0.108400 0.032223 -0.324953 68 1 84
0.467805 0.219799 -0.036654 68 1 84
0.183881 -0.349617 -0.259836 42 117 142
0.735616 -0.378485 0.409295 72 28 110
0.569215 -0.086654 0.031640 68 1 84
0.445896 0.335721 0.027954 68 1 84
0.310936 -0.293627 -0.189759 72 30 112
0.578173 0.051554 0.462619 68 1 84
-0.602752 -0.094837 0.124456 68 1 84
-0.198033 0.328184 -0.165904 38 129 142
0.557876 -0.451696 -0.049788 30 151 138
0.430446 0.375859 0.340481 68 1 84
-0.608240 0.041158 0.339083 68 1 84
-0.663968 -0.222382 0.412975 68 1 84
-0.504693 0.058600 -0.069085 70 11 94
0.464588 -0.202797 -0.067028 68 1 84
-0.580523 0.024209 0.103329 68 1 84
0.646905 -0.120507 0.331839 68 1 84
