ply
format ascii 1.0
element vertex 1276
property float x
property float y
property float z
property uchar red
property uchar green
property uchar blue
end_header
-0.274981 0.550680 -0.093867 68 1 84
-0.210564 -0.107279 -0.213343 68 1 84
-0.364994 -0.184143 -0.143951 68 1 84
-0.171352 -0.551109 -0.289101 68 1 84
0.217586 0.039105 -0.219423 72 29 111
-0.451982 0.248925 -0.031322 68 1 84
0.563699 0.211783 0.556963 68 1 84
0.496210 -0.126931 -0.082268 61 75 137
0.540487 0.215173 0.141942 68 1 84
-0.526517 -0.257310 -0.012732 68 1 84
0.602658 0.132184 0.469464 68 1 84
0.178687 -0.030349 -0.233872 69 54 129
0.344847 -0.126890 -0.159429 68 1 84
-0.441365 0.352849 0.014493 68 1 84
-0.419051 0.068963 -0.133986 68 1 84
0.578029 0.284310 0.422324 68 1 84
-0.051431 0.005409 -0.360545 35 137 141
-0.419480 -0.517710 -0.143796 68 1 84
-0.569841 0.224324 0.527794 68 1 84
0.235189 -0.102888 -0.208959 68 1 84
0.332002 0.506433 -0.027963 68 1 84
-0.609688 0.100365 0.343262 68 1 84
0.125723 -0.111914 -0.375074 50 98 141
-0.476426 -0.291603 -0.048348 68 1 84
0.634113 -0.039374 0.364293 68 1 84
0.407425 0.196341 -0.102473 68 1 84
-0.626286 -0.499357 0.433792 43 116 142
-0.325716 0.418328 -0.093379 70 11 94
-0.153882 0.189596 -0.313964 191 223 36
0.658804 -0.100076 0.430567 69 5 88
0.592110 -0.403500 0.091381 70 9 92
0.100773 -0.225451 -0.371391 68 1 84
0.121320 -0.152912 -0.360046 65 66 134
-0.455313 -0.303767 -0.059139 68 1 84
0.130244 -0.192753 -0.323271 68 1 84
-0.635881 -0.229951 0.213837 65 66 134
-0.527271 -0.034156 -0.029937 68 1 84
0.510028 0.353178 0.153939 68 1 84
0.540208 0.171124 0.114769 68 1 84
-0.376893 -0.220982 -0.130484 68 1 84
0.597669 0.199707 0.412132 68 1 84
0.396113 0.149555 -0.128409 68 1 84
0.073142 0.036660 -0.353452 36 132 141
0.576886 0.238712 0.479588 68 1 84
-0.221489 0.379889 -0.207986 30 152 138
-0.411101 0.515666 0.103426 68 1 84
-0.593904 -0.389910 0.198191 70 48 125
0.558731 0.016135 0.027973 70 9 92
0.067689 -0.472017 -0.301342 68 1 84
-0.507722 -0.341328 0.003594 68 1 84
-0.495189 0.293101 0.065280 68 1 84
-0.539348 -0.510632 0.124267 68 1 84
0.168412 -0.535109 -0.300245 68 1 84
0.195668 0.258704 -0.260362 37 131 141
-0.512676 0.208912 0.052402 68 1 84
-0.658338 -0.192111 0.453431 54 90 140
0.561860 0.065125 0.078493 68 1 84
-0.567265 -0.148883 0.022114 68 1 84
0.064460 0.448894 -0.258318 34 139 141
-0.031168 0.102282 -0.349987 91 200 98
-0.280154 0.544166 -0.090078 68 1 84
0.164824 0.325628 -0.262193 34 137 141
-0.584882 -0.450877 0.229702 70 49 126
-0.090379 -0.205144 -0.289668 68 1 84
-0.582624 0.243765 0.264419 68 1 84
-0.506766 -0.019768 -0.056144 68 1 84
-0.651709 -0.168692 0.385249 66 62 133
0.025347 -0.483732 -0.305871 68 1 84
-0.621502 0.028143 0.426242 72 28 110
-0.016686 0.031590 -0.408731 53 183 120
0.661848 -0.251244 0.252550 69 52 127
0.562927 -0.549501 -0.014355 68 1 84
-0.185002 -0.199891 -0.189652 68 1 84
-0.388389 -0.533158 -0.171833 68 1 84
0.140847 0.115548 -0.293083 30 159 136
0.098616 -0.496145 -0.303567 68 1 84
0.285969 -0.495057 -0.226269 68 1 84
-0.629457 -0.512407 0.449967 46 109 142
-0.423932 -0.091939 -0.133897 68 1 84
-0.583529 0.108925 0.194844 68 1 84
-0.399805 -0.333406 -0.102000 68 1 84
0.397979 0.449647 0.030858 68 1 84
-0.600204 0.106453 0.498736 68 1 84
-0.556652 0.358432 0.374078 68 1 84
-0.031975 -0.482327 -0.298270 68 1 84
0.565246 0.225154 0.539018 68 1 84
-0.592902 0.194206 0.448819 68 1 84
0.092579 0.187419 -0.348396 238 229 27
-0.587043 -0.125856 0.066293 68 1 84
0.124683 -0.115812 -0.375797 54 90 140
-0.521373 0.172616 0.050849 68 1 84
0.534528 0.406381 0.347845 68 1 84
0.375149 -0.256676 -0.133165 68 1 84
0.288866 0.641165 0.104820 68 1 84
0.296851 -0.351833 -0.151843 68 1 84
0.580196 -0.480423 0.042508 68 1 84
0.156244 0.342720 -0.272978 34 138 141
0.060967 0.547276 -0.242859 53 93 140
-0.667303 -0.224263 0.401394 53 93 140
0.600218 0.022115 0.171425 68 1 84
0.486014 0.469972 0.265858 68 1 84
0.206492 0.637671 -0.113947 70 11 94
-0.534871 -0.329401 0.032469 68 1 84
-0.639759 -0.239132 0.232999 61 74 137
0.342221 0.411619 -0.069799 68 1 84
-0.642963 -0.202314 0.253357 72 30 112
-0.512734 -0.074334 -0.056445 68 1 84
-0.161659 -0.199074 -0.205939 68 1 84
-0.591655 -0.083810 0.099237 71 18 101
-0.403848 -0.253671 -0.109379 68 1 84
-0.460051 0.348889 0.042539 68 1 84
-0.008939 -0.173882 -0.431241 69 6 90
-0.651345 -0.183142 0.314655 62 72 136
-0.125834 0.385286 -0.281846 83 197 103
0.625817 -0.207681 0.122484 72 28 110
-0.208595 -0.320208 -0.180838 68 1 84
0.351081 0.153310 -0.168363 68 1 84
0.485685 0.231224 0.039205 68 1 84
-0.611598 0.051103 0.515186 68 1 84
-0.359388 -0.542550 -0.192426 68 1 84
0.135450 -0.127653 -0.335508 60 78 138
0.620423 -0.006850 0.277729 68 1 84
0.649699 -0.408776 0.324488 57 84 139
0.283909 0.208473 -0.214629 71 42 121
0.542147 -0.070530 -0.032796 69 8 91
0.281055 -0.542696 -0.269122 68 1 84
-0.430351 -0.496147 -0.122734 68 1 84
0.119845 -0.045341 -0.441275 31 161 135
-0.230473 -0.019767 -0.216760 71 43 122
0.448229 0.413383 0.083469 68 1 84
0.203653 -0.468077 -0.234756 68 1 84
-0.170531 0.170227 -0.295574 39 173 128
0.371079 0.339666 -0.085323 68 1 84
-0.559455 -0.529495 0.196067 68 1 84
0.334740 0.335320 -0.122552 72 33 114
-0.496752 -0.210804 -0.060991 68 1 84
0.542093 0.229899 0.152771 68 1 84
-0.403766 0.463437 0.042451 68 1 84
0.191631 0.640319 -0.132129 72 25 107
0.483439 -0.471429 -0.126296 68 1 84
0.588950 0.213397 0.285698 68 1 84
0.347581 -0.283337 -0.155556 68 1 84
0.426248 -0.417715 -0.129540 68 1 84
0.419550 -0.239292 -0.103730 68 1 84
-0.162446 0.213563 -0.311031 151 216 62
0.505377 0.427856 0.429911 68 1 84
-0.557224 -0.543740 0.192604 68 1 84
0.480779 0.362396 0.102786 68 1 84
-0.605833 0.130731 0.416834 68 1 84
0.100049 0.016986 -0.400109 34 139 141
0.619773 0.018180 0.379759 68 1 84
-0.067937 -0.162406 -0.342838 72 35 116
0.514534 -0.299394 -0.010049 68 1 84
0.166369 0.480895 -0.204122 57 85 139
0.619766 -0.009101 0.258549 68 1 84
-0.613415 0.039582 0.549095 68 1 84
0.412429 0.387745 0.010664 68 1 84
0.367875 0.333553 -0.092633 68 3 87
-0.158077 -0.055673 -0.237696 70 47 124
-0.509044 0.418617 0.212490 68 1 84
-0.509576 0.430540 0.239149 68 1 84
0.591155 0.192668 0.282410 68 1 84
-0.647733 -0.158113 0.377307 69 54 129
0.506972 -0.418061 -0.066987 68 1 84
0.084553 0.073152 -0.332472 35 169 130
-0.124901 -0.379739 -0.162814 68 1 84
0.642480 -0.053736 0.489096 71 15 98
0.446035 -0.349653 -0.100896 68 1 84
-0.536579 0.391724 0.412163 68 1 84
-0.645736 -0.233720 0.264695 66 62 133
-0.176968 -0.366042 -0.160257 68 1 84
-0.315786 -0.004531 -0.196311 68 1 84
-0.599198 0.177279 0.316943 68 1 84
0.158542 0.160108 -0.298185 33 166 133
-0.611808 -0.229014 0.133266 68 57 130
-0.567569 -0.039548 0.047064 68 1 84
0.509345 0.166309 0.044040 68 1 84
0.525193 0.198385 0.100593 68 1 84
0.156169 0.167684 -0.302708 30 155 137
0.297056 -0.187922 -0.151386 68 1 84
-0.336992 0.612082 0.125136 68 1 84
-0.049593 -0.101864 -0.433359 66 62 133
0.248434 0.656767 0.012565 68 1 84
0.613996 -0.316331 0.137003 70 49 126
0.550479 -0.427448 -0.029670 68 1 84
-0.111607 0.155609 -0.325673 183 221 41
0.402836 -0.562688 -0.211019 68 1 84
0.235796 0.087954 -0.228532 67 59 131
-0.462347 0.049419 -0.096041 68 1 84
0.204830 0.631822 -0.122221 68 1 84
0.633791 -0.264144 0.165792 61 75 137
-0.224610 -0.089709 -0.212026 68 1 84
-0.466173 0.178624 -0.045889 68 1 84
0.579921 -0.537255 0.039954 68 1 84
-0.350406 -0.451718 -0.158822 68 1 84
-0.563989 -0.170050 0.018809 69 6 90
-0.157766 -0.258946 -0.176060 68 1 84
-0.276676 -0.382660 -0.165091 68 1 84
0.233698 0.457557 -0.156158 54 91 140
0.444353 -0.394590 -0.102975 68 1 84
-0.659006 -0.325153 0.473341 45 110 142
0.423691 0.530918 0.323567 68 1 84
0.209803 0.305692 -0.213251 56 86 139
-0.606310 0.105989 0.312159 68 1 84
0.345738 -0.493269 -0.205449 68 1 84
-0.612891 0.045858 0.516077 68 1 84
0.317045 0.624660 0.155093 68 1 84
0.619883 0.030108 0.518925 68 1 84
0.128151 0.121459 -0.303892 31 161 135
-0.523891 -0.548766 0.094857 68 1 84
0.151122 0.573040 -0.204536 65 65 134
-0.472559 -0.501589 -0.079815 68 1 84
0.004468 -0.048623 -0.510175 31 162 134
-0.116932 0.114252 -0.305659 35 168 131
0.224487 0.502982 -0.147059 72 26 108
-0.191989 0.370239 -0.239304 31 148 139
0.691117 -0.205097 0.432691 63 71 136
0.161430 0.097960 -0.273592 41 121 142
-0.633876 -0.539683 0.486861 52 94 141
-0.496347 0.160717 -0.006388 68 1 84
-0.522281 0.233198 0.084197 68 1 84
0.579840 0.098820 0.172755 68 1 84
0.358688 -0.383197 -0.137656 68 1 84
-0.617466 -0.027311 0.301213 71 24 106
0.104481 0.313103 -0.303258 42 176 126
-0.639858 -0.130785 0.337321 67 60 132
0.432567 -0.434893 -0.130747 68 1 84
0.119094 -0.306653 -0.280565 68 1 84
0.076151 -0.116738 -0.460030 32 143 140
0.623404 -0.228608 0.123554 50 98 141
0.217698 -0.408666 -0.175047 68 1 84
-0.500289 0.060279 -0.044293 68 1 84
-0.368451 -0.056948 -0.167666 68 1 84
-0.051991 0.169102 -0.354682 162 218 55
0.147873 0.114144 -0.288058 32 144 140
0.335678 -0.123189 -0.163717 68 1 84
0.165310 -0.043001 -0.302052 61 74 137
0.284600 -0.494324 -0.226127 68 1 84
-0.176680 0.064681 -0.254488 41 120 142
0.179946 -0.083395 -0.244235 67 59 131
-0.577832 -0.450663 0.200901 70 14 97
-0.298352 0.471677 -0.096333 68 1 84
0.636861 -0.025894 0.514463 68 1 84
0.211715 -0.216822 -0.189641 68 1 84
0.682759 -0.332723 0.526701 66 62 133
-0.470642 -0.586841 -0.075804 68 1 84
0.636685 -0.109502 0.161974 72 34 115
-0.379158 0.354209 -0.078008 68 1 84
0.648963 -0.077403 0.454275 69 5 88
0.649567 -0.114327 0.215228 69 52 127
-0.573391 -0.239978 0.053268 71 21 103
-0.586214 0.211337 0.469250 68 1 84
-0.137315 0.025098 -0.261246 42 119 142
0.438576 0.517484 0.301740 68 1 84
-0.563241 -0.171389 0.017610 69 5 88
0.277331 -0.178106 -0.162703 68 1 84
0.477519 0.416052 0.139946 68 1 84
0.563144 -0.537885 -0.014876 68 1 84
-0.039961 0.539093 -0.245256 54 90 140
0.431069 -0.240384 -0.097119 68 1 84
-0.334336 -0.438381 -0.167519 68 1 84
0.608985 -0.012156 0.154925 68 1 84
0.150835 0.563014 -0.205039 64 67 135
0.065623 0.530930 -0.240512 65 65 134
0.628547 -0.034076 0.270885 68 1 84
-0.445119 0.428883 0.081373 68 1 84
0.599508 -0.243678 0.080392 69 54 129
-0.550443 0.003290 0.024833 68 3 87
-0.631184 -0.037187 0.493782 68 57 130
-0.362219 0.331752 -0.109044 71 20 102
-0.602067 0.109864 0.484298 68 1 84
-0.131871 -0.200819 -0.235669 68 1 84
-0.054813 -0.154249 -0.372329 72 28 110
-0.630246 -0.142279 0.239296 72 32 113
0.530072 0.100040 0.033219 68 1 84
0.496214 0.039995 -0.058019 68 1 84
-0.645489 -0.257656 0.272476 65 65 134
-0.259025 0.199154 -0.236806 38 129 142
-0.567137 0.106718 0.137553 68 1 84
0.579572 0.197112 0.234771 68 1 84
-0.440828 0.328821 -0.004347 68 1 84
-0.224848 0.439179 -0.180999 59 81 138
-0.048947 -0.248776 -0.327989 68 1 84
-0.632786 -0.046106 0.491053 68 55 129
-0.495628 -0.325458 -0.014962 68 1 84
0.620464 0.015362 0.380332 68 1 84
0.483400 0.163067 -0.009671 68 1 84
0.384456 -0.018292 -0.156954 68 3 87
0.601795 0.144007 0.461210 68 1 84
0.650131 -0.376296 0.307916 55 88 140
-0.360247 0.574613 0.078275 68 1 84
0.290789 -0.223893 -0.147727 68 1 84
0.521631 0.105541 0.019415 68 1 84
-0.593991 0.228039 0.352647 68 1 84
0.082184 0.164886 -0.347279 202 224 30
-0.612555 -0.048711 0.250451 71 21 103
0.189171 0.579517 -0.167485 68 1 84
0.400749 -0.157568 -0.130362 68 1 84
0.537517 0.397108 0.308702 68 1 84
0.580983 0.140496 0.207094 68 1 84
0.140616 -0.063977 -0.376744 40 122 142
0.442524 0.211143 -0.047151 68 1 84
0.050821 0.601627 -0.239049 33 142 140
-0.172272 -0.320730 -0.174492 68 1 84
0.312409 -0.455696 -0.197637 68 1 84
-0.480011 0.479124 0.287676 68 1 84
-0.634256 -0.158977 0.241466 72 30 112
-0.311204 -0.215964 -0.149877 68 1 84
0.683938 -0.345584 0.475261 58 82 139
-0.453944 -0.148036 -0.108310 68 1 84
-0.486576 -0.515816 -0.053398 68 1 84
-0.565647 0.333617 0.324089 68 1 84
-0.586221 -0.554944 0.310003 70 48 125
-0.211519 -0.418734 -0.179701 68 1 84
0.374127 -0.158585 -0.139098 68 1 84
-0.388228 -0.436284 -0.118159 68 1 84
0.497698 -0.531517 -0.137031 68 1 84
0.118053 -0.406640 -0.258205 68 1 84
-0.123167 -0.531555 -0.300917 68 1 84
-0.582785 0.241348 0.262726 68 1 84
0.534077 0.134625 0.073402 68 1 84
-0.150881 -0.051117 -0.243333 69 53 128
-0.163981 -0.533679 -0.285734 68 1 84
0.665077 -0.456037 0.463436 71 37 117
0.032981 0.065303 -0.442640 114 207 85
0.070986 -0.118722 -0.462928 32 145 140
-0.021939 -0.034691 -0.504709 44 177 125
0.581450 -0.201831 0.034513 70 48 125
0.450471 0.139109 -0.074565 68 1 84
-0.522898 -0.023537 -0.033974 68 1 84
0.542385 -0.042352 -0.026464 72 34 115
-0.159006 0.624685 -0.191864 48 103 141
-0.155373 -0.022380 -0.240125 69 52 127
0.482774 -0.328792 -0.047326 68 1 84
-0.002069 -0.163918 -0.443095 72 35 116
-0.591557 -0.546742 0.328907 65 66 134
0.465366 -0.552928 -0.166115 68 1 84
0.423253 0.537407 0.223681 68 1 84
0.648734 -0.263054 0.209007 72 32 113
0.141422 -0.330965 -0.208012 68 1 84
0.654875 -0.125292 0.579629 68 1 84
-0.408918 0.463358 0.050338 68 1 84
-0.350099 0.150580 -0.179729 58 83 139
-0.331928 0.195318 -0.186527 49 100 141
-0.483510 0.065372 -0.066917 68 1 84
0.454424 -0.312363 -0.094039 68 1 84
-0.648542 -0.382529 0.449584 46 109 142
-0.553928 0.117409 0.103784 68 1 84
-0.277274 0.459720 -0.124089 71 20 102
-0.568613 -0.257328 0.052068 71 20 102
0.660275 -0.109637 0.340328 71 21 103
-0.449365 0.422059 0.082801 68 1 84
-0.628535 -0.002912 0.455979 71 18 101
-0.116220 -0.231106 -0.235781 68 1 84
-0.493311 0.461640 0.333562 68 1 84
0.550669 -0.064141 -0.020187 71 40 120
-0.649600 -0.396793 0.485337 48 104 141
-0.488852 0.292958 0.053950 68 1 84
-0.399468 -0.300707 -0.102840 68 1 84
0.537206 0.401810 0.346494 68 1 84
0.080067 0.146784 -0.343415 167 219 51
0.187000 -0.348595 -0.157543 68 1 84
0.562544 0.305543 0.261593 68 1 84
0.428194 -0.306994 -0.123643 68 1 84
-0.425514 0.125619 -0.116686 68 1 84
-0.046922 0.358420 -0.323190 100 203 93
0.569327 0.173314 0.189612 68 1 84
-0.222397 -0.479773 -0.222683 68 1 84
0.132818 -0.360584 -0.214006 68 1 84
-0.481094 0.475780 0.341831 68 1 84
0.682378 -0.333631 0.505833 56 86 139
0.599706 0.111500 0.275269 68 1 84
0.568845 0.249946 0.503096 68 1 84
0.488492 0.129228 -0.023920 68 1 84
0.094731 -0.347583 -0.303601 68 1 84
0.432627 -0.570824 -0.192010 68 1 84
-0.600498 0.174019 0.402299 68 1 84
-0.150467 -0.560748 -0.296361 68 1 84
0.450645 0.154524 -0.066907 68 1 84
-0.625217 -0.029035 0.526820 71 20 102
-0.661608 -0.262862 0.441468 47 106 141
0.124402 0.708158 -0.082298 68 1 84
0.286617 0.112737 -0.209530 71 39 119
-0.146814 0.049176 -0.259940 36 133 141
-0.118730 -0.397156 -0.176589 68 1 84
0.001588 -0.156790 -0.449892 71 24 106
-0.645679 -0.242944 0.266843 63 69 135
0.191224 0.404704 -0.224030 33 140 141
-0.538697 0.386240 0.416535 68 1 84
-0.237818 -0.411465 -0.170417 68 1 84
0.633825 -0.011855 0.538687 68 1 84
-0.474924 0.230809 -0.004183 68 1 84
-0.128120 -0.203946 -0.238395 68 1 84
0.164322 0.015352 -0.322546 46 109 142
0.307117 0.608192 0.025350 68 1 84
0.493345 0.441491 0.442218 68 1 84
0.665446 -0.154646 0.516974 71 40 120
-0.000198 0.460989 -0.253122 59 81 138
0.547628 -0.399069 -0.008265 68 1 84
0.136563 -0.187456 -0.311879 68 1 84
0.387555 -0.081595 -0.153790 68 1 84
0.571129 -0.465893 0.003661 68 1 84
0.363390 -0.259058 -0.137725 68 1 84
0.685992 -0.150893 0.410883 71 38 118
-0.631763 -0.472972 0.441238 42 119 142
0.619916 0.037717 0.492010 68 1 84
-0.395257 0.328615 -0.074252 68 1 84
0.462631 0.327288 0.049366 68 1 84
0.474317 0.462232 0.186479 68 1 84
0.234243 -0.233369 -0.163521 68 1 84
0.632184 -0.011126 0.576983 68 1 84
-0.378554 -0.456421 -0.134246 68 1 84
0.305086 -0.077914 -0.184995 69 8 91
0.098202 0.271338 -0.306103 79 195 105
-0.482261 0.255915 0.021992 68 1 84
-0.369438 0.079031 -0.169143 68 1 84
-0.422585 0.155922 -0.110458 68 1 84
0.584948 0.229186 0.280925 68 1 84
-0.649967 -0.158849 0.528530 69 50 127
0.471181 0.476302 0.404831 68 1 84
-0.041004 0.250680 -0.346555 191 223 36
0.323553 0.620467 0.166817 68 1 84
-0.542773 0.359697 0.238130 68 1 84
0.589399 -0.530349 0.077170 68 1 84
-0.647547 -0.358786 0.396727 48 104 141
0.465153 -0.263455 -0.070678 68 1 84
0.287316 -0.343351 -0.154104 68 1 84
0.630653 -0.137875 0.130012 67 60 132
0.205334 -0.305702 -0.162809 68 1 84
-0.066307 0.313232 -0.313187 46 178 124
-0.086028 0.438652 -0.261379 39 126 142
-0.037926 -0.295076 -0.311474 68 1 84
-0.019550 0.239097 -0.358879 207 225 28
0.064406 0.545748 -0.242295 56 86 139
0.443140 -0.141813 -0.115770 68 1 84
0.548760 -0.439175 -0.039930 68 1 84
0.079935 -0.167397 -0.430451 62 72 136
0.161965 0.428576 -0.236006 46 108 142
0.485681 -0.465607 -0.120594 68 1 84
-0.534030 0.286872 0.141195 68 1 84
-0.346721 -0.142867 -0.160842 68 1 84
0.571464 0.218799 0.523142 68 1 84
0.065020 0.702792 -0.155812 59 81 138
-0.056349 0.274438 -0.318133 59 186 117
0.598586 0.181358 0.330756 68 1 84
0.276733 0.051796 -0.203409 70 14 97
-0.043201 -0.259301 -0.330641 68 1 84
-0.121903 0.540299 -0.224687 54 90 140
0.282851 0.238381 -0.207340 69 52 127
0.032615 0.104368 -0.359029 96 201 96
-0.415215 -0.281438 -0.094600 68 1 84
0.164501 0.667354 -0.137624 71 24 106
-0.225989 -0.526971 -0.242449 68 1 84
0.125687 -0.396431 -0.238237 68 1 84
-0.632851 -0.057768 0.508334 69 53 128
0.602207 0.151154 0.446073 68 1 84
-0.219614 0.525737 -0.160193 72 29 111
-0.364723 -0.393377 -0.127850 68 1 84
0.084054 0.617975 -0.229761 38 128 142
-0.483368 -0.213556 -0.072716 68 1 84
-0.646583 -0.364889 0.399561 45 111 142
-0.650833 -0.403711 0.531674 56 87 140
0.607354 -0.292642 0.112551 68 57 130
0.287276 -0.350225 -0.151726 68 1 84
0.644546 -0.064315 0.587082 68 1 84
-0.245386 -0.350692 -0.177853 68 1 84
-0.628071 -0.390652 0.349213 46 109 142
-0.521496 0.415635 0.258073 68 1 84
0.335705 -0.537271 -0.242682 68 1 84
0.055650 -0.215671 -0.425221 69 6 90
0.548732 0.281198 0.538543 68 1 84
0.593694 0.175681 0.473147 68 1 84
-0.029308 0.450437 -0.257117 48 103 141
0.536312 0.388708 0.275467 68 1 84
-0.008229 0.414077 -0.284295 31 150 139
-0.018284 0.504562 -0.244404 60 77 138
-0.068805 -0.440359 -0.237991 68 1 84
-0.284342 0.602178 -0.047279 68 1 84
-0.620256 0.002391 0.374264 69 8 91
-0.184448 0.052511 -0.245698 44 113 142
-0.164810 0.679788 -0.137065 71 43 122
0.506834 0.025306 -0.050181 68 2 85
-0.215592 -0.501894 -0.231022 68 1 84
-0.379311 -0.623418 -0.178101 68 1 84
0.683361 -0.424098 0.561297 71 37 117
0.153235 -0.123844 -0.292046 65 65 134
0.580401 0.195764 0.507763 68 1 84
-0.106116 -0.202815 -0.267122 68 1 84
0.688074 -0.187570 0.452556 66 62 133
-0.054067 0.476901 -0.244403 59 81 138
-0.035116 -0.382101 -0.252315 68 1 84
0.672437 -0.302731 0.360878 58 83 139
0.178135 0.150905 -0.282669 48 180 122
0.613491 -0.500672 0.180808 68 1 84
0.652525 -0.105561 0.253608 72 35 116
0.536270 -0.095611 -0.042294 70 47 124
-0.055672 0.218145 -0.359086 220 226 24
-0.637562 -0.109741 0.373839 71 40 120
-0.585690 0.244313 0.282742 68 1 84
-0.137933 0.087858 -0.282727 31 149 139
0.162584 0.266997 -0.273884 31 149 139
-0.589608 0.243128 0.316349 68 1 84
0.415163 0.339713 -0.018859 68 1 84
0.162774 -0.215150 -0.255599 68 1 84
0.242649 0.191462 -0.245489 53 92 140
-0.617355 -0.376217 0.280825 46 109 142
-0.496316 -0.550866 -0.010245 68 1 84
0.244850 0.663000 0.036298 68 1 84
0.521187 0.278271 0.131659 68 1 84
0.612329 0.053206 0.527320 68 1 84
0.562008 0.313419 0.268044 68 1 84
0.280829 -0.217830 -0.150523 68 1 84
-0.370628 -0.143309 -0.152504 68 1 84
0.498475 -0.314072 -0.025846 68 1 84
-0.532486 0.127140 0.050856 68 1 84
0.465401 0.021197 -0.097922 68 1 84
0.449676 -0.228068 -0.087707 68 1 84
0.192339 0.583149 -0.163261 68 1 84
-0.385204 0.458821 0.010023 68 1 84
-0.387130 0.384453 -0.045530 68 1 84
0.587708 -0.373043 0.083840 71 18 101
-0.459544 0.075821 -0.093112 68 1 84
-0.593764 -0.446909 0.263622 61 76 137
-0.169670 -0.108812 -0.233761 71 44 123
-0.564390 0.117170 0.134514 68 1 84
-0.616382 0.025831 0.343838 68 1 84
0.414881 -0.084028 -0.140613 68 1 84
-0.391875 -0.530496 -0.168640 68 1 84
-0.447170 -0.246246 -0.087489 68 1 84
-0.659260 -0.295430 0.441421 45 111 142
-0.594475 0.170243 0.467188 68 1 84
-0.599007 -0.057228 0.155648 71 21 103
0.621120 -0.281421 0.140632 69 50 127
-0.402331 0.223629 -0.111707 68 1 84
-0.259821 -0.386378 -0.166467 68 1 84
-0.490851 0.274450 0.046935 68 1 84
-0.625732 -0.332151 0.249081 58 83 139
-0.657068 -0.342951 0.520342 58 83 139
-0.656618 -0.256865 0.481851 49 100 141
0.086470 -0.443074 -0.291072 68 1 84
-0.614136 0.074938 0.417710 68 1 84
0.339997 -0.178214 -0.143286 68 1 84
-0.656688 -0.277477 0.506645 56 86 139
-0.243707 -0.485827 -0.222484 68 1 84
-0.375096 0.533670 0.053161 68 1 84
0.517599 -0.431829 -0.070269 68 1 84
0.198667 0.684471 0.000135 68 1 84
-0.505817 -0.446390 0.008189 68 1 84
-0.585573 0.242599 0.279196 68 1 84
-0.224158 0.192382 -0.262054 33 142 140
-0.099810 0.709904 -0.134539 66 62 133
0.347506 0.028318 -0.176308 71 15 98
-0.195730 -0.067871 -0.223863 72 30 112
-0.090924 -0.304501 -0.195555 68 1 84
0.604670 0.144646 0.401690 68 1 84
-0.375957 0.546632 0.070174 68 1 84
-0.397452 -0.346343 -0.103226 68 1 84
0.361910 -0.467768 -0.188858 68 1 84
-0.332216 0.265255 -0.162027 71 38 118
-0.438746 0.043062 -0.120712 68 1 84
-0.624914 -0.272495 0.185903 62 72 136
0.261381 0.323377 -0.173528 72 32 113
-0.608414 -0.229704 0.124786 70 49 126
-0.279353 0.178115 -0.224822 45 111 142
-0.330475 -0.220269 -0.144679 68 1 84
-0.168974 0.410001 -0.240876 30 154 137
0.035259 0.162456 -0.349905 109 206 88
-0.196382 0.349130 -0.240006 30 153 138
0.505253 0.352223 0.142477 68 1 84
0.074547 0.041454 -0.348392 34 138 141
0.125957 0.388516 -0.282732 33 166 133
-0.470986 0.388753 0.090476 68 1 84
0.121093 -0.401110 -0.249594 68 1 84
0.238281 0.129761 -0.239544 52 94 141
-0.135030 0.075359 -0.277630 31 146 140
0.577195 -0.454968 0.026460 68 1 84
0.202529 0.565102 -0.156400 68 2 85
-0.038164 0.012812 -0.357074 41 120 142
0.457506 0.468323 0.151055 68 1 84
-0.302119 -0.090276 -0.186974 68 1 84
0.548104 0.080632 0.058107 68 1 84
0.679429 -0.486492 0.549272 71 24 106
-0.119932 0.506767 -0.223308 57 85 139
0.338627 -0.412437 -0.160304 68 1 84
-0.152910 -0.320448 -0.171935 68 1 84
0.390115 0.230215 -0.110766 68 1 84
0.596636 0.123220 0.265725 68 1 84
-0.494350 -0.060599 -0.076509 68 1 84
-0.582723 0.277864 0.375598 68 1 84
-0.471805 -0.580646 -0.074388 68 1 84
-0.000910 0.532693 -0.246550 60 78 138
-0.544635 -0.207179 -0.005441 70 14 97
-0.478909 0.261240 0.019220 68 1 84
-0.082056 -0.191653 -0.307319 68 1 84
-0.589121 -0.426718 0.219214 69 52 127
0.426482 -0.129708 -0.127505 68 1 84
0.351540 -0.027426 -0.172417 71 22 105
0.041161 0.049452 -0.473437 112 206 86
-0.506213 0.404310 0.181750 68 1 84
0.121956 0.484103 -0.226747 69 52 127
0.623475 0.021830 0.457534 68 1 84
0.020099 -0.097297 -0.489009 44 114 142
-0.476439 0.131621 -0.052225 68 1 84
0.135251 -0.285861 -0.260176 68 1 84
-0.584572 -0.544101 0.302604 71 24 106
0.481626 0.226795 0.028954 68 1 84
0.491193 -0.582944 -0.139164 68 1 84
-0.192830 -0.263912 -0.170296 68 1 84
-0.095258 -0.499721 -0.288551 68 1 84
0.164101 0.020630 -0.304076 44 112 142
0.612397 -0.020446 0.158212 68 1 84
-0.636245 -0.520758 0.486931 43 115 142
0.201199 0.624672 -0.132613 72 25 107
0.670569 -0.171050 0.285169 71 42 121
0.419602 -0.202873 -0.109785 68 1 84
0.131880 0.321457 -0.288785 30 153 138
-0.505121 -0.522145 0.013316 68 1 84
-0.654906 -0.250461 0.326747 55 88 140
0.326407 0.114215 -0.187409 69 5 88
-0.477314 -0.536370 -0.075030 68 1 84
0.122136 0.099043 -0.299737 31 150 139
0.433079 -0.531130 -0.183532 68 1 84
-0.593934 -0.557638 0.339620 57 84 139
0.633912 -0.524093 0.270333 72 25 107
-0.552294 -0.544145 0.175701 68 1 84
0.356720 -0.516088 -0.215674 68 1 84
-0.599839 0.174594 0.320976 68 1 84
0.206346 0.665584 -0.065798 69 6 90
0.583251 0.242232 0.285391 68 1 84
-0.449968 0.203229 -0.058062 68 1 84
0.210897 0.040310 -0.222475 71 18 101
0.338325 0.336952 -0.118768 71 37 117
0.603711 -0.413092 0.126631 68 1 84
0.156556 -0.146131 -0.284232 70 9 92
0.429667 0.531349 0.250264 68 1 84
-0.601355 0.119786 0.478845 68 1 84
0.601227 0.149144 0.459193 68 1 84
-0.562628 0.343254 0.339538 68 1 84
0.316123 -0.341074 -0.155793 68 1 84
0.232514 -0.525858 -0.283376 68 1 84
-0.311832 0.281518 -0.166565 66 62 133
-0.527697 -0.150296 -0.037984 68 1 84
0.265121 0.269068 -0.197109 72 25 107
-0.401275 -0.420750 -0.100752 68 1 84
0.298325 0.603057 -0.000467 68 1 84
-0.038188 0.129009 -0.346631 154 216 60
0.112875 -0.265944 -0.327327 68 1 84
-0.499937 0.454659 0.292053 68 1 84
-0.540593 -0.269831 0.011980 68 1 84
0.227567 0.220590 -0.255070 37 130 142
0.157383 0.179192 -0.306296 46 178 124
-0.199598 -0.564345 -0.285565 68 1 84
-0.529530 0.310626 0.146939 68 1 84
0.630625 -0.068727 0.182920 71 21 103
0.124708 0.381306 -0.286850 42 176 126
-0.637730 -0.161185 0.256903 72 26 108
0.584836 -0.464327 0.059785 68 1 84
0.598916 -0.389166 0.112119 70 9 92
0.561272 -0.306026 0.040580 69 6 90
0.259793 0.236836 -0.223684 65 65 134
0.236497 0.627211 -0.078069 68 1 84
-0.392063 0.128002 -0.146423 68 1 84
0.634159 -0.423260 0.252593 71 42 121
0.178376 -0.463229 -0.247719 68 1 84
0.154480 -0.227410 -0.264052 68 1 84
-0.549950 -0.007291 0.018882 68 1 84
-0.562057 -0.362592 0.097248 69 8 91
0.447715 -0.250262 -0.085870 68 1 84
-0.487074 0.452691 0.201403 68 1 84
0.546053 -0.076296 -0.028684 71 37 117
-0.079558 -0.493008 -0.290325 68 1 84
0.470786 -0.174126 -0.091028 68 1 84
0.357148 -0.146894 -0.148195 68 1 84
-0.452815 0.104651 -0.093023 68 1 84
-0.222623 -0.438656 -0.204653 68 1 84
0.537183 0.336846 0.508623 68 1 84
0.578531 -0.448180 0.033661 68 1 84
-0.401526 0.514087 0.082263 68 1 84
0.354341 0.310682 -0.118242 72 30 112
0.254285 -0.220444 -0.157288 68 1 84
-0.276604 -0.552848 -0.239057 68 1 84
-0.053249 0.005603 -0.393963 53 183 120
-0.440191 0.496580 0.142710 68 1 84
-0.487727 0.273916 0.041417 68 1 84
-0.439370 0.352697 0.011050 68 1 84
-0.098653 0.085577 -0.304720 31 163 134
0.114738 0.029009 -0.314427 47 106 141
-0.333862 0.526128 -0.021681 68 1 84
0.042850 0.092573 -0.363237 85 198 102
-0.427762 -0.353437 -0.065584 68 1 84
-0.516517 -0.562909 0.069780 68 1 84
0.061947 0.399695 -0.296942 73 193 109
0.303343 0.424020 -0.103967 69 6 90
-0.119273 -0.209938 -0.246045 68 1 84
-0.230196 -0.602666 -0.275929 68 1 84
-0.125443 0.175766 -0.326196 233 228 25
0.393490 0.079785 -0.145064 68 1 84
-0.513846 0.381864 0.174652 68 1 84
-0.282713 -0.499427 -0.215906 68 1 84
-0.408922 0.340734 -0.047085 68 1 84
-0.316867 0.627391 0.110444 68 1 84
0.669796 -0.146679 0.325646 70 49 126
0.652550 -0.412112 0.336151 59 81 138
-0.176692 0.269221 -0.267182 35 169 130
-0.180064 0.403404 -0.236122 31 150 139
-0.046995 -0.083373 -0.454635 55 89 140
-0.480050 -0.536462 -0.068379 68 1 84
0.214460 -0.154190 -0.212195 68 1 84
0.659238 -0.148455 0.578349 68 1 84
0.321851 0.539052 -0.022336 68 1 84
0.632131 -0.007838 0.569687 68 1 84
0.493404 0.442930 0.431558 68 1 84
0.424622 0.204061 -0.077994 68 1 84
-0.459706 -0.540466 -0.108168 68 1 84
-0.619514 -0.230176 0.155038 66 61 132
-0.314068 0.248415 -0.183310 71 44 123
0.512519 0.436363 0.292283 68 1 84
-0.590489 -0.435468 0.235062 70 49 126
0.147506 0.469667 -0.221763 46 107 142
0.566317 -0.027669 0.015981 69 8 91
0.503165 0.437550 0.409399 68 1 84
-0.606666 -0.346193 0.192338 69 52 127
-0.651082 -0.188844 0.304448 64 67 135
-0.457274 -0.037619 -0.109977 68 1 84
0.294603 0.567145 -0.042706 69 5 88
0.622860 -0.006752 0.326480 68 1 84
0.064487 -0.032210 -0.508173 41 175 127
-0.288402 -0.367539 -0.168674 68 1 84
-0.022100 -0.321927 -0.316339 68 1 84
-0.338854 -0.189467 -0.149677 68 1 84
0.316492 0.208617 -0.190505 68 3 87
0.240971 0.150901 -0.242063 51 97 141
-0.620655 0.018141 0.507531 68 1 84
0.110376 0.698522 -0.139726 71 40 120
-0.056707 -0.136784 -0.383390 71 17 99
0.173659 0.648636 -0.147619 72 26 108
-0.344649 0.290115 -0.142190 68 1 84
-0.313166 0.361735 -0.131221 71 44 123
0.410732 -0.553810 -0.205836 68 1 84
-0.405133 0.424367 0.013773 68 1 84
-0.104834 0.296572 -0.294161 42 176 126
-0.527829 0.310527 0.142901 68 1 84
-0.553220 0.284498 0.191003 68 1 84
0.642883 -0.239941 0.179237 69 53 128
0.266897 -0.481408 -0.220496 68 1 84
0.034970 0.528534 -0.244238 58 83 139
-0.543884 0.172089 0.104196 68 1 84
0.052326 0.050064 -0.435247 73 193 109
-0.507384 -0.422034 0.014022 68 1 84
-0.659169 -0.301039 0.384231 48 103 141
-0.079685 0.656457 -0.215418 31 147 139
0.634973 -0.027246 0.420549 68 1 84
0.361943 0.565195 0.068283 68 1 84
0.586452 0.223611 0.282549 68 1 84
0.319826 0.125008 -0.192130 68 1 84
-0.635275 -0.535279 0.495964 55 88 140
0.168607 -0.153608 -0.264324 70 9 92
0.657475 -0.099861 0.440535 72 28 110
-0.023691 -0.242155 -0.369453 68 1 84
-0.614480 -0.201855 0.139042 71 43 122
-0.457809 0.018064 -0.105624 68 1 84
0.604969 0.044798 0.244679 68 1 84
-0.346416 -0.620434 -0.205937 68 1 84
0.673517 -0.156213 0.340337 70 48 125
-0.268194 0.309132 -0.171685 51 96 141
0.625418 0.014192 0.483026 68 1 84
-0.597358 0.085817 0.250302 68 1 84
-0.637023 -0.447211 0.446242 44 113 142
-0.531907 -0.463380 0.081008 68 1 84
-0.656289 -0.203751 0.475773 49 102 141
0.571343 0.244403 0.240234 68 1 84
-0.212117 0.278850 -0.219834 38 129 142
0.524564 0.119887 0.038900 68 1 84
-0.027513 0.254826 -0.347080 199 224 31
-0.105542 0.172202 -0.336080 212 225 26
0.426377 0.517243 0.142885 68 1 84
-0.429379 -0.076122 -0.131230 68 1 84
0.352515 0.593789 0.117755 68 1 84
0.312743 -0.420038 -0.178184 68 1 84
0.593933 -0.369043 0.099021 72 30 112
-0.264122 0.233153 -0.225326 44 114 142
-0.476831 -0.067643 -0.094097 68 1 84
0.683614 -0.148698 0.395377 69 54 129
-0.631461 -0.341578 0.299254 42 117 142
-0.159195 0.682215 -0.139588 70 47 124
-0.363933 -0.586777 -0.197320 68 1 84
0.252373 -0.237675 -0.155058 68 1 84
0.586247 0.176274 0.498496 68 1 84
0.570272 0.309489 0.307330 68 1 84
0.588217 -0.520162 0.073484 68 1 84
-0.540158 -0.317123 0.034388 68 1 84
0.278565 -0.440542 -0.196701 68 1 84
-0.362043 0.433243 -0.042391 68 1 84
0.659550 -0.202347 0.219686 59 80 138
-0.068782 -0.447189 -0.246507 68 1 84
0.393411 0.050654 -0.148489 68 1 84
-0.413452 -0.459920 -0.110314 68 1 84
-0.576082 -0.301002 0.087434 72 30 112
-0.209906 0.529008 -0.168643 69 53 128
-0.559387 0.309227 0.475763 68 1 84
-0.563864 -0.148300 0.015799 70 9 92
0.605945 0.124668 0.372174 68 1 84
0.013835 -0.349778 -0.333412 68 1 84
0.651101 -0.108062 0.587278 68 1 84
-0.233747 -0.440352 -0.205368 68 1 84
0.230837 0.375725 -0.193393 46 107 142
-0.659187 -0.317685 0.533209 61 74 137
0.626345 -0.159059 0.116010 71 42 121
0.250593 -0.536507 -0.277994 68 1 84
-0.190547 0.116671 -0.266655 38 128 142
0.592667 -0.002019 0.096867 68 1 84
-0.329841 -0.569573 -0.218813 68 1 84
-0.166515 0.040026 -0.247590 48 104 141
0.168681 0.052630 -0.248130 67 58 131
0.444067 -0.567264 -0.183312 68 1 84
-0.593866 -0.258325 0.100931 69 53 128
-0.501990 0.138406 -0.008197 68 1 84
0.243043 -0.189823 -0.175436 68 1 84
0.405069 -0.236696 -0.112007 68 1 84
0.482594 -0.583673 -0.147255 68 1 84
0.450952 0.162496 -0.061916 68 1 84
0.617004 -0.152200 0.093046 70 49 126
-0.221055 -0.354061 -0.174495 68 1 84
0.254689 -0.277537 -0.157917 68 1 84
-0.129258 0.302052 -0.281737 56 185 118
0.057773 0.044780 -0.469944 103 204 92
-0.413028 0.357110 -0.029056 68 1 84
0.573923 0.284750 0.442714 68 1 84
0.054441 0.201445 -0.360336 205 224 29
0.614779 -0.250537 0.112708 68 55 129
0.316995 0.193755 -0.192638 68 1 84
-0.644070 -0.187217 0.266209 70 14 97
0.606772 -0.112328 0.073137 72 32 113
-0.218653 0.684055 -0.007874 68 1 84
-0.285852 -0.237779 -0.154495 68 1 84
-0.583502 0.225829 0.467907 68 1 84
-0.458211 0.456821 0.132186 68 1 84
-0.586144 0.212841 0.468011 68 1 84
0.576251 -0.160865 0.015387 72 32 113
0.181027 -0.218010 -0.227926 68 1 84
0.663926 -0.119240 0.452773 69 52 127
-0.020934 0.033785 -0.375705 35 137 141
-0.666849 -0.219755 0.399897 57 84 139
-0.283578 0.581558 -0.066617 68 1 84
0.671200 -0.304787 0.355732 54 90 140
0.164525 -0.441900 -0.231175 68 1 84
-0.079614 -0.032408 -0.431492 30 158 136
0.640395 -0.044188 0.495882 68 1 84
-0.360411 0.061942 -0.175332 68 1 84
-0.348807 -0.379306 -0.142167 68 1 84
-0.627946 -0.562628 0.465131 53 93 140
-0.607977 0.107350 0.439204 68 1 84
0.557679 0.356194 0.385030 68 1 84
0.681760 -0.291752 0.568805 68 1 84
-0.187045 -0.025245 -0.226957 71 15 98
0.683742 -0.227530 0.375217 47 106 141
0.553416 0.368502 0.350770 68 1 84
0.343409 -0.080358 -0.171234 71 17 99
0.647651 -0.078378 0.535822 72 30 112
-0.435755 -0.390484 -0.057967 68 1 84
0.268888 0.131580 -0.222160 71 37 117
-0.081061 0.001394 -0.387219 47 179 123
0.267639 0.653268 0.089342 68 1 84
-0.135682 0.582161 -0.219043 50 98 141
0.597977 -0.023216 0.092683 68 1 84
-0.578473 0.146131 0.190439 68 1 84
-0.077116 -0.159192 -0.328287 71 22 105
0.092649 -0.501414 -0.305448 68 1 84
0.593806 -0.373110 0.098575 72 30 112
-0.555692 -0.522354 0.179188 69 5 88
0.451318 0.063851 -0.100518 68 1 84
0.565981 0.328008 0.316927 68 1 84
-0.042885 0.018156 -0.442651 109 206 88
0.119604 -0.313653 -0.273568 68 1 84
-0.454789 0.505328 0.232445 68 1 84
0.425373 0.393313 0.034551 68 1 84
-0.563557 0.337553 0.314748 68 1 84
-0.205055 0.402189 -0.214782 36 133 141
0.567504 0.325912 0.407371 68 1 84
0.144150 -0.311367 -0.217639 68 1 84
0.147731 0.239305 -0.312346 68 190 112
0.320048 0.621331 0.137396 68 1 84
0.296571 -0.099136 -0.183964 68 1 84
0.277982 -0.154093 -0.172323 68 1 84
0.453918 -0.330704 -0.094840 68 1 84
-0.348392 0.604485 0.145278 68 1 84
-0.339223 0.213046 -0.175853 67 60 132
-0.047174 0.012437 -0.344483 41 120 142
0.269357 0.552254 -0.084913 68 1 84
-0.249033 -0.297588 -0.177374 68 1 84
-0.624340 -0.130483 0.219531 71 22 105
0.477514 0.256060 0.036995 68 1 84
-0.185863 0.415534 -0.225378 38 128 142
-0.543920 -0.327718 0.045931 68 1 84
0.358219 0.508528 0.009407 68 1 84
0.117731 0.499295 -0.224326 67 59 131
-0.641030 -0.128253 0.380602 68 1 84
-0.493982 0.452234 0.227653 68 1 84
-0.638293 -0.157461 0.263620 70 47 124
0.141908 -0.315914 -0.218578 68 1 84
0.127103 -0.348164 -0.229864 68 1 84
-0.629389 -0.295589 0.219438 57 85 139
0.502182 -0.409909 -0.063430 68 1 84
-0.667333 -0.224175 0.409805 56 87 140
-0.619550 -0.023755 0.325077 72 34 115
0.411288 0.548433 0.254131 68 1 84
-0.584061 -0.386984 0.165279 70 12 95
-0.298604 -0.254937 -0.153164 68 1 84
-0.324557 0.526224 -0.035883 68 1 84
0.143963 0.160627 -0.308070 31 161 135
0.098212 -0.274441 -0.351668 68 1 84
0.255910 0.657901 0.057072 68 1 84
-0.536942 -0.001272 -0.004625 68 1 84
-0.474176 0.127667 -0.057036 68 1 84
0.680263 -0.294396 0.443479 60 77 138
-0.535055 0.350253 0.197089 68 1 84
0.158951 -0.428531 -0.218723 68 1 84
0.153685 0.081978 -0.270082 53 92 140
-0.611717 -0.352624 0.218196 57 84 139
0.187851 -0.364835 -0.157892 68 1 84
-0.341562 0.023234 -0.186558 69 5 88
-0.607854 -0.066993 0.195534 69 6 90
0.686368 -0.162832 0.393904 68 57 130
-0.601522 0.089814 0.519198 68 1 84
0.634625 -0.273778 0.173173 62 73 137
0.651764 -0.449228 0.343488 70 47 124
0.432300 0.527160 0.271311 68 1 84
0.174401 0.421265 -0.230731 40 122 142
0.465083 -0.402787 -0.089036 68 1 84
-0.538008 0.397281 0.341048 68 1 84
0.223313 -0.058290 -0.214098 68 3 87
0.370168 0.585354 0.207553 68 1 84
-0.342172 -0.512390 -0.188507 68 1 84
-0.610183 -0.488795 0.383335 56 87 140
-0.481546 0.427061 0.147938 68 1 84
-0.528601 0.405378 0.268333 68 1 84
0.484913 0.439796 0.183244 68 1 84
-0.537421 0.266422 0.136372 68 1 84
0.295558 -0.218819 -0.146775 68 1 84
0.335495 -0.475977 -0.200300 68 1 84
0.635054 -0.046277 0.322659 68 3 87
-0.454411 0.265854 -0.018708 68 1 84
-0.212616 0.284716 -0.215660 44 114 142
0.474097 -0.313436 -0.061887 68 1 84
0.374522 -0.391680 -0.137779 68 1 84
-0.562438 0.039041 0.080617 68 1 84
0.224186 0.187196 -0.259046 45 110 142
-0.272764 0.548420 -0.097809 68 1 84
0.323867 0.461947 -0.060956 68 1 84
-0.656716 -0.256997 0.539190 68 57 130
-0.584026 0.245324 0.442662 68 1 84
0.651990 -0.086533 0.366141 71 37 117
-0.267142 -0.062344 -0.203455 68 3 87
-0.218306 0.606687 -0.142235 69 52 127
-0.171148 0.688471 -0.110316 61 75 137
-0.114537 0.626228 -0.219592 38 129 142
0.435829 -0.367864 -0.107096 68 1 84
-0.639836 -0.185554 0.247437 71 38 118
0.654519 -0.332513 0.291825 64 68 135
0.261423 -0.384389 -0.148873 68 1 84
-0.356586 -0.196783 -0.143029 68 1 84
-0.474600 -0.083722 -0.096844 68 1 84
0.356229 -0.575255 -0.239960 68 1 84
0.261881 -0.382328 -0.147887 68 1 84
0.629912 -0.085807 0.154536 70 47 124
0.251498 0.343299 -0.178059 67 60 132
-0.009751 -0.218026 -0.403781 68 1 84
-0.036825 0.344494 -0.324704 149 215 63
0.428479 -0.206484 -0.104694 68 1 84
-0.277986 -0.074479 -0.197732 69 5 88
0.131189 -0.113851 -0.356986 61 76 137
0.565163 0.228518 0.536153 68 1 84
0.662651 -0.126714 0.472432 71 39 119
-0.563736 0.328643 0.285168 68 1 84
-0.185202 0.534785 -0.187264 61 74 137
-0.503750 -0.306919 -0.015348 68 1 84
-0.371628 -0.093574 -0.161516 68 1 84
0.233252 -0.117289 -0.207480 68 1 84
-0.433708 0.098514 -0.115548 68 1 84
-0.090619 0.477477 -0.237942 51 96 141
-0.420547 -0.041605 -0.137877 68 1 84
-0.629521 -0.007855 0.462015 66 64 133
0.270567 -0.385536 -0.150773 68 1 84
-0.209487 0.614919 -0.147700 70 47 124
0.603431 0.068366 0.582446 68 1 84
-0.106165 0.415110 -0.272365 30 159 136
0.523809 -0.057940 -0.053587 71 40 120
-0.396865 0.221785 -0.118675 68 1 84
0.012702 -0.350864 -0.331890 68 1 84
0.092158 -0.504487 -0.306194 68 1 84
0.008696 0.461037 -0.252826 58 83 139
0.065149 -0.502202 -0.308543 68 1 84
-0.581679 -0.331008 0.116902 69 8 91
-0.305578 -0.060262 -0.191446 68 1 84
0.196696 0.084370 -0.248788 47 106 141
-0.297142 -0.351917 -0.174378 68 1 84
0.303374 0.347880 -0.140092 72 26 108
0.618026 -0.093839 0.107399 71 44 123
0.532564 -0.135836 -0.046005 71 40 120
0.304527 -0.432204 -0.189302 68 1 84
0.604966 0.140510 0.396600 68 1 84
-0.643212 -0.144450 0.359437 70 47 124
-0.543277 -0.127514 -0.017932 68 1 84
0.636794 -0.488984 0.294655 72 33 114
-0.496355 0.457530 0.265859 68 1 84
-0.064869 -0.014811 -0.457407 51 182 121
-0.436134 0.399576 0.042728 68 1 84
0.225129 -0.145744 -0.207081 68 1 84
0.192913 -0.318249 -0.162432 68 1 84
0.520811 -0.117822 -0.059412 67 59 131
-0.642160 -0.391773 0.417351 50 99 141
-0.523387 0.368652 0.185213 68 1 84
0.628760 -0.400499 0.216575 71 38 118
-0.221576 0.566040 -0.152885 66 62 133
0.681646 -0.283766 0.451366 65 66 134
0.407564 0.002209 -0.142718 70 45 124
-0.536786 0.391523 0.277428 68 1 84
-0.227025 0.665004 -0.061564 70 9 92
-0.504141 -0.295895 -0.020334 68 1 84
0.214493 0.260070 -0.241538 55 89 140
0.652936 -0.353244 0.303206 51 96 141
-0.645013 -0.321637 0.335878 46 108 142
0.257931 0.220106 -0.230539 66 61 132
-0.445703 0.495284 0.155275 68 1 84
-0.627484 -0.180773 0.190887 71 39 119
0.666695 -0.185701 0.574323 68 1 84
-0.416254 -0.309404 -0.087410 68 1 84
-0.235313 -0.045392 -0.214155 68 3 87
0.598353 0.015928 0.151126 68 3 87
-0.335311 0.000147 -0.188929 68 1 84
0.393753 0.135442 -0.134121 68 1 84
-0.478022 0.313819 0.048110 68 1 84
-0.520991 0.167694 0.047116 68 1 84
-0.188422 0.232062 -0.288864 75 194 108
-0.556028 0.127448 0.115057 68 1 84
-0.388442 -0.018878 -0.158433 68 1 84
-0.014862 0.001792 -0.505237 131 211 75
0.616118 0.002054 0.251895 68 1 84
-0.627704 -0.370384 0.326395 44 112 142
-0.062383 -0.411074 -0.215081 68 1 84
-0.580807 -0.176959 0.052862 68 1 84
-0.050265 -0.404991 -0.228668 68 1 84
-0.232165 -0.167067 -0.183996 68 1 84
0.652009 -0.119854 0.531976 70 47 124
-0.415085 -0.099484 -0.138426 68 1 84
0.634906 -0.056462 0.249063 68 1 84
0.406581 0.402481 0.012340 68 1 84
-0.622313 -0.052632 0.304031 70 48 125
-0.630095 -0.033632 0.498006 70 48 125
-0.526760 -0.050819 -0.034328 68 1 84
0.274200 0.269774 -0.192862 70 45 124
-0.580469 -0.112564 0.052897 68 1 84
0.569773 0.218078 0.216717 68 1 84
0.050339 0.567851 -0.243969 40 123 142
0.047397 0.452215 -0.257032 36 132 141
0.641621 -0.504654 0.308311 71 15 98
0.178232 0.686007 -0.064090 68 1 84
-0.415459 0.473352 0.069384 68 1 84
-0.616706 -0.056791 0.268298 71 15 98
-0.237294 -0.452118 -0.211673 68 1 84
0.677182 -0.134497 0.388679 68 55 129
0.350864 0.261026 -0.142813 71 20 102
0.472183 -0.476817 -0.136658 68 1 84
-0.094305 0.075477 -0.303695 40 174 127
0.292167 0.638047 0.094816 68 1 84
-0.191391 0.686044 -0.079476 71 42 121
-0.653287 -0.213128 0.512643 62 73 137
0.598736 0.052851 0.212103 68 1 84
-0.333404 0.413982 -0.088035 68 1 84
-0.063921 0.004039 -0.355974 33 141 140
0.674496 -0.143363 0.457608 63 69 135
-0.503287 -0.054859 -0.065691 68 1 84
-0.084317 -0.277351 -0.235526 68 1 84
-0.572373 -0.490072 0.218527 69 6 90
-0.479266 0.185325 -0.022189 68 1 84
0.509309 0.422138 0.230395 68 1 84
0.113345 0.019135 -0.331479 43 115 142
-0.316023 0.164154 -0.203158 52 95 141
-0.589428 0.091464 0.212032 68 1 84
-0.360160 -0.137809 -0.157771 68 1 84
0.492638 0.095353 -0.037491 68 1 84
0.633141 -0.461730 0.268356 68 55 129
0.544981 -0.355793 0.017410 68 1 84
-0.136541 0.544909 -0.217976 56 87 140
-0.241265 -0.472170 -0.215999 68 1 84
-0.553772 0.353814 0.280806 68 1 84
0.396783 0.560224 0.172631 68 1 84
-0.477927 0.480916 0.263798 68 1 84
0.595433 0.150670 0.487769 68 1 84
0.624578 0.018034 0.482429 68 1 84
-0.048781 0.440555 -0.263074 42 118 142
-0.041590 -0.364668 -0.240035 68 1 84
-0.112154 0.689348 -0.168751 61 76 137
-0.516518 -0.450447 0.036578 68 1 84
-0.284736 0.316463 -0.161569 67 60 132
0.235057 -0.142531 -0.201139 68 1 84
-0.384008 0.533687 0.070530 68 1 84
-0.638696 -0.309313 0.283827 58 82 139
0.522631 0.209666 0.101518 68 1 84
0.578401 0.130811 0.191316 68 1 84
-0.275336 -0.071481 -0.199126 68 1 84
0.180493 -0.324125 -0.166097 68 1 84
0.342513 -0.509275 -0.216965 68 1 84
0.353567 0.173358 -0.164579 71 22 105
0.151094 0.375772 -0.271611 32 164 133
-0.005035 0.074563 -0.381780 31 148 139
0.174071 0.450671 -0.214010 53 92 140
-0.209236 0.519029 -0.170168 68 55 129
0.571091 -0.363478 0.051930 68 3 87
0.578397 0.005329 0.062601 68 1 84
-0.656854 -0.325630 0.437418 41 120 142
-0.592149 0.119913 0.238291 68 1 84
0.671363 -0.175955 0.510579 70 12 95
0.527912 0.214363 0.114398 68 1 84
-0.638925 -0.452035 0.458049 40 122 142
0.459128 -0.250784 -0.077238 68 1 84
0.590034 0.249566 0.378781 68 1 84
-0.629636 -0.038942 0.550304 68 3 87
-0.555610 -0.563070 0.187617 68 1 84
-0.582007 0.281876 0.364837 68 1 84
0.048700 0.463706 -0.251003 49 102 141
-0.099980 -0.298566 -0.190278 68 1 84
0.656527 -0.121317 0.493601 71 38 118
-0.114622 0.603655 -0.226279 49 102 141
0.433016 -0.157954 -0.116697 68 1 84
-0.590068 0.135646 0.234548 68 1 84
-0.288206 0.534760 -0.083771 68 1 84
0.386186 -0.291349 -0.147901 68 1 84
-0.642472 -0.492531 0.508881 47 105 141
0.663263 -0.131423 0.289372 71 40 120
0.608265 0.047223 0.280398 68 1 84
0.196632 -0.478502 -0.255270 68 1 84
0.428722 0.056649 -0.121706 68 1 84
-0.478963 -0.195945 -0.080778 68 1 84
0.587030 0.085348 0.188803 68 1 84
0.682351 -0.355059 0.469461 61 76 137
-0.615521 0.049856 0.486213 68 1 84
-0.011711 0.401319 -0.297665 39 173 128
0.540504 0.367660 0.255472 68 1 84
-0.208979 -0.134949 -0.206509 69 6 90
0.643348 -0.397856 0.286686 69 50 127
0.587238 0.035094 0.126203 68 1 84
0.500846 0.227803 0.066952 68 1 84
-0.053201 -0.318728 -0.248532 68 1 84
-0.092722 0.625651 -0.228177 39 126 142
-0.619882 -0.143615 0.180112 71 37 117
-0.119930 0.149578 -0.318099 119 208 82
0.515198 -0.366857 -0.020650 68 1 84
0.188123 -0.388508 -0.170099 68 1 84
-0.647728 -0.140685 0.526617 64 68 135
-0.110776 -0.239964 -0.234930 68 1 84
0.164499 -0.026310 -0.332228 52 95 141
-0.115106 -0.180484 -0.267242 68 1 84
0.430874 0.388680 0.039797 68 1 84
-0.646900 -0.443438 0.505085 53 92 140
0.307646 0.019494 -0.192580 71 39 119
-0.014006 0.467787 -0.249954 54 91 140
0.073818 -0.216724 -0.413350 70 14 97
-0.234922 0.152055 -0.250619 40 123 142
0.347887 0.118584 -0.173064 68 1 84
-0.541970 -0.021428 -0.002470 68 1 84
-0.565710 0.283327 0.484007 68 1 84
0.559151 0.340248 0.295534 68 1 84
-0.226994 0.238082 -0.252560 43 177 125
-0.537810 -0.077731 -0.022953 68 1 84
-0.167988 0.436884 -0.228110 42 118 142
-0.155701 -0.454817 -0.214121 68 1 84
-0.561837 -0.340942 0.083308 69 6 90
0.450589 0.200784 -0.040263 68 1 84
-0.441995 0.266402 -0.038532 68 1 84
0.195778 -0.242325 -0.190514 68 1 84
0.573536 -0.507479 0.024064 68 1 84
-0.583447 -0.377525 0.155492 72 32 113
0.643777 -0.157844 0.166092 68 57 130
0.240913 0.511749 -0.127702 69 50 127
0.612646 0.042457 0.586180 68 1 84
-0.591770 0.232915 0.392098 68 1 84
-0.055071 -0.263206 -0.307053 68 1 84
-0.469761 -0.272003 -0.062090 68 1 84
0.598409 -0.311492 0.099941 72 32 113
0.175756 0.689339 -0.054348 68 1 84
0.550155 -0.470223 -0.054112 68 1 84
-0.652451 -0.285547 0.332734 47 106 141
0.578259 -0.220744 0.037195 67 60 132
-0.291690 -0.405735 -0.162516 68 1 84
0.206883 0.285299 -0.216855 51 97 141
0.004316 0.070390 -0.412265 56 185 118
0.535689 -0.545094 -0.086793 68 1 84
0.294714 -0.437298 -0.193520 68 1 84
-0.253591 0.142189 -0.238394 31 150 139
-0.607305 0.124175 0.388730 68 1 84
0.380342 0.252651 -0.113883 68 1 84
-0.048467 0.107673 -0.342720 89 199 100
0.617078 -0.050676 0.135285 71 17 99
0.479326 0.473851 0.356673 68 1 84
0.077504 0.571319 -0.239508 51 97 141
-0.594737 0.184511 0.283612 68 1 84
-0.096100 -0.362663 -0.176151 68 1 84
-0.561540 0.172185 0.150699 68 1 84
0.581559 0.271597 0.321602 68 1 84
-0.626091 -0.176028 0.186887 72 32 113
-0.360255 -0.018788 -0.174640 68 1 84
-0.403621 0.243228 -0.102805 68 1 84
0.629321 -0.000936 0.494060 68 1 84
-0.566153 -0.564310 0.227049 68 1 84
0.092237 -0.468356 -0.295917 68 1 84
0.573306 0.111093 0.161111 68 1 84
0.203963 0.592044 -0.147228 68 1 84
0.481756 -0.570568 -0.152189 68 1 84
0.305253 -0.473721 -0.206296 68 1 84
0.504420 0.370719 0.155986 68 1 84
-0.018387 -0.402300 -0.277200 68 1 84
0.360152 -0.348939 -0.144290 68 1 84
0.293234 -0.163410 -0.162243 68 1 84
0.127607 -0.278431 -0.285237 68 1 84
0.361353 0.457663 -0.014929 68 1 84
0.645070 -0.437269 0.316650 67 58 131
0.107995 -0.133103 -0.404468 55 88 140
-0.475283 0.484251 0.308072 68 1 84
0.019422 -0.426816 -0.296997 68 1 84
-0.564821 0.191618 0.169297 68 1 84
-0.537639 0.397620 0.355250 68 1 84
-0.143559 0.554285 -0.215028 51 96 141
-0.636909 -0.095974 0.391415 58 82 139
-0.594761 0.217571 0.389472 68 1 84
0.135942 0.440077 -0.244645 53 92 140
-0.515875 0.429658 0.277554 68 1 84
0.134271 -0.273732 -0.273634 68 1 84
0.681908 -0.304855 0.489543 64 68 135
-0.504890 0.345073 0.118277 68 1 84
-0.607213 -0.250000 0.127167 64 67 135
-0.550116 -0.301210 0.041984 68 1 84
0.010648 0.173964 -0.351759 83 197 103
-0.563203 -0.518861 0.203875 68 1 84
0.250564 -0.104616 -0.200333 68 1 84
0.150805 0.159205 -0.302921 34 167 132
0.446685 0.513004 0.282033 68 1 84
-0.097817 0.442030 -0.256686 34 139 141
-0.333449 0.468321 -0.056698 68 1 84
-0.174907 0.690946 -0.096268 68 55 129
-0.618090 -0.441930 0.373114 46 107 142
-0.645199 -0.393737 0.440381 50 99 141
0.500940 0.445248 0.390856 68 1 84
0.608636 -0.004753 0.172290 69 6 90
0.177107 0.112876 -0.270328 36 133 141
0.095673 0.159105 -0.339388 162 218 55
-0.359177 -0.048177 -0.172645 68 1 84
0.492189 -0.465944 -0.116830 68 1 84
0.074240 0.270387 -0.313375 129 211 76
0.684888 -0.221589 0.379573 55 89 140
0.348523 0.145268 -0.171183 68 1 84
-0.172834 -0.464149 -0.218616 68 1 84
-0.644358 -0.147426 0.369055 71 42 121
-0.299381 0.540887 -0.065174 68 1 84
-0.516733 0.141811 0.022564 68 1 84
0.444749 -0.227923 -0.090926 68 1 84
-0.256067 0.209542 -0.237528 32 144 140
0.628831 -0.010718 0.402662 69 6 90
0.625708 -0.395557 0.202450 69 6 90
-0.306343 0.187174 -0.206083 54 91 140
-0.049330 0.446723 -0.259644 40 122 142
0.597106 -0.107877 0.052349 71 20 102
0.437753 0.523933 0.233851 68 1 84
-0.301988 0.591401 -0.025253 68 1 84
-0.131755 -0.081974 -0.263959 44 114 142
0.168393 -0.043239 -0.279606 67 59 131
-0.648788 -0.233516 0.282427 69 52 127
0.659810 -0.238138 0.234443 67 58 131
-0.265773 0.574871 -0.095767 68 1 84
-0.614502 0.078748 0.383762 68 1 84
-0.248791 -0.607795 -0.267597 68 1 84
0.666407 -0.182289 0.251038 67 59 131
0.342468 -0.179127 -0.142367 68 1 84
-0.533497 0.137011 0.058960 68 1 84
0.682299 -0.350778 0.554822 71 38 118
-0.325426 -0.437474 -0.171689 68 1 84
