ply
format ascii 1.0
element vertex 1267
property float x
property float y
property float z
property uchar red
property uchar green
property uchar blue
end_header
-0.402983 -0.369695 -0.182203 66 64 133
-0.558613 0.115903 0.433019 68 1 84
-0.321098 -0.247158 -0.176424 72 28 110
-0.446696 -0.373344 -0.169160 72 34 115
-0.503022 0.091279 0.020619 68 1 84
0.433724 -0.350849 -0.090112 68 1 84
-0.479533 0.227857 0.097471 68 1 84
0.309753 -0.321266 -0.184992 71 18 101
-0.611139 -0.493630 0.056474 68 1 84
0.560079 0.161363 0.458968 68 1 84
-0.185096 0.155245 -0.236411 32 165 133
-0.211854 0.506470 -0.092097 59 80 138
0.227661 -0.087938 -0.198049 68 1 84
-0.157259 0.185749 -0.258157 173 220 48
-0.556309 0.109828 0.315724 68 1 84
-0.649792 -0.241185 0.200769 68 1 84
0.365159 0.490705 0.189703 31 162 134
-0.474652 0.345797 0.325067 68 1 84
-0.337056 0.309676 -0.072291 34 137 141
0.595114 -0.100968 0.136182 68 1 84
0.565377 0.189979 0.368166 68 1 84
0.668464 -0.358713 0.370102 68 1 84
-0.648665 -0.263107 0.186782 68 1 84
0.061362 0.262414 -0.269602 57 185 118
-0.518483 -0.371552 -0.112918 68 1 84
-0.678647 -0.313064 0.320910 68 1 84
0.417683 -0.511190 -0.230526 69 50 127
-0.341509 0.489322 0.076544 44 113 142
-0.374774 -0.220839 -0.142516 68 1 84
0.460306 0.371611 0.297999 72 32 113
0.617563 -0.175955 0.153763 68 1 84
0.490622 0.333941 0.181708 68 1 84
0.349852 -0.365444 -0.169691 68 3 87
0.581326 0.116830 0.316613 68 1 84
-0.074581 -0.182440 -0.374923 31 146 140
0.636753 -0.127750 0.458544 68 1 84
-0.003562 0.262844 -0.300915 85 198 102
-0.294868 0.467686 -0.008364 69 6 90
-0.549233 -0.472133 -0.107740 68 1 84
-0.070182 -0.185642 -0.380655 31 147 139
-0.628790 -0.107503 0.512514 68 1 84
0.375549 0.481205 0.202520 35 136 141
0.647592 -0.219427 0.308484 68 1 84
-0.596608 -0.030759 0.548572 68 1 84
-0.409073 0.411553 0.094613 61 76 137
-0.530677 0.193719 0.250953 68 1 84
0.192373 0.145491 -0.232112 72 30 112
-0.639768 -0.154797 0.258226 68 1 84
-0.634296 -0.203471 0.151619 68 1 84
0.660106 -0.438621 0.279107 68 1 84
-0.086134 -0.267847 -0.302709 39 125 142
-0.658681 -0.483038 0.214227 68 1 84
0.465147 -0.082063 -0.087706 68 1 84
0.557495 -0.123597 0.011634 68 1 84
-0.496802 -0.496827 -0.185831 60 77 138
0.252845 0.186553 -0.204699 66 64 133
0.393009 -0.230722 -0.116439 68 1 84
0.445732 0.268786 0.012046 68 1 84
0.095984 -0.190854 -0.257320 70 49 126
-0.068161 -0.242378 -0.351281 30 153 138
-0.459584 -0.359742 -0.145991 72 28 110
0.370529 -0.021041 -0.147498 68 1 84
-0.350627 0.502162 0.239688 49 101 141
-0.306712 0.493723 0.030647 72 34 115
0.669562 -0.261485 0.419619 68 1 84
-0.136584 -0.400886 -0.298660 31 148 139
0.668060 -0.539477 0.342091 68 1 84
-0.313162 0.533690 0.192589 40 122 142
-0.486669 0.304281 0.449432 71 22 105
-0.626386 -0.183077 0.131043 68 1 84
0.579126 -0.026876 0.182715 68 1 84
-0.475922 0.328038 0.415632 70 48 125
0.266836 0.020208 -0.206035 68 1 84
0.222736 0.193109 -0.220834 62 73 137
0.102596 0.152300 -0.282581 39 124 142
-0.136589 0.278653 -0.224524 31 149 139
0.613719 -0.045005 0.425133 68 1 84
-0.455287 0.123225 -0.032542 68 1 84
-0.669281 -0.240779 0.451233 68 1 84
0.657606 -0.555708 0.297700 68 1 84
0.277270 0.157004 -0.193223 72 30 112
0.518746 -0.133224 -0.046055 68 1 84
-0.655458 -0.439964 0.207740 68 1 84
-0.300187 -0.310995 -0.170805 68 57 130
0.083152 -0.028108 -0.400691 39 125 142
-0.164052 -0.353530 -0.214858 57 85 139
0.581179 -0.192079 0.044287 68 1 84
-0.393585 -0.360736 -0.174317 67 58 131
-0.620821 -0.321379 0.102606 68 1 84
-0.045457 -0.067124 -0.456515 30 153 138
-0.160627 0.057440 -0.230931 39 125 142
-0.429077 0.416558 0.271417 68 1 84
0.641413 -0.318516 0.180881 68 1 84
0.181483 0.011878 -0.226871 70 12 95
0.141801 0.164394 -0.260458 50 99 141
-0.422256 0.320024 0.046465 68 1 84
-0.212134 -0.056129 -0.216280 39 124 142
-0.035454 0.459463 -0.191833 41 121 142
-0.222048 0.540056 -0.057899 70 48 125
0.473050 0.335623 0.399892 48 103 141
-0.038497 0.004837 -0.483340 37 171 129
0.508066 -0.222708 -0.048570 68 1 84
0.105011 0.297878 -0.242650 33 141 140
-0.127222 0.372287 -0.208664 44 113 142
-0.545219 0.092134 0.181812 68 1 84
-0.705365 -0.536505 0.426068 68 1 84
0.492244 -0.515179 -0.129320 68 1 84
-0.058656 -0.252439 -0.353328 30 156 137
0.586228 -0.012303 0.237109 68 1 84
-0.309063 0.474671 0.016886 69 5 88
-0.536015 -0.385459 -0.093193 68 1 84
0.483462 -0.138735 -0.081329 68 1 84
0.595590 -0.017141 0.290814 68 1 84
0.601261 -0.424120 0.092412 68 1 84
-0.418633 0.404216 0.374349 71 40 120
0.391855 -0.233085 -0.116865 68 1 84
-0.189657 -0.088583 -0.222712 40 123 142
-0.528069 0.206050 0.476821 68 1 84
-0.216909 0.498548 -0.090823 58 83 139
0.088471 -0.025353 -0.390262 53 92 140
-0.512244 0.084403 0.032246 68 1 84
0.468479 -0.452588 -0.161218 68 1 84
-0.514446 0.150866 0.118240 68 1 84
-0.443255 -0.090678 -0.114627 68 1 84
-0.576419 0.027536 0.321678 68 1 84
-0.102804 -0.253927 -0.267279 51 96 141
0.610189 -0.061081 0.336206 68 1 84
-0.568022 0.028811 0.235463 68 1 84
0.257667 0.412002 -0.117036 51 97 141
0.415813 0.432062 0.260310 47 106 141
0.068533 0.201779 -0.310174 43 177 125
0.172201 0.521408 -0.143688 31 149 139
0.602884 -0.049509 0.299081 68 1 84
0.406673 -0.430079 -0.214198 71 21 103
0.378609 0.400908 0.005594 72 26 108
-0.581251 0.008449 0.526784 68 1 84
-0.417496 0.069474 -0.097927 68 1 84
0.447966 0.244343 0.004574 68 1 84
0.109908 0.290329 -0.238439 37 131 141
0.464924 0.064341 -0.046704 68 1 84
-0.113794 -0.300066 -0.228314 49 101 141
0.459341 0.042655 -0.060835 68 1 84
0.671280 -0.578039 0.368905 68 1 84
0.601819 -0.098586 0.197225 68 1 84
0.171797 0.602676 -0.033048 30 159 136
0.617932 -0.058572 0.450181 68 1 84
-0.214297 0.503778 -0.090909 60 77 138
-0.462791 0.346166 0.407588 69 54 129
-0.193247 0.016320 -0.218466 31 163 134
-0.429525 0.053893 -0.091474 68 1 84
-0.041631 0.357901 -0.253016 35 168 131
0.256613 -0.363468 -0.204184 69 54 129
-0.542528 -0.426020 -0.104318 68 1 84
-0.126478 0.455485 -0.170285 41 120 142
0.114722 -0.216347 -0.208934 66 62 133
-0.646712 -0.232453 0.190749 68 1 84
0.128802 0.584163 -0.127433 34 137 141
-0.538123 0.171664 0.269403 68 1 84
-0.450111 -0.225626 -0.084957 68 1 84
-0.219487 0.259361 -0.189331 33 166 133
-0.084292 0.053355 -0.393725 119 208 82
-0.438060 0.036374 -0.089496 68 1 84
-0.449973 0.380915 0.171087 68 1 84
-0.542976 -0.440105 -0.111932 68 1 84
0.492439 0.329261 0.179828 68 1 84
-0.553455 0.142041 0.423956 68 1 84
0.567979 0.096935 0.223346 68 1 84
0.550865 -0.078873 0.016409 68 1 84
0.505515 0.316778 0.243555 68 1 84
-0.152372 0.496552 -0.147177 48 103 141
0.433366 -0.121836 -0.118052 68 1 84
0.281507 -0.231718 -0.179168 67 60 132
0.332866 -0.454665 -0.261882 63 71 136
0.505066 -0.186372 -0.059011 68 1 84
0.045088 -0.215290 -0.329872 50 98 141
-0.449467 -0.262661 -0.080045 68 1 84
0.555138 -0.521872 -0.005398 68 1 84
-0.227465 -0.325987 -0.179334 48 103 141
-0.200699 -0.380642 -0.237213 52 95 141
0.128860 0.003201 -0.337818 51 97 141
0.564013 0.180911 0.267633 68 1 84
-0.682494 -0.349583 0.373096 68 1 84
0.555479 -0.052539 0.042865 68 1 84
0.092199 -0.393638 -0.263131 53 93 140
-0.638544 -0.447474 0.144307 68 1 84
-0.329110 0.523145 0.172707 34 138 141
-0.042436 -0.072357 -0.454789 30 153 138
0.043234 -0.348354 -0.270750 45 111 142
-0.126668 0.237221 -0.279844 210 225 27
-0.556989 -0.220572 -0.003981 68 1 84
0.120879 0.297452 -0.235353 41 121 142
-0.394319 0.435982 0.095052 52 94 141
0.174147 0.123799 -0.235876 70 48 125
0.574554 0.068802 0.236516 68 1 84
-0.293735 0.522648 0.051996 46 107 142
0.055854 0.621618 -0.118860 71 192 110
0.658584 -0.201112 0.428177 68 1 84
-0.543837 0.135696 0.501263 68 1 84
-0.434545 0.379732 0.405641 67 59 131
-0.532398 0.226895 0.380058 70 14 97
-0.455638 -0.474374 -0.227925 42 119 142
-0.386549 0.210046 -0.074737 68 1 84
0.407181 0.400479 0.045821 70 45 124
0.164095 0.599186 -0.068514 34 137 141
0.619408 -0.085854 0.367754 68 1 84
0.372071 0.259347 -0.095052 71 38 118
-0.382902 -0.223799 -0.137898 68 1 84
0.353416 0.004569 -0.158822 68 1 84
0.482778 0.038998 -0.033244 68 1 84
0.608105 -0.212025 0.102931 68 1 84
0.414195 -0.080528 -0.123612 68 1 84
-0.081537 -0.152962 -0.372970 32 143 140
0.589358 0.001710 0.268785 68 1 84
0.295469 -0.084015 -0.177389 68 1 84
0.545423 -0.516202 -0.023515 68 1 84
0.452873 0.383936 0.279904 72 30 112
-0.361255 -0.205594 -0.144045 68 1 84
0.265891 -0.499472 -0.301196 58 83 139
0.299550 -0.327805 -0.187550 71 24 106
0.243205 -0.079201 -0.196132 68 1 84
-0.143832 -0.308407 -0.188489 70 49 126
-0.654696 -0.276886 0.207390 68 1 84
-0.677780 -0.300402 0.383667 68 1 84
-0.049391 0.118383 -0.330953 42 176 126
-0.338508 -0.170917 -0.146840 68 1 84
0.667190 -0.233723 0.426826 68 1 84
0.312952 0.240896 -0.153077 69 54 129
-0.562258 0.091660 0.340234 68 1 84
0.092304 -0.316180 -0.197535 52 94 141
-0.325379 -0.411576 -0.260265 41 120 142
0.635249 -0.121102 0.508443 68 1 84
-0.401143 -0.305721 -0.128014 71 22 105
-0.565410 0.031191 0.197949 68 1 84
-0.577407 -0.270175 0.023579 68 1 84
-0.365863 0.453611 0.068132 63 71 136
-0.634443 -0.462608 0.127934 68 1 84
-0.498382 0.248174 0.172970 68 1 84
0.158667 -0.382966 -0.212586 66 61 132
-0.572913 0.026403 0.532281 68 1 84
-0.599086 -0.070566 0.106202 68 1 84
0.556916 0.030434 0.137585 68 1 84
0.270863 0.331003 -0.136532 37 131 141
-0.457891 -0.506938 -0.224806 52 94 141
-0.663485 -0.205071 0.397539 68 1 84
0.093783 0.074726 -0.294124 41 120 142
0.375232 -0.500416 -0.259360 51 97 141
0.593372 -0.309656 0.067928 68 1 84
0.556337 -0.486723 -0.001907 68 1 84
-0.252919 0.525070 -0.026574 66 61 132
0.155391 0.602190 -0.073928 32 145 140
0.083976 -0.205876 -0.264393 69 54 129
-0.500852 0.172353 0.099781 68 1 84
0.266877 0.089769 -0.202737 68 1 84
0.537564 -0.498568 -0.038554 68 1 84
-0.039847 0.595412 -0.151705 31 161 135
-0.002646 0.450780 -0.197572 52 94 141
-0.462101 0.336380 0.450479 61 76 137
-0.095764 -0.087597 -0.377431 32 143 140
0.426335 0.406213 0.315367 41 120 142
-0.311098 -0.154674 -0.154419 68 1 84
-0.317645 0.511311 0.074862 44 112 142
-0.378518 -0.062056 -0.147243 68 1 84
-0.035709 -0.300059 -0.333078 33 141 140
-0.355236 -0.296369 -0.163382 69 52 127
-0.206114 -0.413483 -0.291683 32 143 140
0.349878 0.385018 -0.044173 58 83 139
-0.370852 0.227812 -0.080596 68 1 84
0.044228 0.388877 -0.223169 30 151 138
-0.455083 0.125900 -0.031471 68 1 84
-0.348296 0.089725 -0.153448 68 1 84
-0.524670 -0.357747 -0.090076 68 1 84
-0.287625 0.544890 0.113540 32 143 140
0.230777 -0.242367 -0.190520 68 55 129
-0.232509 -0.034650 -0.210827 46 109 142
-0.496404 0.235133 0.152922 68 1 84
0.080959 -0.309314 -0.209283 47 106 141
-0.008249 -0.036652 -0.476125 30 155 137
0.408880 0.150149 -0.094811 68 1 84
-0.245420 -0.126091 -0.174884 72 32 113
0.449231 0.384706 0.291666 69 54 129
-0.650410 -0.163173 0.499891 68 1 84
0.456777 0.343035 0.083921 68 1 84
-0.372641 0.473924 0.284351 53 92 140
0.117604 0.013951 -0.364264 44 112 142
-0.565954 -0.472582 -0.053136 68 1 84
0.649073 -0.341829 0.214352 68 1 84
-0.457819 0.284661 0.091044 68 1 84
-0.235419 -0.259430 -0.176988 52 95 141
-0.433345 0.111818 -0.065726 68 1 84
-0.097537 0.309562 -0.240372 35 137 141
0.639167 -0.463696 0.208529 68 1 84
0.074615 -0.421224 -0.306471 35 137 141
0.471240 0.363864 0.155209 68 1 84
0.402815 -0.369349 -0.154227 68 1 84
-0.355459 0.048643 -0.156575 68 1 84
-0.612361 -0.058583 0.477699 68 1 84
-0.525181 -0.375953 -0.105620 68 1 84
-0.155173 -0.383307 -0.268153 46 109 142
-0.077712 0.060348 -0.329342 47 179 123
-0.459679 -0.392853 -0.185935 66 64 133
0.333754 0.408127 -0.044420 61 75 137
0.547193 -0.357776 0.000926 68 1 84
-0.146665 0.272212 -0.226649 34 137 141
-0.267415 0.501920 -0.023812 70 47 124
0.083156 0.311882 -0.252402 30 152 138
-0.302190 0.100791 -0.176455 46 108 142
-0.103005 0.082499 -0.296903 30 159 136
0.417952 0.130531 -0.090041 68 1 84
0.135391 0.345060 -0.226916 44 112 142
-0.112024 0.102969 -0.278704 39 173 128
-0.468915 0.358653 0.258443 68 1 84
0.275126 -0.080556 -0.185766 68 1 84
-0.172525 0.260300 -0.232186 119 208 82
0.330497 -0.515530 -0.280410 37 130 142
-0.222380 -0.383329 -0.236149 57 85 139
0.456445 -0.463538 -0.179438 68 1 84
-0.553093 -0.038333 0.011639 68 1 84
0.517291 0.185433 0.131837 68 1 84
0.578308 0.139365 0.367799 68 1 84
-0.494621 0.310304 0.281271 68 1 84
0.448839 0.052288 -0.070465 68 1 84
0.650194 -0.337182 0.218541 68 1 84
0.074058 -0.296158 -0.218998 48 104 141
-0.599046 -0.033098 0.403017 68 1 84
-0.116300 0.495311 -0.164026 37 130 142
-0.568065 0.033441 0.542376 68 1 84
0.172770 -0.175212 -0.185550 69 54 129
0.221591 0.353211 -0.169675 49 102 141
0.009730 0.174799 -0.314190 83 197 103
-0.659825 -0.489819 0.217050 68 1 84
-0.339659 0.515700 0.153725 35 136 141
-0.248309 0.493050 -0.057522 72 28 110
-0.660353 -0.373075 0.218315 68 1 84
0.594299 0.026930 0.460773 68 1 84
-0.536020 0.167032 0.248408 68 1 84
0.261553 0.553977 0.041782 31 148 139
0.594515 0.022395 0.470233 68 1 84
0.042567 0.579332 -0.165705 69 191 111
0.662933 -0.228019 0.407984 68 1 84
0.069980 -0.052465 -0.402123 52 94 141
0.439360 0.063684 -0.078797 68 1 84
0.217479 0.522660 -0.104913 36 132 141
-0.393665 0.087607 -0.115723 68 1 84
0.106046 -0.324596 -0.185930 66 61 132
0.001848 -0.098357 -0.444711 35 136 141
-0.683408 -0.325634 0.409147 68 1 84
-0.112547 -0.066347 -0.346672 33 142 140
-0.120784 0.603754 -0.105492 39 125 142
0.145207 0.541458 -0.149694 33 140 141
-0.478611 0.326513 0.407236 72 29 111
0.567885 0.062730 0.204414 68 1 84
0.336161 -0.429759 -0.248484 67 60 132
-0.052852 0.540119 -0.177028 31 161 135
-0.635244 -0.145869 0.328211 68 1 84
-0.533317 -0.315465 -0.027937 68 1 84
-0.491086 0.045274 -0.025635 68 1 84
-0.434949 -0.268529 -0.094438 68 1 84
0.388889 -0.404766 -0.212136 69 8 91
0.486190 -0.346095 -0.052671 68 1 84
0.117895 -0.246324 -0.191470 65 66 134
0.094778 0.117917 -0.285225 40 123 142
-0.678844 -0.272966 0.445372 68 1 84
0.063465 -0.141391 -0.339587 55 89 140
-0.653468 -0.426929 0.199386 68 1 84
-0.154574 -0.167305 -0.227932 31 147 139
-0.265188 0.434664 -0.065687 64 67 135
0.463458 -0.394365 -0.122914 68 1 84
-0.022919 -0.452635 -0.337037 68 190 112
-0.303570 0.539516 0.154303 31 147 139
-0.140718 0.615867 -0.053657 30 159 136
-0.089571 -0.222261 -0.325619 32 144 140
-0.446081 0.333363 0.100292 68 1 84
-0.252831 -0.194430 -0.169302 69 8 91
0.121687 0.198506 -0.278812 33 140 141
-0.399143 -0.132089 -0.133891 68 1 84
0.668954 -0.388860 0.333821 68 1 84
-0.530977 0.190064 0.486220 68 1 84
-0.144322 0.152638 -0.260860 40 174 127
-0.539739 0.166044 0.271723 68 1 84
0.666435 -0.316673 0.366613 68 1 84
0.443452 -0.258303 -0.082596 68 1 84
-0.426600 0.208060 -0.025065 68 1 84
0.600782 -0.486417 0.096306 68 1 84
0.634632 -0.468785 0.192024 68 1 84
0.585030 -0.472144 0.058412 68 1 84
0.544809 0.087449 0.143321 68 1 84
0.629149 -0.212166 0.180332 68 1 84
-0.646730 -0.225760 0.193817 68 1 84
0.606844 -0.069172 0.292566 68 1 84
0.446687 0.022709 -0.080609 68 1 84
0.669342 -0.233558 0.439380 68 1 84
0.159933 0.401188 -0.184716 36 133 141
0.553455 0.185788 0.451324 68 1 84
-0.096642 0.611136 -0.113407 38 127 142
0.133354 0.230468 -0.272923 31 146 140
0.021817 -0.216613 -0.366463 37 131 141
0.142969 0.514095 -0.159520 30 153 138
0.660011 -0.304070 0.270683 68 1 84
0.291368 0.532350 0.055480 33 141 140
0.461833 0.273910 0.044585 68 1 84
-0.144932 -0.368731 -0.254434 49 102 141
0.676497 -0.255358 0.466470 68 1 84
-0.414499 -0.197350 -0.111078 68 1 84
0.444723 0.398141 0.259214 66 62 133
0.223154 0.488004 -0.117837 44 113 142
0.565021 0.098006 0.210827 68 1 84
-0.539476 -0.402225 -0.095977 68 1 84
-0.543347 0.166238 0.297583 68 1 84
0.482436 -0.396237 -0.100782 68 1 84
0.120306 -0.244676 -0.190273 67 58 131
0.668244 -0.364099 0.290552 68 1 84
0.242327 0.558362 -0.017482 33 142 140
-0.147156 0.065766 -0.251428 37 131 141
0.123738 0.498416 -0.168706 30 158 136
0.535664 0.250342 0.391243 68 1 84
-0.419733 -0.096271 -0.128988 68 1 84
0.049736 -0.223856 -0.312608 63 71 136
0.260821 0.056432 -0.206900 68 1 84
-0.399878 -0.117168 -0.136814 68 1 84
0.402517 -0.353568 -0.113077 68 1 84
0.354527 0.079787 -0.156348 68 1 84
0.332077 -0.524392 -0.280248 36 134 141
-0.588177 -0.024908 0.211446 68 1 84
0.655580 -0.194561 0.420699 68 1 84
0.624338 -0.154274 0.236107 68 1 84
0.613468 -0.309776 0.106876 68 1 84
0.489166 -0.098301 -0.070548 68 1 84
-0.537956 0.129077 0.529237 68 1 84
0.472040 -0.348833 -0.064945 68 1 84
-0.478814 0.097236 -0.012194 68 1 84
-0.369816 -0.098211 -0.150300 68 1 84
-0.162331 -0.352499 -0.214528 57 84 139
0.670614 -0.362013 0.384572 68 1 84
-0.224978 -0.381809 -0.232569 56 86 139
-0.659539 -0.251979 0.246048 68 1 84
0.081295 0.109061 -0.300093 44 114 142
-0.579786 -0.435772 -0.007760 68 1 84
-0.668606 -0.252400 0.299009 68 1 84
0.340371 -0.238920 -0.154539 68 1 84
-0.585856 -0.019481 0.216121 68 1 84
0.515005 -0.161589 -0.051488 68 1 84
-0.485498 -0.135620 -0.084254 68 1 84
-0.668741 -0.249640 0.498015 69 6 90
0.128856 -0.412043 -0.270855 48 104 141
-0.496156 0.275972 0.196071 68 1 84
0.425357 0.280660 -0.012173 68 1 84
-0.596590 -0.044914 0.241214 68 1 84
-0.679820 -0.354758 0.352472 69 6 90
0.041943 0.268886 -0.269754 39 173 128
-0.008146 0.005974 -0.486461 131 211 75
0.050744 0.473032 -0.192084 36 132 141
0.531495 0.208802 0.500304 51 97 141
0.448538 0.180715 -0.027612 68 1 84
0.080837 -0.314160 -0.209959 45 110 142
0.658352 -0.226810 0.376704 68 1 84
0.640095 -0.540836 0.221799 68 1 84
-0.457278 -0.209240 -0.083944 68 1 84
-0.266998 0.014314 -0.202333 39 126 142
-0.225985 0.567181 -0.015574 44 112 142
0.255454 0.318316 -0.146790 47 105 141
-0.532327 0.227121 0.362959 70 9 92
-0.584462 -0.380078 0.016227 68 1 84
0.455123 0.381227 0.123995 68 1 84
0.282723 0.419080 -0.091416 58 83 139
-0.540295 -0.184246 -0.030512 68 1 84
0.541722 -0.212297 -0.015960 68 1 84
-0.574863 -0.248202 0.019712 68 1 84
-0.414488 0.426063 0.299318 72 34 115
0.563321 -0.018071 0.108263 68 1 84
0.426551 0.182496 -0.058657 68 1 84
-0.382415 0.471647 0.246306 58 83 139
-0.662423 -0.216320 0.465261 68 1 84
0.620694 -0.119861 0.298196 68 1 84
-0.115698 -0.097010 -0.322778 31 149 139
-0.470611 0.295025 0.131009 68 1 84
-0.596270 -0.059322 0.109090 68 1 84
-0.576684 0.044946 0.397500 68 1 84
0.355044 -0.347280 -0.147446 68 1 84
0.661180 -0.260111 0.320065 68 1 84
-0.563894 -0.003128 0.064126 68 1 84
0.235766 -0.251592 -0.194153 71 40 120
-0.576201 0.005077 0.188932 68 1 84
-0.582441 0.025344 0.415710 68 1 84
0.067943 -0.470616 -0.330985 34 167 132
-0.561584 0.099573 0.448994 68 1 84
0.344801 -0.165570 -0.150632 68 1 84
-0.102098 -0.036861 -0.415714 32 143 140
0.430576 -0.358068 -0.100137 68 1 84
-0.695170 -0.383909 0.434785 68 1 84
-0.565489 0.030629 0.175859 68 1 84
0.115582 0.046300 -0.320197 53 93 140
-0.052257 0.099925 -0.339079 31 161 135
-0.504894 0.066819 0.007395 68 1 84
-0.016894 0.153054 -0.321459 51 182 121
-0.124843 -0.097639 -0.305564 35 135 141
-0.100543 -0.360861 -0.285076 40 123 142
0.152477 0.181189 -0.257993 55 88 140
-0.301091 0.090482 -0.179396 50 98 141
0.486633 0.346497 0.247962 68 1 84
-0.313348 -0.305846 -0.168267 69 54 129
-0.676665 -0.266042 0.340885 68 1 84
0.552078 0.107440 0.175455 68 1 84
0.471015 0.368123 0.168458 68 1 84
-0.583618 -0.033995 0.090366 68 1 84
0.475411 0.363124 0.239254 68 1 84
-0.224764 0.057629 -0.205112 42 118 142
0.072998 0.144434 -0.304626 36 133 141
-0.296740 -0.117296 -0.163297 68 1 84
0.446567 0.220660 -0.009520 68 1 84
0.439516 -0.146221 -0.114730 68 1 84
-0.340772 -0.474824 -0.285628 33 140 141
-0.206655 0.443676 -0.123373 52 95 141
0.043512 0.256785 -0.292644 81 196 104
0.030895 -0.125211 -0.408176 40 123 142
-0.332721 -0.074878 -0.164572 68 1 84
-0.108886 0.622513 -0.078754 32 144 140
0.583068 0.115972 0.358945 68 1 84
-0.661212 -0.193319 0.413496 68 1 84
-0.641610 -0.154789 0.366973 68 1 84
-0.520871 -0.285776 -0.024091 68 1 84
-0.552951 0.027909 0.069711 68 1 84
-0.543422 -0.485499 -0.117807 70 11 94
0.651925 -0.597681 0.277942 68 1 84
-0.638189 -0.135996 0.404543 68 1 84
-0.106207 -0.402832 -0.309964 38 172 129
-0.125037 -0.176252 -0.272556 31 148 139
0.510279 0.086020 0.047249 68 1 84
0.607506 -0.482330 0.114038 68 1 84
-0.134317 -0.182082 -0.252516 37 130 142
0.604830 -0.540096 0.110573 68 1 84
-0.137054 0.623345 -0.013938 41 175 127
0.139513 0.316029 -0.227755 40 123 142
-0.417798 0.437692 0.234643 70 49 126
-0.354659 0.421488 0.025169 67 60 132
0.656434 -0.362943 0.241530 68 1 84
0.672682 -0.347408 0.409144 68 1 84
-0.653751 -0.178786 0.500824 68 1 84
-0.580419 -0.080453 0.041868 68 1 84
0.655964 -0.224490 0.362212 68 1 84
-0.492288 0.030595 -0.032506 68 1 84
-0.056581 -0.241336 -0.361468 30 153 138
0.574463 -0.022719 0.162480 68 1 84
0.037302 -0.247720 -0.319441 53 93 140
0.639379 -0.199046 0.283127 68 1 84
0.666718 -0.282211 0.375962 68 1 84
0.005131 0.276732 -0.269326 35 168 131
0.065139 0.105985 -0.318194 33 140 141
-0.286737 0.415334 -0.050928 70 49 126
0.110213 -0.335533 -0.187640 67 59 131
-0.362509 0.087245 -0.143256 68 1 84
0.533672 0.225313 0.198854 68 1 84
0.576041 0.148707 0.316944 68 1 84
-0.556677 -0.005896 0.043835 68 1 84
-0.103815 -0.058094 -0.382388 36 134 141
0.566543 -0.547029 0.015226 68 1 84
0.144772 0.030790 -0.248227 70 48 125
0.162570 0.590693 -0.089361 40 123 142
-0.288290 0.004642 -0.194820 44 113 142
0.634384 -0.492753 0.193169 68 1 84
0.580957 -0.550805 0.046261 68 1 84
0.574471 -0.240502 0.032047 68 1 84
0.331157 0.503572 0.071747 49 100 141
-0.355449 0.252108 -0.081926 71 24 106
-0.465317 0.002170 -0.074552 68 1 84
0.666539 -0.221079 0.491359 68 1 84
0.675772 -0.366491 0.416788 68 1 84
0.539356 -0.036947 0.018969 68 1 84
0.593879 -0.436199 0.077616 68 1 84
-0.162692 -0.104881 -0.245998 41 120 142
-0.070261 -0.056353 -0.446767 32 144 140
-0.195784 0.398443 -0.151253 56 87 140
-0.293712 0.541325 0.115448 33 140 141
-0.188335 0.602511 0.029928 34 137 141
-0.213685 -0.108523 -0.199283 42 118 142
0.520849 0.168592 0.130536 68 1 84
0.620093 -0.238357 0.132357 68 1 84
0.431443 -0.449017 -0.200037 68 1 84
-0.539223 -0.488630 -0.126588 70 11 94
0.341126 0.497499 0.078330 46 107 142
-0.506083 0.249963 0.493392 68 1 84
-0.468784 0.316861 0.485845 66 62 133
-0.262888 -0.119634 -0.171284 71 22 105
0.490909 0.340116 0.248768 68 1 84
0.409119 0.394220 0.042169 71 43 122
0.558960 0.200997 0.268283 68 1 84
-0.528796 0.234563 0.336296 68 1 84
-0.131978 0.616284 -0.067652 32 145 140
-0.158303 0.046664 -0.263520 30 157 136
0.500894 0.139442 0.063200 68 1 84
0.599279 -0.046982 0.277423 68 1 84
0.161852 0.536459 -0.143060 31 147 139
-0.599193 -0.432516 0.037976 68 1 84
-0.229499 0.166896 -0.209173 31 161 135
0.572755 0.166640 0.340397 68 1 84
-0.503500 0.137156 0.065081 68 1 84
0.626348 -0.229902 0.158756 68 1 84
-0.320057 0.227319 -0.124501 71 20 102
0.569985 -0.322516 0.033169 68 1 84
0.551194 0.213845 0.408527 68 1 84
-0.597601 -0.046760 0.261156 68 1 84
0.590867 -0.246276 0.061167 68 1 84
0.056203 -0.191400 -0.322437 69 53 128
0.616473 -0.287748 0.113473 68 1 84
0.467633 0.376715 0.202297 68 1 84
-0.098483 -0.015635 -0.441085 33 140 141
-0.110302 -0.337940 -0.256960 42 119 142
-0.161010 -0.409665 -0.301540 32 145 140
0.342090 -0.468857 -0.263921 53 92 140
-0.558016 -0.445514 -0.071241 68 1 84
0.309540 -0.166250 -0.159217 68 1 84
0.668380 -0.358745 0.311858 68 1 84
0.056196 0.331550 -0.259253 30 157 136
-0.619578 -0.078826 0.499578 68 1 84
-0.647680 -0.190260 0.234763 68 1 84
-0.266233 -0.128404 -0.167539 71 38 118
-0.638397 -0.430252 0.147291 68 1 84
0.137707 0.038458 -0.300343 56 86 139
-0.482586 0.123318 0.009574 68 1 84
-0.467113 0.064838 -0.045671 68 1 84
0.546578 -0.177236 -0.012734 68 1 84
0.602753 -0.002904 0.428665 68 1 84
0.291101 0.508749 -0.010908 55 89 140
-0.521740 0.224143 0.246456 68 1 84
0.676142 -0.550115 0.393795 68 1 84
-0.531229 -0.505597 -0.139255 69 50 127
0.678356 -0.529343 0.408652 68 1 84
-0.393696 0.032275 -0.130003 68 1 84
0.279460 0.005078 -0.199992 68 1 84
0.502291 -0.398030 -0.074569 68 1 84
0.494900 0.322667 0.335743 68 1 84
0.097502 0.188546 -0.291731 34 139 141
-0.233563 0.432381 -0.102257 59 81 138
0.381105 0.152160 -0.121594 68 1 84
-0.695186 -0.417746 0.427554 68 1 84
0.641349 -0.499012 0.224729 68 1 84
0.326257 -0.148420 -0.158995 68 1 84
-0.119020 -0.065711 -0.329262 35 135 141
0.029355 0.199499 -0.314998 53 183 120
-0.706198 -0.535115 0.462667 68 1 84
-0.111867 0.049224 -0.368300 73 193 109
-0.669728 -0.235257 0.370889 68 1 84
0.017182 -0.128369 -0.420210 38 128 142
0.451354 -0.049346 -0.091920 68 1 84
-0.064881 0.321213 -0.252581 34 139 141
0.494368 0.013378 -0.028875 68 1 84
0.534574 0.131871 0.144885 68 1 84
0.044909 -0.314764 -0.262137 56 87 140
-0.418223 0.407059 0.109220 71 20 102
-0.330328 0.454503 0.025554 71 20 102
-0.287149 -0.090464 -0.175205 71 22 105
-0.561529 -0.440262 -0.059133 68 1 84
0.411011 -0.167985 -0.126929 68 1 84
-0.684085 -0.428847 0.319708 68 1 84
0.515433 0.146625 0.105692 68 1 84
-0.617181 -0.118750 0.136891 68 1 84
0.569937 0.099686 0.495458 68 1 84
-0.175623 0.607413 0.001915 31 147 139
0.288108 -0.280649 -0.196567 71 38 118
0.469527 0.299847 0.080837 68 1 84
0.653553 -0.230161 0.325523 68 1 84
0.555081 -0.006049 0.087310 68 1 84
0.563324 -0.152338 0.015720 68 1 84
-0.389219 0.190677 -0.083022 68 1 84
0.227727 0.462974 -0.122885 43 116 142
-0.547064 0.096949 0.211913 68 1 84
0.483111 0.332727 0.146814 68 1 84
-0.057207 0.467502 -0.186523 41 120 142
0.632939 -0.117081 0.434041 68 1 84
-0.278565 0.486020 -0.018327 70 49 126
-0.306867 0.356942 -0.070254 32 145 140
0.398263 0.459188 0.209665 44 113 142
-0.608956 -0.080425 0.154930 68 1 84
0.388027 0.455914 0.084330 61 74 137
0.105061 0.071904 -0.289311 44 114 142
-0.236093 0.305548 -0.135970 35 135 141
-0.137591 0.469857 -0.161376 43 116 142
0.598535 -0.258131 0.075160 68 1 84
0.459555 0.286029 0.046277 68 1 84
-0.201169 0.417477 -0.138549 55 88 140
-0.553178 0.137252 0.335300 68 1 84
-0.409372 0.428011 0.310969 72 33 114
-0.601481 -0.074388 0.112471 68 1 84
-0.254093 0.462478 -0.066109 71 40 120
0.322372 0.234035 -0.147753 71 22 105
-0.325237 0.350149 -0.060900 32 164 133
0.657878 -0.201099 0.512835 68 1 84
-0.296485 -0.066128 -0.180499 72 30 112
-0.011401 -0.094835 -0.451063 33 141 140
-0.541740 0.069309 0.095471 68 1 84
-0.566131 0.058784 0.303723 68 1 84
-0.602680 -0.058735 0.237772 68 1 84
-0.078711 -0.146047 -0.380118 30 151 138
0.152831 0.185291 -0.258591 48 104 141
-0.168789 0.288678 -0.194177 35 135 141
0.624681 -0.139196 0.287950 68 1 84
0.377810 0.345739 -0.042235 69 54 129
0.582169 -0.519526 0.049860 68 1 84
0.180556 0.184132 -0.243379 63 69 135
0.595541 -0.018294 0.288995 68 1 84
-0.529390 0.235646 0.365108 70 11 94
-0.632606 -0.283219 0.131633 68 1 84
-0.175153 0.562343 -0.094493 42 118 142
0.467733 -0.012786 -0.068717 68 1 84
0.164799 -0.334120 -0.181379 62 72 136
0.625541 -0.084310 0.470281 68 1 84
-0.146924 -0.152393 -0.247885 39 124 142
-0.173470 0.545135 -0.108844 47 105 141
0.489278 0.154067 0.041974 68 1 84
-0.301639 0.465202 -0.001223 72 25 107
0.367435 0.195668 -0.117603 68 1 84
0.133990 0.272305 -0.230579 40 123 142
0.498232 -0.429758 -0.104147 68 1 84
0.031176 -0.122682 -0.409304 41 121 142
-0.603916 -0.037253 0.487765 68 1 84
-0.313819 0.452713 0.004966 71 18 101
0.601440 -0.456917 0.095702 68 1 84
-0.396625 0.198088 -0.070461 68 1 84
-0.645022 -0.157845 0.525765 68 1 84
-0.204084 -0.210141 -0.174276 58 82 139
-0.694843 -0.550613 0.339961 68 1 84
0.428278 0.400134 0.083684 71 20 102
-0.027851 -0.048718 -0.469861 31 146 140
-0.003548 -0.182534 -0.402199 30 155 137
-0.101759 -0.330110 -0.264748 41 120 142
0.626274 -0.150977 0.264349 68 1 84
-0.259604 0.485983 -0.046634 72 32 113
0.516785 -0.438874 -0.073787 68 1 84
0.084477 -0.043080 -0.372433 50 98 141
-0.500482 0.298595 0.290413 68 1 84
-0.082740 0.327159 -0.247364 36 134 141
0.611167 -0.135220 0.180391 68 1 84
-0.377893 -0.007113 -0.146364 68 1 84
-0.592552 -0.012172 0.508472 68 1 84
0.539703 0.238643 0.403782 68 1 84
-0.589328 0.002165 0.437358 68 1 84
0.331143 0.056003 -0.173907 68 1 84
-0.682832 -0.441948 0.295961 68 1 84
0.346243 -0.467526 -0.261355 49 101 141
0.679935 -0.490254 0.431404 68 1 84
-0.505808 0.289699 0.319194 68 1 84
-0.517251 0.004234 -0.015885 68 1 84
-0.194480 0.440924 -0.135057 55 88 140
-0.034227 0.643296 -0.057128 116 208 84
-0.256626 -0.049514 -0.198526 59 81 138
-0.174780 -0.119878 -0.224971 38 129 142
-0.397551 -0.296277 -0.134146 72 25 107
-0.022617 -0.333526 -0.319775 31 146 140
0.464267 -0.171823 -0.095333 68 1 84
0.567423 -0.408449 0.027085 68 1 84
-0.678008 -0.432121 0.279732 68 1 84
0.600909 -0.010613 0.345719 68 1 84
0.651388 -0.174959 0.448717 68 1 84
-0.623171 -0.108334 0.246465 68 1 84
0.633714 -0.178708 0.272208 68 1 84
0.544620 0.099241 0.150838 68 1 84
-0.484784 -0.457598 -0.197460 57 84 139
-0.473298 0.319977 0.165709 68 1 84
0.345329 -0.154657 -0.153529 68 1 84
0.033105 -0.101082 -0.421092 34 138 141
0.541721 0.253383 0.316894 68 1 84
-0.502640 0.161989 0.092539 68 1 84
-0.195781 0.599383 0.048107 35 135 141
0.641527 -0.312192 0.181215 68 1 84
-0.512148 -0.371028 -0.121246 68 2 85
0.378671 0.192285 -0.108841 68 1 84
0.666971 -0.256303 0.405909 68 1 84
-0.392740 0.453382 0.286282 64 67 135
0.115791 -0.199162 -0.221417 65 65 134
0.287003 -0.206888 -0.167193 68 1 84
0.529311 0.227598 0.474574 66 64 133
-0.628456 -0.153794 0.161779 68 1 84
-0.594300 -0.039140 0.204659 68 1 84
-0.382943 0.449493 0.334112 63 71 136
0.503598 0.013770 -0.015610 68 1 84
0.622811 -0.259641 0.136051 68 1 84
-0.620948 -0.082484 0.456161 68 1 84
0.018159 -0.066489 -0.456743 32 145 140
-0.604906 -0.082212 0.118741 68 1 84
-0.489593 0.207539 0.105634 68 1 84
0.105114 -0.070446 -0.301900 60 78 138
-0.440043 -0.506992 -0.238694 37 130 142
0.235958 0.065875 -0.212633 68 1 84
0.616658 -0.109152 0.283202 68 1 84
-0.057606 0.627119 -0.107045 77 194 107
-0.536523 0.149872 0.512870 68 1 84
-0.667090 -0.540588 0.231413 68 1 84
-0.487973 0.324895 0.325886 68 1 84
-0.420876 0.412157 0.325473 72 32 113
-0.159616 0.393208 -0.178752 49 101 141
-0.431785 0.193133 -0.027481 68 1 84
0.520877 0.267094 0.413206 68 1 84
-0.163866 -0.034577 -0.247876 32 144 140
-0.382280 0.461524 0.296451 61 76 137
0.305287 0.274688 -0.141103 53 92 140
0.043710 0.079332 -0.348515 30 152 138
0.480920 0.148591 0.017184 68 1 84
0.383784 -0.195041 -0.128210 68 1 84
-0.671797 -0.514074 0.253793 68 1 84
0.604601 -0.016838 0.377144 68 1 84
-0.543653 -0.432345 -0.105790 68 1 84
-0.115841 -0.271070 -0.226145 61 74 137
-0.050079 -0.189606 -0.394938 32 144 140
0.524588 0.218053 0.171401 68 1 84
0.033595 0.571376 -0.171277 75 194 108
-0.391655 -0.219826 -0.128360 68 1 84
-0.318019 -0.315103 -0.166868 70 47 124
0.644015 -0.351976 0.195931 68 1 84
-0.171223 0.557874 -0.102258 49 102 141
0.229517 0.473650 -0.117638 46 109 142
-0.369615 -0.131750 -0.143530 68 1 84
0.614991 -0.085404 0.327616 68 1 84
0.564358 0.158778 0.442724 68 1 84
-0.307029 0.154827 -0.160208 71 38 118
0.253071 -0.022333 -0.207153 68 1 84
0.625577 -0.090646 0.421449 68 1 84
-0.004290 -0.208285 -0.388132 30 153 138
0.399114 0.316922 -0.031324 72 25 107
-0.466993 -0.350826 -0.128477 71 20 102
0.659199 -0.434889 0.270133 68 1 84
-0.479075 -0.021524 -0.069628 68 1 84
-0.042320 0.414470 -0.202745 31 149 139
0.149682 0.358378 -0.212802 39 124 142
0.357633 0.465904 0.045644 54 90 140
-0.100915 -0.375648 -0.296215 31 149 139
-0.043128 0.417007 -0.201088 32 145 140
-0.455202 0.194203 0.013213 68 1 84
-0.288230 0.160980 -0.169678 58 82 139
0.115897 -0.435069 -0.309704 41 120 142
0.666685 -0.300677 0.361795 68 1 84
-0.351118 0.241272 -0.091685 68 1 84
0.089044 -0.087885 -0.323319 55 89 140
-0.484858 0.320741 0.224477 68 1 84
-0.367609 0.473509 0.096913 44 113 142
-0.297884 0.452963 -0.014519 69 5 88
0.417364 0.366091 0.027867 68 57 130
0.045774 -0.179957 -0.350655 39 125 142
0.616218 -0.139378 0.208105 68 1 84
0.136582 0.012154 -0.324003 52 94 141
-0.160317 -0.070772 -0.254176 51 97 141
0.098861 0.183616 -0.289891 35 136 141
0.526851 -0.467912 -0.059605 68 1 84
0.252810 0.073293 -0.208246 68 1 84
0.005429 -0.184340 -0.397551 32 144 140
-0.051616 0.412854 -0.203417 31 147 139
0.558598 0.129555 0.204689 68 1 84
-0.013491 0.634976 -0.099841 89 199 100
0.601680 0.001176 0.439103 68 1 84
-0.529368 0.147180 0.178409 68 1 84
0.594757 -0.427879 0.079261 68 1 84
0.228601 0.460855 -0.122861 42 118 142
-0.499033 0.302126 0.292218 68 1 84
-0.697631 -0.386884 0.473919 70 14 97
-0.158825 0.016699 -0.316850 54 184 119
0.593227 0.010821 0.304540 68 1 84
0.100147 -0.003506 -0.389419 39 125 142
-0.040208 0.088486 -0.359833 41 175 127
0.121725 0.277336 -0.232775 38 129 142
-0.492275 0.317077 0.326864 68 1 84
-0.481086 0.290262 0.158674 68 1 84
-0.038150 0.109743 -0.344658 30 154 137
-0.027174 0.284171 -0.256945 34 138 141
-0.663104 -0.233823 0.292434 68 1 84
0.614988 -0.254781 0.113354 68 1 84
0.623680 -0.076651 0.496222 68 1 84
-0.232671 0.560898 -0.013847 44 113 142
0.363638 0.160663 -0.133786 68 1 84
0.222033 0.379017 -0.161362 43 115 142
0.588697 0.061643 0.433213 68 1 84
-0.150752 -0.105192 -0.261842 39 124 142
-0.303055 -0.366565 -0.190282 56 86 139
-0.565203 -0.401143 -0.034185 68 1 84
0.099517 -0.291845 -0.190604 49 100 141
0.262266 0.471891 -0.087247 49 102 141
-0.140338 -0.139373 -0.263755 37 130 142
0.641139 -0.203138 0.295668 68 1 84
-0.606806 -0.406560 0.060906 68 1 84
-0.149414 0.093024 -0.240516 34 138 141
0.508619 0.312477 0.276802 68 1 84
0.600954 -0.009269 0.487588 68 1 84
0.178712 0.342167 -0.200093 42 119 142
-0.168900 0.575222 -0.089915 40 123 142
-0.572045 0.058406 0.463272 68 1 84
0.627723 -0.373178 0.148828 68 1 84
-0.043440 -0.289742 -0.336851 30 153 138
0.532648 0.268497 0.338738 68 1 84
0.190880 0.595149 -0.000107 59 186 117
-0.609303 -0.074065 0.235484 68 1 84
0.360317 0.342230 -0.066829 57 85 139
0.085682 0.031958 -0.420691 30 153 138
-0.028081 -0.167400 -0.412805 30 157 136
0.168925 0.035807 -0.225086 71 20 102
-0.641808 -0.294061 0.156863 68 1 84
0.333459 -0.063689 -0.166555 68 1 84
0.024909 -0.468341 -0.334788 61 187 116
0.553271 0.031371 0.124434 68 1 84
0.424423 0.100541 -0.088872 68 1 84
0.296600 0.051592 -0.193692 68 1 84
0.674645 -0.366385 0.408266 68 1 84
-0.095746 0.557001 -0.157103 33 141 140
0.139847 -0.270265 -0.179636 71 18 101
0.087104 0.492955 -0.181429 31 149 139
0.148876 0.158705 -0.256003 60 77 138
0.602940 -0.080297 0.244151 68 1 84
0.245696 0.509675 -0.082208 39 124 142
-0.637986 -0.120963 0.473434 68 1 84
0.454222 -0.207704 -0.092550 68 1 84
-0.105750 0.002331 -0.436341 30 159 136
-0.357096 0.291892 -0.061938 68 57 130
0.509482 0.079144 0.039748 68 1 84
0.668423 -0.264112 0.411873 68 1 84
0.486062 0.271825 0.102002 68 1 84
-0.627005 -0.144754 0.164235 68 1 84
0.655932 -0.482730 0.283602 68 1 84
-0.151778 -0.335081 -0.200504 57 84 139
-0.546352 -0.367749 -0.059830 68 1 84
-0.616619 -0.091952 0.291994 68 1 84
-0.146766 -0.117739 -0.263667 39 125 142
-0.020626 0.640494 -0.079124 124 210 79
0.398604 -0.083062 -0.133691 68 1 84
0.125377 0.347390 -0.232275 35 136 141
0.546486 0.199672 0.456979 68 1 84
-0.452004 -0.134193 -0.108561 68 1 84
-0.489024 0.246405 0.552157 72 25 107
-0.497045 0.187085 0.105537 68 1 84
0.078198 0.078980 -0.307668 39 125 142
-0.052810 -0.441439 -0.335250 83 197 103
-0.701503 -0.466371 0.426747 68 1 84
0.653674 -0.186238 0.505333 68 1 84
-0.661259 -0.448868 0.229092 68 1 84
0.455818 0.247004 0.019829 68 1 84
0.398973 0.279024 -0.054042 71 17 99
-0.694836 -0.484809 0.355050 68 1 84
0.576772 -0.132305 0.048689 68 1 84
0.131951 -0.295001 -0.170154 70 49 126
0.497840 -0.217515 -0.058400 68 1 84
0.467703 0.124029 -0.020902 68 1 84
-0.061338 0.078374 -0.337722 44 177 125
-0.547214 0.090878 0.196382 68 1 84
0.361375 0.486877 0.099080 42 119 142
0.534825 0.243720 0.220620 68 1 84
0.592776 0.047829 0.391957 68 1 84
-0.476003 0.020883 -0.056349 68 1 84
-0.608819 -0.094743 0.123331 68 1 84
-0.019619 -0.015736 -0.483068 41 175 127
0.073285 0.016450 -0.450553 33 166 133
0.328732 -0.435366 -0.254699 58 83 139
0.469870 -0.545402 -0.161268 71 40 120
-0.564870 -0.393775 -0.032553 68 1 84
0.512538 -0.378131 -0.047406 68 1 84
-0.585851 -0.151088 0.028585 68 1 84
-0.396165 0.033684 -0.127606 68 1 84
0.644443 -0.244960 0.221127 68 1 84
0.164887 0.451855 -0.161890 37 131 141
0.576443 0.077302 0.252988 68 1 84
0.239477 0.379037 -0.148321 48 103 141
0.527907 0.253016 0.421879 68 1 84
-0.063122 0.405166 -0.208292 31 163 134
-0.006781 -0.278333 -0.343820 32 143 140
0.148636 0.004443 -0.247750 68 55 129
-0.542212 0.141097 0.501434 68 1 84
-0.393779 -0.254383 -0.140071 68 1 84
0.087868 -0.085229 -0.326699 57 84 139
-0.286848 -0.352490 -0.187555 65 65 134
-0.598589 -0.317199 0.056802 68 1 84
-0.056886 -0.465317 -0.337746 116 208 84
-0.208478 0.090459 -0.208229 39 126 142
0.395476 0.094915 -0.120976 68 1 84
-0.294388 0.535290 0.089326 38 127 142
0.585730 0.098914 0.351781 68 1 84
-0.514318 0.008176 -0.017356 68 1 84
-0.621312 -0.103665 0.296639 68 1 84
0.050569 0.271151 -0.262269 43 177 125
0.455171 0.093281 -0.050364 68 1 84
-0.559599 -0.184376 -0.009221 69 6 90
-0.546728 0.134597 0.489964 68 1 84
0.578148 0.094719 0.272670 68 1 84
-0.193218 0.377014 -0.161238 44 113 142
-0.674329 -0.256241 0.474317 68 1 84
0.650599 -0.177836 0.515517 68 1 84
0.261958 0.360574 -0.137538 36 132 141
0.469376 0.179526 0.009744 68 1 84
-0.576663 -0.481019 -0.025723 68 1 84
0.587247 0.028335 0.505224 64 68 135
-0.073124 -0.461988 -0.336440 75 194 108
0.058685 -0.064353 -0.416385 42 118 142
-0.385259 0.476958 0.197928 53 92 140
0.075371 -0.129566 -0.325044 62 72 136
0.273706 0.442139 -0.088644 50 99 141
-0.358917 -0.264038 -0.166998 71 15 98
0.324444 0.520045 0.152363 50 181 122
-0.080661 -0.086491 -0.410122 35 137 141
-0.629270 -0.346976 0.122484 68 1 84
-0.043749 0.092536 -0.350795 32 165 133
-0.539947 0.069011 0.086856 68 1 84
0.448014 0.047391 -0.072884 68 1 84
-0.128722 0.585243 -0.119213 39 126 142
-0.054051 0.333702 -0.256202 31 148 139
0.671403 -0.256156 0.507325 68 1 84
0.469323 -0.156280 -0.093203 68 1 84
-0.470908 -0.423096 -0.196236 52 94 141
0.673569 -0.587486 0.405067 68 1 84
-0.551064 0.154584 0.418637 68 1 84
-0.384440 0.462560 0.281720 63 71 136
-0.637314 -0.126363 0.501753 68 1 84
0.569591 -0.092059 0.050025 68 1 84
0.666862 -0.302435 0.379025 68 1 84
0.666258 -0.302623 0.321118 68 1 84
0.215077 0.150916 -0.222305 69 8 91
-0.536792 -0.425088 -0.115630 68 1 84
-0.043874 -0.309890 -0.325563 36 132 141
0.392486 0.216102 -0.085388 68 1 84
0.669242 -0.299922 0.407109 68 1 84
-0.678790 -0.279690 0.437691 68 1 84
0.254425 0.003346 -0.209916 68 1 84
-0.394694 0.123032 -0.104805 68 1 84
0.258149 0.233321 -0.189028 58 83 139
-0.120627 0.069543 -0.295651 46 178 124
0.192528 0.558109 -0.100673 35 135 141
-0.386669 0.044756 -0.133026 68 1 84
0.186481 0.269559 -0.197513 39 124 142
-0.334912 0.472704 0.047364 69 50 127
0.470120 0.054697 -0.043633 68 1 84
0.329428 0.396890 -0.057555 61 74 137
-0.573146 -0.074917 0.029028 68 1 84
0.190755 -0.018650 -0.227451 68 1 84
0.546396 -0.125167 -0.007778 68 1 84
0.532133 0.219209 0.190163 68 1 84
0.118193 -0.356230 -0.195595 70 47 124
0.586554 0.082027 0.406024 68 1 84
-0.357899 -0.456106 -0.278283 35 136 141
0.666855 -0.321879 0.378282 68 1 84
-0.063965 -0.213998 -0.373470 30 152 138
-0.215442 0.565247 -0.039644 57 84 139
0.614800 -0.090261 0.313689 68 1 84
-0.581962 -0.114180 0.029634 68 1 84
-0.032005 -0.427274 -0.332416 30 157 136
-0.039369 0.443940 -0.192766 36 133 141
0.612360 -0.152098 0.154427 68 1 84
0.305789 0.138820 -0.179774 68 1 84
0.448599 -0.256354 -0.080087 68 1 84
-0.635916 -0.147579 0.327731 68 1 84
-0.661141 -0.318983 0.228350 68 1 84
-0.580792 -0.345895 0.019594 68 1 84
0.664347 -0.319862 0.289885 68 1 84
-0.465180 -0.152696 -0.096509 68 1 84
0.122281 -0.194698 -0.216542 66 62 133
-0.624156 -0.114811 0.325794 68 1 84
0.569328 0.161037 0.276004 68 1 84
-0.369971 0.022215 -0.149439 68 1 84
-0.079068 -0.296366 -0.302665 39 125 142
0.044826 -0.390255 -0.293877 42 118 142
0.663869 -0.429501 0.293111 68 1 84
-0.387184 -0.426601 -0.249612 45 111 142
0.067285 0.130653 -0.311215 36 134 141
-0.509837 0.282566 0.352498 68 1 84
-0.125500 0.626433 -0.025799 44 177 125
-0.619794 -0.205209 0.102960 68 1 84
0.146955 -0.197662 -0.190672 71 37 117
0.543439 0.040955 0.097136 68 1 84
0.526330 -0.053019 -0.013529 68 1 84
-0.093214 -0.092564 -0.379591 32 145 140
0.200169 0.191302 -0.233044 61 76 137
0.310407 0.479060 -0.015947 48 104 141
0.404420 0.375703 0.018087 69 54 129
-0.235644 0.150874 -0.202846 31 148 139
0.391569 -0.537590 -0.247649 53 92 140
-0.376279 0.459775 0.092490 54 91 140
-0.393150 -0.059708 -0.139582 68 1 84
-0.341969 -0.388527 -0.224072 48 104 141
-0.094941 0.633092 -0.058614 44 177 125
-0.370037 -0.479170 -0.274812 31 147 139
-0.014480 0.329215 -0.260595 30 155 137
0.621085 -0.120798 0.300332 68 1 84
-0.342250 -0.323346 -0.162825 68 57 130
-0.633416 -0.328684 0.132593 68 1 84
-0.604166 -0.213251 0.062737 68 1 84
-0.663482 -0.219062 0.330979 68 1 84
-0.501981 0.050271 -0.007963 68 1 84
-0.426601 -0.052424 -0.118271 68 1 84
0.071672 -0.381396 -0.263574 48 103 141
0.551839 -0.396014 0.001340 68 1 84
0.611135 -0.074502 0.316550 68 1 84
0.140347 -0.418906 -0.277063 44 114 142
0.078569 0.005694 -0.443410 32 143 140
0.062234 0.428420 -0.195956 31 149 139
0.545586 0.120540 0.165049 68 1 84
-0.073823 0.334774 -0.250179 36 134 141
0.469148 0.272551 0.060470 68 1 84
-0.619092 -0.101993 0.375847 68 1 84
-0.033352 -0.271576 -0.350514 31 147 139
-0.025325 -0.437495 -0.335181 53 183 120
0.613787 -0.065780 0.357791 68 1 84
0.388586 -0.119593 -0.143782 68 1 84
-0.213793 0.590137 0.068863 37 130 142
0.031042 0.072158 -0.384328 40 174 127
-0.534455 0.019097 0.020130 68 1 84
-0.519594 0.165877 0.159080 68 1 84
-0.071794 0.639519 -0.048075 96 201 96
0.375761 -0.217581 -0.127210 68 1 84
0.539347 0.249678 0.371450 68 1 84
0.565232 0.184509 0.281263 68 1 84
0.660669 -0.472427 0.303776 68 1 84
0.252602 0.027585 -0.211011 68 1 84
-0.435438 0.400608 0.149519 68 1 84
-0.652294 -0.196424 0.288950 68 1 84
-0.502018 -0.338012 -0.089512 68 1 84
-0.645504 -0.228834 0.186706 68 1 84
0.068364 -0.063806 -0.390256 55 89 140
-0.480253 -0.408718 -0.179757 58 83 139
-0.115797 0.283711 -0.231057 35 135 141
-0.501964 0.266054 0.208634 68 1 84
-0.069734 -0.072648 -0.435947 33 141 140
0.344011 -0.516715 -0.275033 39 124 142
0.349496 0.365509 -0.060821 54 90 140
0.400370 -0.535856 -0.239965 61 74 137
0.017074 -0.362059 -0.301378 42 118 142
-0.550965 -0.439214 -0.090614 68 1 84
0.326247 0.467159 -0.003016 63 71 136
-0.609936 -0.074745 0.378447 68 1 84
-0.451244 0.370094 0.154561 68 1 84
0.111238 0.075168 -0.277132 44 114 142
0.242057 -0.368172 -0.207856 52 94 141
-0.326532 0.435284 0.005679 63 71 136
-0.514705 -0.121002 -0.059225 68 1 84
0.127124 0.057912 -0.282137 59 81 138
0.097127 -0.013751 -0.384607 39 124 142
-0.098490 0.024317 -0.444688 30 160 135
0.326025 0.068780 -0.176688 68 1 84
-0.580683 -0.138757 0.020776 68 1 84
0.169366 0.407456 -0.177221 30 156 137
0.472714 -0.063346 -0.077391 68 1 84
0.374900 0.483465 0.164407 35 135 141
-0.554627 -0.291050 -0.000364 68 1 84
-0.407221 -0.203346 -0.114730 68 1 84
0.634765 -0.187055 0.250471 68 1 84
-0.524186 0.199834 0.223116 68 1 84
0.030316 0.643836 -0.053498 79 195 105
0.435477 0.406618 0.266193 61 74 137
0.652313 -0.460314 0.261948 68 1 84
0.493458 -0.046853 -0.053015 68 1 84
-0.584720 -0.016583 0.237793 68 1 84
0.058584 0.010793 -0.465151 39 173 128
-0.653139 -0.274046 0.201271 68 1 84
0.425565 -0.218974 -0.103025 68 1 84
-0.145699 0.064362 -0.291003 43 177 125
0.631458 -0.106307 0.475736 68 1 84
-0.637443 -0.119762 0.462459 68 1 84
0.438047 0.394455 0.304766 53 92 140
0.558466 -0.197163 0.005753 68 1 84
-0.620966 -0.092032 0.533401 68 1 84
-0.195409 0.109465 -0.218482 38 127 142
-0.344636 -0.279941 -0.168959 69 50 127
0.572404 0.154756 0.292877 68 1 84
-0.538518 -0.383146 -0.086690 68 1 84
-0.324030 -0.453574 -0.287239 34 138 141
-0.106236 0.337288 -0.235428 32 145 140
0.675770 -0.245975 0.472714 68 1 84
-0.046675 0.125658 -0.329199 30 158 136
-0.679176 -0.545021 0.277192 68 1 84
-0.096288 -0.204811 -0.319181 34 137 141
0.406425 0.442378 0.099417 71 44 123
0.206725 -0.199806 -0.177469 72 34 115
-0.304145 -0.335404 -0.174145 61 76 137
-0.658440 -0.395041 0.212089 68 1 84
-0.495960 -0.278259 -0.039238 68 1 84
0.539205 0.257812 0.285806 68 1 84
0.046531 0.047451 -0.458496 34 167 132
-0.203981 -0.053583 -0.220888 34 137 141
0.573298 0.151911 0.396327 68 1 84
0.623400 -0.576810 0.160783 68 1 84
-0.692378 -0.470706 0.334588 68 1 84
-0.623453 -0.491849 0.089114 68 1 84
-0.681772 -0.389544 0.352583 68 1 84
0.238136 -0.148785 -0.172673 72 34 115
0.679614 -0.421716 0.410672 68 1 84
-0.014427 0.577249 -0.168055 39 173 128
0.362091 0.052759 -0.152524 68 1 84
0.125469 -0.005715 -0.335838 51 97 141
0.176150 0.382050 -0.186880 39 124 142
-0.630951 -0.266550 0.128921 68 1 84
-0.688834 -0.390972 0.386576 69 5 88
-0.140573 0.533086 -0.142560 37 130 142
-0.255613 0.016638 -0.205341 36 133 141
0.023082 0.358875 -0.255698 33 166 133
0.288268 0.479164 -0.052087 49 102 141
-0.020616 -0.286698 -0.341287 37 130 142
0.360827 0.262508 -0.105045 72 25 107
0.333302 -0.344067 -0.164939 68 1 84
0.101828 0.224405 -0.292776 32 165 133
0.646864 -0.413239 0.219511 68 1 84
-0.599775 -0.093583 0.085323 68 1 84
-0.390118 -0.047706 -0.140341 68 1 84
0.456579 0.371445 0.114125 68 1 84
0.179700 0.600813 -0.013168 51 182 121
-0.334340 -0.230451 -0.169258 70 14 97
-0.324326 -0.130321 -0.154942 68 1 84
-0.640318 -0.380209 0.154492 68 1 84
0.157370 0.601189 -0.073585 33 142 140
-0.468455 -0.435554 -0.204318 53 93 140
0.666515 -0.287102 0.341999 68 1 84
0.084688 0.495950 -0.181848 30 153 138
0.233932 0.067097 -0.212859 68 3 87
0.069069 -0.265225 -0.240176 52 94 141
0.157632 0.570552 -0.121049 38 128 142
0.587660 -0.538603 0.062905 68 1 84
-0.101059 -0.034143 -0.420620 34 138 141
0.046775 -0.225546 -0.317944 60 78 138
0.433764 -0.382147 -0.147165 68 1 84
0.628818 -0.153541 0.310074 68 1 84
0.581790 0.096205 0.295423 68 1 84
0.457107 0.392989 0.181533 68 1 84
0.134862 0.604608 -0.094804 31 149 139
0.400834 -0.249516 -0.110102 68 1 84
-0.522849 0.238240 0.443974 68 1 84
-0.478296 -0.176086 -0.081792 68 1 84
-0.469180 -0.511574 -0.214552 53 93 140
-0.455573 0.155824 -0.014050 68 1 84
-0.568794 0.022591 0.188228 68 1 84
-0.549708 0.099721 0.522827 68 1 84
-0.451497 -0.044603 -0.098631 68 1 84
-0.249481 0.261728 -0.159044 62 188 115
-0.486392 0.325786 0.271383 68 1 84
-0.523370 0.246046 0.414118 68 1 84
0.503667 -0.198114 -0.058100 68 1 84
0.667228 -0.466851 0.343431 68 1 84
0.608947 -0.196545 0.109385 68 1 84
0.677705 -0.282048 0.460945 68 1 84
0.195234 0.591050 -0.022238 53 183 120
0.060343 0.535129 -0.180756 35 168 131
-0.507294 0.229776 0.517781 68 1 84
-0.049184 0.628037 -0.109017 61 187 116
-0.257872 0.380298 -0.100719 54 90 140
0.512987 0.053228 0.027002 68 1 84
0.491846 0.047277 -0.016436 68 1 84
-0.519007 0.159571 0.148558 68 1 84
-0.406417 0.391088 0.069895 72 29 111
-0.528056 0.190392 0.231778 68 1 84
-0.160305 0.019262 -0.314943 46 178 124
-0.320092 0.206241 -0.134224 68 1 84
0.432607 0.301750 0.008066 68 1 84
0.003644 0.619685 -0.135503 66 190 113
0.309391 -0.233133 -0.169890 68 1 84
-0.636271 -0.164397 0.196736 68 1 84
-0.132435 -0.350028 -0.240346 44 112 142
0.235304 -0.417379 -0.263768 63 71 136
-0.614538 -0.243289 0.087435 68 1 84
0.182165 -0.173275 -0.182149 70 47 124
0.120589 0.107798 -0.261266 55 89 140
0.232260 0.020335 -0.216493 68 1 84
0.398094 0.272178 -0.058484 68 1 84
-0.464022 -0.102757 -0.101091 68 1 84
0.512841 0.232829 0.149550 68 1 84
-0.290958 0.537156 0.086716 41 121 142
-0.129132 -0.427333 -0.320987 46 178 124
0.298774 0.446468 -0.061194 58 82 139
0.644097 -0.237512 0.228498 68 1 84
-0.046538 0.634456 -0.092341 83 197 103
0.641289 -0.226818 0.225795 68 1 84
-0.531640 0.229466 0.373365 70 11 94
0.456989 -0.015053 -0.079756 68 1 84
-0.035758 0.091099 -0.362987 31 162 134
-0.125911 -0.185390 -0.265618 36 134 141
0.531165 -0.360273 -0.018016 68 1 84
0.142509 -0.144144 -0.225665 69 54 129
-0.581123 -0.003918 0.265778 68 1 84
0.678249 -0.359663 0.454675 68 1 84
0.667201 -0.563493 0.340973 68 1 84
