ply
format ascii 1.0
element vertex 1263
property float x
property float y
property float z
property uchar red
property uchar green
property uchar blue
end_header
-0.281207 0.526637 -0.002825 68 1 84
0.561872 -0.042221 0.033006 44 114 142
-0.129454 0.069693 -0.264837 68 1 84
0.599910 -0.442570 0.020550 126 210 78
0.666962 -0.522746 0.293744 167 219 51
-0.284002 0.511608 -0.024913 71 17 99
0.356892 0.475498 0.108326 68 1 84
0.430820 -0.304947 -0.135856 57 84 139
0.448092 -0.378779 -0.219992 63 71 136
-0.428613 -0.381235 -0.160516 68 1 84
0.535285 0.238485 0.484029 68 1 84
0.540609 -0.231197 -0.026227 39 173 128
-0.101482 0.149939 -0.295356 68 1 84
-0.472762 -0.003006 -0.103026 70 47 124
-0.582812 -0.586964 0.037295 30 160 135
0.286767 0.277982 -0.099217 70 9 92
-0.406438 0.451406 0.179696 68 1 84
0.463773 -0.334987 -0.136186 45 111 142
0.289098 0.472558 -0.028396 68 1 84
-0.334477 0.440378 0.008139 68 3 87
0.439670 -0.316976 -0.139595 57 85 139
0.612239 -0.525932 0.030793 116 208 84
-0.319846 0.520717 0.104066 68 1 84
-0.046642 -0.380492 -0.356304 68 1 84
-0.259651 -0.343371 -0.291402 68 1 84
-0.263149 0.259336 -0.112769 68 1 84
-0.505165 -0.102646 -0.077196 50 98 141
0.029824 0.377163 -0.226828 71 43 122
-0.339232 0.099703 -0.168972 68 1 84
-0.094094 -0.295092 -0.239358 68 1 84
0.350011 -0.079727 -0.186374 65 65 134
0.498939 -0.164635 -0.089707 31 147 139
0.026601 0.371128 -0.225247 68 1 84
0.126588 0.348451 -0.206099 72 30 112
-0.642734 -0.124664 0.521655 71 21 103
-0.256618 0.540545 -0.061953 71 38 118
0.677751 -0.599062 0.426352 64 189 114
0.661366 -0.191748 0.366489 32 165 133
0.586340 -0.488474 -0.017522 119 208 82
-0.404084 0.054861 -0.141536 68 1 84
0.655926 -0.294354 0.469067 51 182 121
0.143964 0.135586 -0.269233 68 1 84
-0.616007 0.056985 0.487580 68 1 84
0.574400 0.153507 0.425783 68 1 84
0.077190 0.031617 -0.329116 68 1 84
-0.646841 -0.151435 0.292621 58 82 139
-0.633400 -0.474252 0.212109 37 171 129
0.260867 -0.334409 -0.253345 68 1 84
-0.213275 0.128157 -0.229609 68 1 84
-0.646932 -0.520580 0.387158 54 184 119
-0.350409 -0.217328 -0.185157 68 1 84
-0.267262 0.547563 -0.000181 68 1 84
0.230898 0.359695 -0.133533 71 37 117
0.458885 -0.354982 -0.184368 57 85 139
-0.529786 -0.203158 -0.043077 39 125 142
0.360840 0.507473 0.271079 68 1 84
0.132783 0.424395 -0.193276 56 86 139
-0.583359 0.164400 0.453944 68 1 84
0.082544 0.270148 -0.273055 68 1 84
-0.595981 -0.535056 0.080794 35 169 130
0.237328 0.582470 0.075862 68 1 84
0.587204 0.008284 0.182290 42 118 142
0.015427 0.107715 -0.331913 68 1 84
-0.384872 0.463943 0.135929 68 1 84
0.344102 0.482627 0.092118 68 1 84
-0.568104 0.199978 0.454957 68 1 84
-0.102695 -0.090488 -0.310041 68 1 84
-0.016550 0.455275 -0.243578 67 59 131
0.426582 0.338303 0.066685 68 1 84
-0.633298 -0.538468 0.250583 89 199 100
0.647210 -0.160129 0.298110 30 159 136
0.510318 0.151792 0.062608 70 48 125
-0.236503 0.353705 -0.131099 70 9 92
-0.604191 0.052965 0.251245 68 1 84
-0.616874 -0.296450 0.181511 34 138 141
0.101381 0.006589 -0.306311 68 1 84
0.188195 -0.200887 -0.231333 68 1 84
-0.615282 0.080494 0.412518 68 1 84
0.431577 0.436614 0.246595 68 1 84
-0.431168 -0.461001 -0.205321 71 18 101
0.586882 -0.034388 0.125584 35 135 141
0.503278 -0.418085 -0.144812 42 118 142
0.606637 -0.002838 0.261945 62 73 137
0.217399 0.016342 -0.215576 68 1 84
0.409835 -0.460162 -0.288073 68 1 84
-0.560578 0.158003 0.169539 72 33 114
-0.434741 -0.198608 -0.146773 62 72 136
-0.032760 -0.030901 -0.465176 68 1 84
0.501785 -0.347156 -0.073434 30 153 138
0.492223 -0.326385 -0.063867 30 152 138
0.415483 0.076414 -0.113808 57 85 139
0.171645 0.228015 -0.228421 68 1 84
-0.578816 0.079880 0.173280 71 17 99
0.637243 -0.031592 0.414886 64 68 135
-0.623981 -0.181207 0.210611 41 120 142
-0.164975 -0.165202 -0.242739 68 1 84
0.593396 0.064905 0.278259 56 87 140
0.271070 0.563152 0.112928 68 1 84
0.103046 0.293727 -0.266331 68 1 84
-0.604509 0.035173 0.238884 72 26 108
0.565319 -0.062348 0.032556 37 131 141
-0.482926 0.319850 0.140473 68 1 84
0.121570 0.297280 -0.251801 70 9 92
0.630401 -0.064816 0.518025 54 91 140
-0.501971 0.312663 0.195619 68 1 84
-0.548242 -0.554447 -0.030164 42 119 142
-0.633510 -0.391319 0.309113 31 162 134
0.117622 0.493991 -0.217627 49 101 141
-0.647214 -0.521904 0.386207 56 185 118
0.641781 -0.188321 0.523728 32 164 133
0.652267 -0.356573 0.387091 131 211 75
0.667183 -0.517569 0.316432 170 219 50
-0.589018 -0.090327 0.129193 55 89 140
0.190727 0.112440 -0.233227 68 1 84
-0.437990 0.369150 0.107643 68 1 84
0.387437 0.104833 -0.123056 64 67 135
0.275233 0.512594 -0.021866 68 2 85
0.167072 -0.309998 -0.209889 68 1 84
0.635829 -0.125874 0.536770 41 120 142
-0.560811 0.209919 0.477751 68 1 84
0.463543 0.279066 0.078930 71 39 119
-0.177613 0.508683 -0.188541 48 104 141
-0.347566 0.508272 0.168044 68 1 84
-0.214941 0.109090 -0.229680 68 1 84
-0.633119 -0.534406 0.247743 66 190 113
-0.186710 0.516251 -0.178715 48 103 141
-0.051163 0.384128 -0.226042 72 26 108
-0.384930 0.396869 0.048238 68 1 84
0.652981 -0.420208 0.433826 149 215 63
0.490721 0.012329 -0.064054 45 111 142
-0.560071 0.185185 0.200710 72 25 107
-0.370425 0.399023 0.028408 68 1 84
-0.055819 -0.012358 -0.421151 68 1 84
0.510968 0.062261 -0.005591 44 113 142
-0.601138 0.125473 0.346550 68 1 84
-0.425394 -0.246600 -0.130476 58 83 139
-0.113950 0.153268 -0.288045 68 1 84
-0.347503 0.507957 0.177707 68 1 84
-0.580036 -0.462349 0.034118 36 134 141
0.666667 -0.519834 0.294427 183 221 41
0.440829 -0.430663 -0.251790 69 54 129
0.481152 -0.172193 -0.105721 35 135 141
0.349526 0.483122 0.105465 68 1 84
0.648458 -0.377553 0.205213 144 214 67
-0.071062 -0.243419 -0.276465 68 1 84
0.475619 -0.384864 -0.179303 45 110 142
0.156979 0.606649 -0.106142 63 71 136
-0.242073 0.320925 -0.129752 71 20 102
0.185641 0.276167 -0.172268 68 1 84
-0.546950 0.199873 0.168323 72 34 115
0.579908 0.134900 0.473816 68 1 84
0.208945 -0.059974 -0.227881 68 1 84
0.314400 0.098546 -0.173209 69 53 128
0.523667 0.268096 0.240256 68 1 84
0.585942 0.101031 0.292571 67 58 131
0.279177 0.233817 -0.140594 68 2 85
0.351229 -0.315263 -0.226709 71 24 106
-0.264962 -0.346016 -0.294960 68 1 84
0.132439 -0.317935 -0.232934 68 1 84
-0.647838 -0.204459 0.500740 65 65 134
-0.153836 0.611509 -0.095560 68 1 84
-0.645777 -0.323411 0.421269 31 147 139
0.191933 0.399523 -0.150602 61 75 137
-0.583709 -0.021629 0.136280 70 45 124
-0.291841 -0.293017 -0.226239 68 1 84
-0.448471 0.318577 0.071751 68 1 84
-0.090678 0.177616 -0.299082 68 1 84
-0.636916 -0.493495 0.372497 44 177 125
0.068740 -0.057533 -0.479063 68 1 84
-0.527426 0.050525 0.016392 68 55 129
0.393610 0.287938 -0.031132 68 2 85
0.161922 0.249721 -0.209458 68 1 84
-0.119936 0.273169 -0.248019 68 1 84
-0.540900 -0.154806 -0.026718 46 107 142
0.356472 0.273312 -0.076732 72 34 115
-0.075015 0.151875 -0.309439 68 1 84
-0.341662 0.446798 0.026626 68 1 84
0.562112 0.187883 0.402049 68 1 84
0.316021 -0.468011 -0.343451 68 1 84
0.605058 0.002002 0.260250 59 81 138
-0.106807 0.427065 -0.222743 54 91 140
0.617472 0.025722 0.382488 71 22 105
0.490055 -0.228806 -0.075250 41 121 142
-0.286583 0.242008 -0.120181 68 1 84
0.520109 -0.048062 -0.043724 52 95 141
-0.474089 -0.155181 -0.118348 60 77 138
-0.471640 -0.445356 -0.130519 72 30 112
0.671903 -0.487632 0.397251 202 224 30
-0.180580 0.049410 -0.236977 68 1 84
-0.575977 -0.271217 0.055114 46 109 142
0.055755 -0.312070 -0.339072 68 1 84
0.651964 -0.345143 0.501648 42 176 126
0.606065 -0.115241 0.156203 31 162 134
0.058173 0.586770 -0.187440 51 97 141
0.416550 0.455609 0.299088 68 1 84
-0.335761 0.347745 -0.053642 72 32 113
-0.502000 -0.325942 -0.050905 41 121 142
-0.642974 -0.311773 0.351607 33 141 140
-0.158890 -0.422346 -0.381677 68 1 84
0.274883 0.434034 -0.064925 68 1 84
-0.600222 -0.403546 0.090163 31 147 139
-0.475544 -0.173949 -0.117416 59 80 138
-0.062763 0.105698 -0.314721 68 1 84
-0.366971 0.398440 0.022186 68 1 84
0.121860 0.002838 -0.368759 68 1 84
-0.561613 0.104239 0.131932 71 18 101
-0.442327 -0.277912 -0.107117 58 83 139
-0.558795 0.224782 0.278122 68 1 84
-0.429177 -0.116752 -0.156401 63 71 136
0.619904 -0.332022 0.106205 116 208 84
-0.438835 0.418669 0.251761 68 1 84
-0.639546 -0.503560 0.285598 40 174 127
-0.440770 -0.350162 -0.093337 70 14 97
0.260581 -0.386307 -0.305206 68 1 84
0.483702 0.353922 0.305211 68 1 84
0.573206 0.152476 0.314645 70 11 94
0.140611 0.538250 -0.193512 37 130 142
0.030818 0.227889 -0.308701 68 1 84
-0.082821 0.295775 -0.271135 68 1 84
-0.305070 0.496356 0.011889 69 8 91
0.484689 0.326477 0.452616 68 1 84
-0.595419 0.102961 0.259428 68 1 84
0.643068 -0.055476 0.440408 50 99 141
-0.619261 -0.362846 0.170924 35 136 141
0.586148 -0.451435 -0.009141 112 206 86
0.627458 -0.001215 0.407210 71 43 122
0.677761 -0.570440 0.431683 126 210 78
0.428259 0.105078 -0.086118 64 67 135
0.662764 -0.447040 0.385553 189 222 38
0.098525 -0.166662 -0.369061 68 1 84
-0.051497 0.046376 -0.313399 68 1 84
0.164412 0.612775 -0.074941 70 14 97
0.249108 0.562469 0.001161 70 45 124
-0.637374 -0.609257 0.279384 124 210 79
-0.307172 -0.224561 -0.210027 68 1 84
0.047103 0.551123 -0.209628 47 105 141
0.162895 0.132786 -0.253794 68 1 84
-0.586398 0.157963 0.442655 68 1 84
-0.038567 0.585397 -0.183155 56 87 140
-0.313127 0.477022 0.003945 72 32 113
-0.150758 0.131510 -0.265293 68 1 84
0.414313 0.341663 0.048840 68 3 87
-0.497707 -0.320228 -0.055287 42 119 142
-0.460924 -0.521279 -0.158736 67 60 132
0.578663 -0.353100 0.013894 61 187 116
-0.635156 -0.234303 0.245190 36 134 141
-0.631980 0.014273 0.375993 68 1 84
0.143589 0.484884 -0.202268 44 112 142
0.664282 -0.491092 0.290718 178 221 44
0.432794 0.051180 -0.111557 55 89 140
0.645833 -0.263162 0.247496 44 177 125
-0.453724 0.391645 0.348016 68 1 84
0.080918 -0.090585 -0.458265 68 1 84
0.036285 -0.140586 -0.447887 68 1 84
0.491180 0.340378 0.307058 68 1 84
0.323716 0.403794 -0.022295 68 1 84
0.341895 -0.267650 -0.200212 70 45 124
0.442741 0.413390 0.210737 68 1 84
0.024517 -0.284041 -0.357181 68 1 84
0.298960 0.467206 -0.015364 68 1 84
-0.541985 -0.558775 -0.042335 38 127 142
0.428117 -0.222928 -0.125797 40 123 142
0.477958 -0.031151 -0.092959 40 122 142
0.509630 0.301642 0.363494 68 1 84
0.446185 0.375470 0.451949 68 1 84
-0.018077 -0.326933 -0.322858 68 1 84
0.503112 -0.284950 -0.046625 43 177 125
0.126804 0.342703 -0.209268 72 25 107
-0.137669 -0.374003 -0.308128 68 1 84
-0.592547 0.007120 0.182085 70 48 125
-0.493356 0.029132 -0.057791 66 64 133
-0.003376 0.609428 -0.156103 53 93 140
0.005833 0.041880 -0.408745 68 1 84
0.656040 -0.299088 0.493591 39 173 128
-0.610980 0.087497 0.335220 68 1 84
0.608943 -0.136857 0.154431 38 172 129
-0.467079 0.340199 0.130575 68 1 84
0.519087 -0.433852 -0.119187 30 153 138
-0.628248 -0.093419 0.250010 54 90 140
0.293229 0.538264 0.085491 68 1 84
0.657479 -0.241252 0.436814 38 172 129
0.275327 -0.140175 -0.199557 69 52 127
0.609466 0.017488 0.534504 72 28 110
-0.555867 -0.083106 0.017387 55 89 140
-0.638436 -0.040598 0.323324 72 33 114
-0.609602 -0.370463 0.132462 30 157 136
-0.124301 0.561336 -0.197643 53 92 140
0.494126 -0.109951 -0.089919 39 126 142
0.060044 -0.054925 -0.483387 68 1 84
0.034885 0.365085 -0.223853 70 12 95
0.124517 -0.376500 -0.334833 68 1 84
0.446162 -0.241633 -0.105030 34 139 141
0.261015 0.158779 -0.190436 68 1 84
-0.635768 -0.479736 0.312151 54 184 119
-0.620016 -0.127873 0.213175 47 105 141
0.190934 -0.018817 -0.230963 68 1 84
0.034231 0.467586 -0.241383 60 78 138
-0.539442 0.245310 0.479227 68 1 84
0.538841 0.243738 0.365312 68 1 84
0.299438 0.430350 -0.036215 70 11 94
-0.563815 -0.044395 0.051318 59 81 138
-0.644982 -0.304078 0.371202 30 152 138
0.484253 0.324928 0.167559 68 1 84
0.150429 0.087390 -0.254485 68 1 84
-0.454087 -0.339135 -0.081463 71 44 123
0.106094 -0.345369 -0.296340 68 1 84
-0.095055 0.340219 -0.217154 68 1 84
0.269437 0.226637 -0.153354 71 15 98
-0.285451 -0.337800 -0.254913 68 1 84
0.574486 0.077099 0.195123 59 81 138
-0.316586 0.206159 -0.140533 68 1 84
-0.291908 -0.273413 -0.227365 68 1 84
0.047660 0.612520 -0.155989 55 89 140
-0.636041 -0.017654 0.337659 72 29 111
-0.627550 -0.079415 0.254127 59 80 138
-0.237236 -0.413507 -0.346259 68 1 84
0.184943 -0.000980 -0.263866 68 1 84
0.084932 -0.237631 -0.344526 68 1 84
0.594160 0.089760 0.529144 68 1 84
-0.244400 0.526730 -0.103236 66 61 132
-0.419542 0.319591 0.027325 68 1 84
-0.191719 0.198168 -0.209868 68 1 84
0.515606 -0.043247 -0.048494 47 105 141
0.341002 0.518739 0.181837 68 1 84
0.588455 0.053880 0.239749 53 92 140
0.143735 0.573785 -0.168562 45 111 142
-0.168005 0.424843 -0.183505 59 80 138
0.588730 0.078832 0.269532 66 61 132
-0.629964 -0.027655 0.495396 68 1 84
-0.640831 -0.110145 0.513890 70 14 97
-0.579416 0.184208 0.329168 68 1 84
-0.163534 0.102589 -0.254730 68 1 84
-0.443665 -0.138396 -0.146058 68 57 130
-0.567994 -0.324639 0.028248 37 130 142
-0.399771 -0.066662 -0.179907 71 37 117
0.362277 0.496600 0.167933 68 1 84
-0.569312 -0.104525 0.051467 55 88 140
-0.610599 -0.575854 0.136738 56 185 118
0.559992 -0.307924 0.000053 61 187 116
0.584752 0.120403 0.342232 72 29 111
0.424188 -0.085102 -0.150649 55 89 140
-0.624196 0.045464 0.375495 68 1 84
0.344613 0.486384 0.099994 68 1 84
-0.298835 -0.116560 -0.211176 68 1 84
0.018978 0.016161 -0.460826 68 1 84
0.372881 0.347498 -0.010526 68 57 130
0.653205 -0.310430 0.271054 61 187 116
0.142787 -0.090684 -0.320953 68 1 84
0.345643 0.122251 -0.144137 67 58 131
0.564980 -0.128884 0.009142 61 187 116
-0.225452 -0.298815 -0.234168 68 1 84
-0.347889 0.142554 -0.142612 68 1 84
-0.121657 -0.292610 -0.231259 68 1 84
-0.512855 0.288634 0.184077 68 1 84
0.542617 -0.201501 -0.030229 31 163 134
-0.066806 -0.191373 -0.297465 68 1 84
0.466187 0.322833 0.123442 68 1 84
0.323568 0.371159 -0.044320 69 5 88
0.207625 -0.129508 -0.228540 68 1 84
-0.024863 -0.313516 -0.315692 68 1 84
0.027752 -0.433748 -0.382757 68 1 84
0.552076 0.186698 0.226486 71 17 99
0.661465 -0.561373 0.226480 170 219 50
0.455666 -0.437370 -0.234850 66 64 133
0.104862 -0.007362 -0.423654 68 1 84
0.452515 -0.358828 -0.198243 55 89 140
-0.138958 0.033641 -0.259732 68 1 84
0.640521 -0.350656 0.177487 134 212 73
-0.309223 0.512697 0.055635 68 1 84
0.660088 -0.500323 0.238384 189 222 38
0.514739 0.284183 0.217351 68 1 84
0.578088 0.139889 0.472615 68 1 84
-0.589310 0.089728 0.219623 68 1 84
-0.309346 0.104223 -0.187027 68 1 84
0.398203 0.021650 -0.151853 55 89 140
-0.615509 0.074437 0.447886 68 1 84
-0.294396 0.496849 -0.017012 72 29 111
-0.207036 -0.084063 -0.239763 68 1 84
-0.216032 0.580340 -0.081479 72 29 111
-0.610650 -0.246192 0.166510 33 140 141
0.419771 -0.282463 -0.139856 56 87 140
-0.361894 0.436594 0.051792 68 1 84
-0.644870 -0.289750 0.315756 32 144 140
-0.628529 -0.398556 0.413798 30 158 136
-0.371712 0.374354 0.007285 68 1 84
-0.420413 0.254837 -0.017524 69 5 88
0.207866 0.008596 -0.218575 68 1 84
-0.437737 0.080386 -0.092782 71 24 106
-0.572278 -0.046624 0.079990 53 92 140
-0.219127 0.578011 -0.079475 72 32 113
-0.551600 0.193156 0.178505 71 39 119
-0.298973 0.529665 0.073148 68 1 84
-0.650248 -0.303960 0.430475 36 132 141
0.581004 0.129042 0.326220 72 30 112
-0.652487 -0.289134 0.448134 41 120 142
0.544138 -0.053433 -0.008651 39 173 128
-0.651684 -0.307840 0.453127 41 121 142
-0.136141 -0.339917 -0.260688 68 1 84
-0.128182 -0.232773 -0.243168 68 1 84
0.289342 -0.194339 -0.204041 69 53 128
0.103322 -0.316571 -0.284982 68 1 84
-0.197157 0.513211 -0.169534 57 85 139
-0.125109 -0.292231 -0.230827 68 1 84
-0.564301 -0.471943 0.000336 33 140 141
-0.423027 0.434266 0.276466 68 1 84
0.448677 -0.060933 -0.127926 50 99 141
-0.141610 -0.032823 -0.312913 68 1 84
-0.411306 0.256572 -0.029608 68 1 84
0.611479 -0.119475 0.180285 34 139 141
-0.253551 0.290621 -0.118951 68 1 84
-0.483899 -0.211293 -0.103685 57 85 139
0.619264 -0.148388 0.195174 32 164 133
-0.099947 0.094062 -0.289964 68 1 84
-0.533902 0.022237 0.009683 60 77 138
-0.323453 0.173761 -0.150383 68 1 84
0.294353 0.496448 0.000613 70 12 95
-0.502056 0.226655 0.080258 68 1 84
-0.604469 -0.485091 0.103032 30 158 136
-0.470763 -0.128948 -0.120325 62 72 136
-0.651104 -0.259188 0.438387 44 114 142
0.176386 0.425940 -0.162339 64 68 135
-0.307590 0.373364 -0.063174 71 15 98
0.297813 0.129603 -0.170868 72 32 113
0.597139 0.019812 0.243146 46 109 142
0.086810 0.430577 -0.229156 52 94 141
-0.650871 -0.082927 0.368548 63 71 136
0.269381 0.222793 -0.156770 70 14 97
0.146318 0.153758 -0.268331 68 1 84
-0.083902 0.556894 -0.212162 65 66 134
0.437811 0.367108 0.117255 68 1 84
0.035475 -0.178876 -0.418502 68 1 84
-0.565786 0.058949 0.116112 72 28 110
0.299253 0.494989 0.009814 68 1 84
-0.633878 -0.011463 0.331561 71 38 118
0.542144 -0.209663 -0.029136 51 182 121
0.651862 -0.238377 0.510222 64 189 114
-0.645576 -0.049988 0.374869 71 42 121
0.115642 -0.230675 -0.283364 68 1 84
-0.195170 0.353249 -0.160816 69 6 90
0.452032 -0.380266 -0.215315 59 80 138
0.033910 0.548726 -0.208348 56 87 140
-0.339977 -0.081883 -0.207599 68 1 84
-0.575374 0.159189 0.234364 68 1 84
-0.126687 -0.262709 -0.236770 68 1 84
-0.627477 -0.394265 0.374210 30 153 138
-0.439453 0.089135 -0.085045 70 14 97
-0.116619 -0.366642 -0.295488 68 1 84
-0.338923 0.417646 -0.003650 68 2 85
-0.158846 0.223427 -0.212675 68 1 84
0.425960 0.318915 0.047003 70 14 97
0.536439 -0.238326 -0.029425 43 177 125
0.621093 -0.489296 0.065623 136 213 71
-0.630825 -0.148235 0.238350 53 93 140
0.176409 0.555787 -0.153210 66 61 132
0.604838 -0.006343 0.249875 46 109 142
-0.052920 0.145822 -0.318714 68 1 84
-0.309682 0.042759 -0.208638 68 1 84
0.460679 0.390866 0.310936 68 1 84
-0.485432 0.145234 0.009781 72 26 108
0.399912 -0.171962 -0.157086 52 94 141
0.441776 0.410853 0.358823 68 1 84
-0.516504 0.247218 0.128726 70 11 94
-0.234584 -0.375255 -0.314844 68 1 84
0.644545 -0.360860 0.192359 139 213 70
0.522352 -0.441399 -0.115369 31 161 135
-0.461916 0.364780 0.158199 68 1 84
0.217789 -0.219911 -0.216882 68 1 84
0.578959 0.132747 0.313174 66 62 133
0.525764 0.169161 0.111777 71 43 122
0.157002 0.294181 -0.213373 68 1 84
-0.256288 -0.202454 -0.218326 68 1 84
-0.547984 0.140620 0.117133 71 21 103
0.591494 0.103479 0.437446 70 14 97
-0.631775 -0.407579 0.319449 31 163 134
0.266787 0.063424 -0.198542 68 1 84
0.078598 -0.312156 -0.322911 68 1 84
-0.518486 0.236599 0.121435 68 1 84
0.600926 -0.168469 0.100716 33 166 133
-0.311281 0.436855 -0.030914 71 39 119
0.434352 0.428970 0.318781 68 1 84
-0.049497 0.328553 -0.247884 68 1 84
0.652226 -0.308887 0.450648 68 190 112
0.628636 -0.303320 0.155090 112 206 86
-0.162277 -0.225111 -0.234092 68 1 84
0.643848 -0.219496 0.254504 34 167 132
0.480641 0.351662 0.353433 68 1 84
0.391214 0.470863 0.178512 68 1 84
0.160697 0.320323 -0.197013 68 1 84
0.652766 -0.229044 0.488394 32 165 133
-0.151395 0.136055 -0.265139 68 1 84
0.332322 0.297289 -0.078993 68 1 84
-0.473958 -0.101792 -0.115419 64 68 135
0.343484 0.367666 -0.027484 68 1 84
0.533680 0.247208 0.255540 68 1 84
-0.423811 0.317955 0.032724 68 1 84
-0.581751 -0.015578 0.130996 69 54 129
0.654788 -0.417626 0.232847 181 221 43
-0.094341 0.165997 -0.298290 68 1 84
0.659457 -0.558457 0.214749 165 218 53
-0.346099 0.351342 -0.042101 71 42 121
0.630642 -0.052267 0.504618 62 72 136
-0.228155 0.026366 -0.227341 68 1 84
-0.289726 0.487285 -0.038180 71 17 99
0.411489 0.099150 -0.105167 61 74 137
0.449678 0.260731 0.041802 68 1 84
-0.056685 -0.076953 -0.428173 68 1 84
-0.112484 0.002678 -0.320432 68 1 84
0.564807 -0.335942 -0.000288 57 185 118
0.338709 -0.136253 -0.181518 56 86 139
-0.562801 0.192806 0.506475 68 1 84
0.209497 -0.424230 -0.365663 68 1 84
0.403835 -0.311694 -0.189161 69 52 127
0.174669 -0.050896 -0.267392 68 1 84
0.564768 0.181247 0.359870 67 60 132
0.527825 0.260147 0.250184 68 1 84
-0.530674 -0.053137 -0.027808 62 72 136
0.631953 -0.106318 0.269805 33 140 141
0.099299 -0.397745 -0.359391 68 1 84
0.422573 0.429173 0.174674 68 1 84
-0.160922 0.252951 -0.200911 68 1 84
-0.069395 -0.089741 -0.390448 68 1 84
0.554551 -0.348278 -0.015899 51 182 121
-0.365303 -0.123200 -0.191372 72 34 115
0.404755 0.446893 0.373909 68 1 84
-0.565587 0.169540 0.202857 70 47 124
0.121789 0.208712 -0.280449 68 1 84
0.050297 -0.221698 -0.388798 68 1 84
-0.561967 0.182405 0.204427 71 20 102
-0.147073 -0.305476 -0.227822 68 1 84
0.470612 0.092156 -0.043132 61 76 137
0.668326 -0.457039 0.368463 212 225 26
-0.132981 0.234992 -0.232050 68 1 84
0.557811 0.191742 0.501445 68 1 84
0.083322 -0.216720 -0.361369 68 1 84
-0.159244 -0.397747 -0.352736 68 1 84
-0.294527 0.408304 -0.062174 68 1 84
-0.506171 0.240307 0.098598 68 1 84
-0.219884 0.574867 -0.084946 71 39 119
-0.196146 0.087434 -0.236361 68 1 84
-0.441921 0.145858 -0.046192 68 1 84
0.421611 -0.025516 -0.147052 44 112 142
-0.067950 -0.311052 -0.254150 68 1 84
0.571001 -0.135249 0.020786 50 181 122
-0.494762 -0.383000 -0.062471 69 50 127
-0.023170 0.247326 -0.289858 68 1 84
0.219158 -0.101110 -0.225291 68 1 84
0.250689 0.243256 -0.139107 72 35 116
-0.190171 0.520387 -0.174061 49 100 141
-0.432344 -0.164749 -0.154839 63 69 135
-0.088061 -0.000649 -0.301013 68 1 84
0.437979 -0.287080 -0.111998 47 105 141
-0.503564 -0.556621 -0.099358 50 99 141
-0.625623 -0.446970 0.364265 43 177 125
-0.566795 -0.577688 0.005609 35 136 141
-0.639953 -0.364799 0.456835 40 122 142
0.603207 0.032793 0.545213 69 8 91
0.514231 0.280086 0.451513 68 1 84
-0.408219 0.447791 0.282576 68 1 84
-0.647913 -0.241358 0.456305 46 107 142
-0.068361 -0.111995 -0.357542 68 1 84
-0.160802 0.243918 -0.199708 68 1 84
0.478270 0.355060 0.356417 68 1 84
0.103834 -0.429033 -0.376775 68 1 84
0.649947 -0.132890 0.327751 47 106 141
0.448932 0.373943 0.446981 68 1 84
0.033321 -0.329293 -0.339789 68 1 84
0.617982 -0.012572 0.302025 39 124 142
-0.455605 -0.515023 -0.165887 68 57 130
-0.046052 0.124774 -0.322590 68 1 84
-0.216720 -0.301828 -0.234354 68 1 84
0.060668 0.617830 -0.144802 64 68 135
-0.648730 -0.108264 0.321162 56 87 140
0.039039 -0.327868 -0.338971 68 1 84
0.621899 -0.010123 0.326894 45 110 142
0.674544 -0.551573 0.384102 253 231 36
-0.631940 -0.366236 0.400217 30 156 137
-0.146494 0.167990 -0.266093 68 1 84
-0.060602 0.311485 -0.271258 68 1 84
0.430381 0.041895 -0.118505 49 102 141
0.387644 0.043545 -0.150934 53 92 140
0.043441 0.510064 -0.226905 54 91 140
-0.549821 0.067402 0.075534 72 30 112
-0.445734 0.395821 0.172281 68 1 84
-0.564409 0.008619 0.080352 67 58 131
0.160323 -0.131469 -0.265754 68 1 84
0.244143 -0.132339 -0.214059 68 1 84
-0.597105 -0.498859 0.081977 30 157 136
0.589061 -0.507118 -0.015055 94 201 97
-0.175772 0.396440 -0.170353 59 81 138
0.666206 -0.485701 0.306898 199 224 31
-0.528331 0.122288 0.063100 72 29 111
-0.152763 -0.139909 -0.252953 68 1 84
0.194046 0.308563 -0.162980 68 1 84
-0.091939 0.023428 -0.292910 68 1 84
-0.165205 0.610815 -0.073274 70 11 94
-0.569511 0.176235 0.230623 68 1 84
-0.258256 0.560360 0.039084 68 1 84
0.376471 -0.035260 -0.177237 50 98 141
0.247757 -0.397880 -0.322820 68 1 84
0.640102 -0.161599 0.265522 30 158 136
-0.160114 0.424979 -0.188635 49 100 141
0.459048 0.237481 0.041218 71 21 103
-0.127058 0.328691 -0.208076 68 1 84
-0.471650 0.334780 0.133560 68 1 84
-0.508749 -0.172909 -0.077040 46 108 142
0.339370 0.028466 -0.184881 62 73 137
0.246679 0.231109 -0.160543 69 6 90
-0.008278 0.610519 -0.154051 49 101 141
0.470220 0.366138 0.367173 68 1 84
-0.444634 0.405559 0.326183 68 1 84
0.516367 -0.070881 -0.054438 42 118 142
0.495512 -0.457103 -0.167136 60 78 138
-0.135219 0.024018 -0.285167 68 1 84
-0.039859 0.390489 -0.231505 71 43 122
-0.227626 0.091906 -0.223091 68 1 84
0.429415 0.279142 0.020111 68 1 84
-0.024904 0.202783 -0.312796 68 1 84
0.460241 0.082982 -0.062405 50 98 141
-0.242197 0.034078 -0.225089 68 1 84
0.513531 0.191386 0.102164 68 1 84
-0.473939 -0.267020 -0.092078 53 93 140
-0.632209 -0.381147 0.428503 30 156 137
-0.457008 0.146017 -0.027330 68 1 84
-0.198564 0.215309 -0.156646 68 1 84
0.651442 -0.291068 0.266240 79 195 105
-0.398536 0.403137 0.077218 68 1 84
0.652231 -0.324913 0.256936 116 208 84
-0.536771 -0.112986 -0.029592 60 78 138
-0.120519 0.294441 -0.240581 68 1 84
0.570068 0.165620 0.418082 68 1 84
-0.577906 -0.332335 0.048329 42 119 142
0.655176 -0.252321 0.502537 68 190 112
0.603879 0.069530 0.409248 69 8 91
0.223343 -0.074572 -0.224313 68 1 84
-0.223174 -0.190877 -0.220192 68 1 84
-0.621307 -0.504770 0.177008 42 176 126
0.158538 0.585475 -0.143499 69 54 129
-0.308496 -0.472881 -0.344322 68 1 84
-0.455326 -0.426408 -0.149896 71 17 99
-0.136294 -0.359157 -0.285271 68 1 84
0.422100 -0.345391 -0.224528 70 48 125
0.455329 0.245893 0.040827 70 9 92
0.477025 -0.329692 -0.090194 33 141 140
0.245067 -0.220102 -0.212541 70 9 92
-0.623849 0.043716 0.437365 68 1 84
0.577957 0.110033 0.253989 60 77 138
-0.591372 -0.003745 0.172712 71 37 117
0.113012 -0.140568 -0.355029 68 1 84
-0.613196 0.065931 0.497908 68 1 84
0.203321 -0.445223 -0.375141 68 1 84
-0.283923 -0.243744 -0.224251 68 1 84
-0.611003 -0.182610 0.173397 39 125 142
-0.566658 0.047606 0.112285 68 55 129
-0.538039 -0.111478 -0.027086 60 78 138
-0.138704 0.563204 -0.188407 49 100 141
0.624397 0.000416 0.465625 58 82 139
-0.221577 0.530839 -0.135245 63 69 135
0.218823 0.430070 -0.125532 66 64 133
-0.146281 -0.300461 -0.228288 68 1 84
0.221092 0.571789 -0.063717 70 12 95
-0.454649 0.161411 -0.021447 68 1 84
0.652765 -0.441209 0.215174 154 216 60
0.548153 0.213555 0.478648 68 1 84
-0.293560 0.542166 0.130188 68 1 84
0.619281 -0.411932 0.074974 129 211 76
-0.614802 -0.071402 0.219314 65 65 134
-0.306548 0.394332 -0.054614 72 25 107
0.361618 0.042488 -0.168468 55 88 140
0.098271 0.318540 -0.254476 68 1 84
-0.531964 -0.030817 -0.020537 60 78 138
-0.634732 -0.264447 0.248824 35 135 141
0.217446 0.459891 -0.127195 49 101 141
0.140456 0.454046 -0.199687 41 121 142
0.427408 0.428926 0.363031 68 1 84
0.246937 0.566962 0.008293 72 25 107
0.414092 0.275876 -0.008904 68 1 84
-0.637704 -0.334000 0.381422 32 143 140
0.566421 -0.434134 -0.037778 73 193 109
-0.259035 0.415525 -0.099977 70 9 92
0.616723 -0.467140 0.057500 83 197 103
-0.271007 0.369915 -0.096884 68 1 84
0.581081 -0.005413 0.127049 39 125 142
0.291136 0.332350 -0.084723 70 9 92
0.595064 0.026274 0.240839 48 103 141
0.113276 0.001679 -0.372039 68 1 84
-0.151288 0.139733 -0.265335 68 1 84
0.590358 -0.144209 0.070239 40 174 127
-0.135983 -0.360592 -0.287226 68 1 84
-0.556534 0.212733 0.232701 68 1 84
-0.533052 -0.553983 -0.056843 42 117 142
-0.135136 0.116998 -0.273294 68 1 84
-0.547961 -0.556378 -0.030712 42 117 142
0.283541 0.288498 -0.095995 71 17 99
0.387170 0.456261 0.138576 68 1 84
0.650444 -0.089843 0.441302 53 92 140
-0.004767 0.443142 -0.245406 43 116 142
-0.650176 -0.088525 0.350240 62 72 136
-0.188282 -0.002026 -0.233979 68 1 84
0.196494 -0.162099 -0.231122 68 1 84
0.574925 0.150106 0.337307 71 17 99
-0.106652 -0.105836 -0.290211 68 1 84
0.404624 0.440087 0.149465 68 1 84
-0.453371 0.007524 -0.121229 71 44 123
-0.593214 0.148354 0.397970 68 1 84
-0.626863 -0.447965 0.385936 35 169 130
-0.020550 -0.162807 -0.403598 68 1 84
0.578366 -0.206482 0.026282 40 174 127
0.671897 -0.574675 0.318398 154 216 60
-0.595038 0.104336 0.518089 68 1 84
0.575320 0.037723 0.149091 55 89 140
0.651807 -0.562721 0.167210 96 201 96
0.621340 -0.296703 0.129216 100 203 93
0.647216 -0.201880 0.492734 32 165 133
-0.417579 -0.367043 -0.161459 68 1 84
0.105467 0.148995 -0.298780 68 1 84
-0.568704 -0.010249 0.084728 62 72 136
0.485079 -0.343040 -0.096783 31 147 139
-0.381113 0.466294 0.131261 68 1 84
0.200008 0.039015 -0.218474 68 1 84
-0.475890 0.363307 0.222903 68 1 84
-0.592804 0.123016 0.274256 68 1 84
0.220407 0.244556 -0.145059 71 15 98
0.214974 0.591325 -0.025220 68 1 84
-0.186524 -0.268318 -0.235994 68 1 84
0.562142 -0.149916 -0.000820 91 200 98
0.327914 0.164261 -0.137632 71 39 119
-0.641115 -0.244293 0.272565 37 131 141
0.545913 0.067716 0.066657 50 98 141
-0.463665 0.388987 0.294347 68 1 84
0.662756 -0.224574 0.388336 42 176 126
-0.455452 0.317125 0.080796 68 1 84
-0.368244 -0.246394 -0.173463 68 1 84
0.516179 0.291438 0.307468 68 1 84
0.473942 0.362712 0.212468 68 1 84
0.245361 -0.365779 -0.281902 68 1 84
0.278970 0.560239 0.172255 68 1 84
0.510217 -0.333017 -0.050368 36 170 130
0.352670 -0.189479 -0.184157 60 78 138
0.169789 0.494938 -0.181098 46 108 142
-0.460202 0.392610 0.277591 68 1 84
-0.046041 -0.359928 -0.325240 68 1 84
-0.169176 -0.085580 -0.247525 68 1 84
0.087005 0.290062 -0.276206 68 1 84
-0.553386 0.218052 0.227852 68 1 84
-0.175226 -0.131229 -0.244410 68 1 84
0.375861 0.287142 -0.052860 71 24 106
-0.638530 -0.331410 0.313213 31 150 139
-0.019345 0.305879 -0.287979 68 1 84
0.210315 -0.293267 -0.205192 68 1 84
0.273010 0.270457 -0.104354 68 1 84
-0.546325 -0.215112 -0.011949 41 121 142
-0.474523 0.184657 0.016837 71 18 101
0.008302 0.047104 -0.393478 68 1 84
0.097015 -0.252115 -0.305798 68 1 84
0.173443 -0.338531 -0.233894 68 1 84
-0.082245 0.322730 -0.242286 68 1 84
0.456097 -0.329482 -0.138335 49 101 141
-0.359876 0.493306 0.139864 68 1 84
-0.189924 0.204863 -0.201980 68 1 84
0.639074 -0.167137 0.551103 37 131 141
-0.083946 -0.004683 -0.302888 68 1 84
-0.471519 -0.093829 -0.117708 65 66 134
-0.435512 0.063778 -0.106182 71 20 102
0.051581 0.148265 -0.320217 68 1 84
0.241784 0.370619 -0.122151 70 14 97
0.355325 0.506313 0.179376 68 1 84
-0.636965 -0.528070 0.269226 85 198 102
0.006115 0.145429 -0.322313 68 1 84
0.655928 -0.315868 0.376322 89 199 100
-0.195967 -0.138609 -0.235639 68 1 84
0.119187 -0.115846 -0.361163 68 1 84
0.240870 -0.095380 -0.218300 72 35 116
-0.645248 -0.316159 0.411684 33 140 141
0.448520 -0.464008 -0.246677 67 59 131
-0.071992 0.425594 -0.236386 54 91 140
-0.640081 -0.148627 0.267965 53 93 140
0.360398 0.190817 -0.101499 71 37 117
0.411271 0.457103 0.209550 68 1 84
0.080519 0.024750 -0.326356 68 1 84
0.651367 -0.423416 0.208643 181 221 43
0.559846 0.193053 0.338380 72 30 112
0.654381 -0.236141 0.476330 42 176 126
0.619611 0.022511 0.405674 67 58 131
-0.518559 -0.158080 -0.063114 50 98 141
0.447409 -0.211727 -0.113152 38 129 142
0.213233 -0.184115 -0.221320 68 1 84
-0.190274 0.363034 -0.162513 71 24 106
-0.639156 -0.602092 0.299306 144 214 67
-0.579707 -0.150999 0.078027 48 104 141
-0.024830 0.017277 -0.351339 68 1 84
0.103888 0.049594 -0.298929 68 1 84
-0.132750 -0.390068 -0.346261 68 1 84
0.465265 -0.367040 -0.184879 52 94 141
0.426800 -0.328493 -0.195562 69 50 127
0.114352 0.583080 -0.178741 49 102 141
-0.203721 0.533756 -0.155769 57 84 139
-0.403190 0.398359 0.080055 68 1 84
0.597184 0.070543 0.311561 61 75 137
0.213578 -0.205211 -0.219618 68 1 84
-0.578521 -0.486974 0.030102 31 147 139
0.665789 -0.413057 0.336355 183 221 41
-0.194007 0.084804 -0.236905 68 1 84
0.117541 -0.112597 -0.368841 68 1 84
-0.639963 -0.051021 0.320870 71 40 120
-0.530551 -0.166639 -0.044702 42 118 142
0.482282 0.319489 0.153372 68 1 84
-0.632956 -0.515768 0.233241 62 188 115
-0.639506 -0.604990 0.311349 149 215 63
0.013951 -0.226211 -0.388206 68 1 84
-0.657095 -0.168829 0.338684 52 94 141
0.640864 -0.044016 0.423238 44 112 142
-0.331812 0.516553 0.128221 68 1 84
0.505387 0.063132 -0.013636 48 103 141
0.106004 0.552262 -0.204317 46 108 142
-0.528565 -0.200690 -0.045404 39 126 142
-0.627593 -0.543443 0.217387 73 193 109
0.556027 -0.448897 -0.059802 59 186 117
0.108977 0.553081 -0.202870 45 110 142
0.546360 0.015200 0.027073 32 144 140
0.456484 -0.442979 -0.235287 61 74 137
-0.621785 -0.025127 0.264371 72 29 111
-0.505034 0.272966 0.131058 68 1 84
0.277043 0.202373 -0.164585 71 15 98
-0.231483 -0.119673 -0.226358 68 1 84
0.318273 0.146296 -0.152033 70 11 94
0.598985 0.075869 0.348332 64 67 135
0.545516 -0.360310 -0.034102 46 178 124
-0.595843 -0.091404 0.153656 58 83 139
0.032121 -0.413195 -0.376438 68 1 84
-0.560011 -0.384319 0.005126 42 119 142
-0.549195 0.237757 0.448348 68 1 84
0.580230 0.068753 0.217930 60 77 138
-0.291810 0.095065 -0.198683 68 1 84
-0.631637 -0.433468 0.312054 31 163 134
-0.645360 -0.049659 0.406902 70 47 124
-0.436646 -0.067325 -0.151839 67 58 131
0.110062 0.544702 -0.206583 42 118 142
-0.573153 0.173115 0.244058 68 1 84
0.251535 0.567211 0.029445 68 1 84
-0.211356 0.066372 -0.227879 68 1 84
0.573322 -0.127246 0.028280 37 171 129
-0.484993 -0.337146 -0.062084 61 75 137
-0.109307 0.046996 -0.281135 68 1 84
0.216706 0.244136 -0.148341 68 1 84
0.434839 0.424741 0.338482 68 1 84
0.290924 0.378624 -0.070072 68 1 84
0.012725 -0.029188 -0.488231 68 1 84
-0.388098 -0.192826 -0.170279 71 21 103
0.156052 0.027536 -0.298258 68 1 84
-0.112950 0.448784 -0.226990 40 123 142
0.636820 -0.055014 0.477586 56 87 140
0.652861 -0.291951 0.275585 43 177 125
0.520015 0.145299 0.075882 70 49 126
0.614249 0.026588 0.348066 71 40 120
0.395365 -0.064154 -0.167333 49 102 141
-0.645310 -0.521398 0.337719 75 194 108
-0.347537 0.371450 -0.025486 72 25 107
0.630927 -0.515218 0.086052 189 222 38
-0.376779 0.478588 0.150705 68 1 84
-0.612781 -0.222198 0.173907 33 140 141
-0.051514 0.240402 -0.287405 68 1 84
0.651659 -0.231375 0.289437 40 174 127
0.145193 -0.268102 -0.238419 68 1 84
0.641401 -0.324393 0.199798 89 199 100
-0.044182 0.607643 -0.158619 65 66 134
-0.191840 -0.153096 -0.233408 68 1 84
0.534902 -0.411714 -0.081838 33 167 132
-0.163997 -0.281290 -0.233821 68 1 84
0.093273 -0.172192 -0.376250 68 1 84
0.150368 0.308735 -0.214587 68 1 84
-0.585297 -0.115233 0.106482 49 100 141
-0.635611 -0.042161 0.476963 70 14 97
-0.508930 0.028222 -0.033297 69 52 127
0.313474 0.213672 -0.129403 71 37 117
0.651556 -0.401199 0.214836 149 215 63
-0.064690 0.053372 -0.306115 68 1 84
0.457324 0.350062 0.135800 68 1 84
-0.516797 0.026822 -0.020574 67 58 131
-0.492714 -0.131952 -0.096565 62 73 137
0.292233 0.511195 0.016624 71 44 123
-0.614135 -0.583733 0.151371 59 186 117
-0.014036 0.576481 -0.189069 56 86 139
0.076027 -0.295115 -0.330422 68 1 84
-0.536438 0.252017 0.473573 68 1 84
0.129258 0.056538 -0.279169 68 1 84
-0.410266 -0.186972 -0.162877 71 38 118
-0.037107 0.594837 -0.173394 58 82 139
-0.206062 0.230418 -0.140770 68 1 84
-0.565061 -0.138670 0.033105 49 101 141
-0.631990 -0.013411 0.470731 68 1 84
-0.468908 -0.012964 -0.111255 69 52 127
0.658248 -0.297196 0.344261 35 169 130
-0.045108 0.574979 -0.193903 64 67 135
-0.147160 -0.421439 -0.383428 68 1 84
-0.651390 -0.304659 0.438547 37 131 141
-0.025758 -0.366085 -0.342819 68 1 84
-0.088279 -0.152660 -0.291809 68 1 84
0.523579 -0.009957 -0.027343 39 125 142
-0.490325 0.286910 0.113443 68 1 84
0.531932 0.253787 0.414309 68 1 84
0.570127 0.163539 0.448944 69 5 88
-0.162556 0.262607 -0.199728 68 1 84
-0.631607 -0.447173 0.313886 35 168 131
-0.616317 -0.313890 0.175258 42 119 142
0.066765 0.165049 -0.315017 68 1 84
-0.601880 -0.268036 0.136269 36 133 141
0.493081 0.322537 0.405603 68 1 84
0.130411 -0.104710 -0.337347 68 1 84
0.055902 -0.214877 -0.390148 68 1 84
0.658649 -0.261886 0.332843 35 169 130
0.233806 -0.439059 -0.365154 68 1 84
-0.420929 0.225220 -0.033156 68 1 84
-0.401428 0.423549 0.105988 68 1 84
-0.240532 -0.367581 -0.309091 68 1 84
0.303585 0.339528 -0.074836 72 26 108
0.666001 -0.432910 0.360329 207 225 28
0.129154 0.219859 -0.271750 68 1 84
-0.362532 0.025948 -0.184912 68 1 84
0.364500 0.499568 0.183662 68 1 84
0.136099 0.614216 -0.107836 63 71 136
-0.243252 -0.480134 -0.377541 68 1 84
0.261470 -0.172729 -0.204757 70 9 92
-0.535796 0.250284 0.206173 68 1 84
-0.251807 0.274230 -0.117203 68 1 84
0.537631 0.080061 0.057454 66 64 133
-0.642775 -0.587796 0.355042 124 210 79
-0.582666 0.056842 0.174554 72 34 115
-0.659040 -0.135572 0.389773 67 60 132
-0.537822 0.018937 0.015707 59 81 138
0.580493 -0.023028 0.107281 30 152 138
0.111842 -0.312095 -0.265064 68 1 84
-0.131322 -0.404121 -0.371253 68 1 84
-0.139398 0.143115 -0.272916 68 1 84
-0.537135 0.090881 0.061975 72 30 112
0.648978 -0.379059 0.406184 183 221 41
0.349412 -0.195894 -0.186277 65 65 134
0.607809 0.057653 0.433724 72 32 113
-0.601624 0.088548 0.274123 68 1 84
-0.274834 0.499742 -0.061532 72 29 111
-0.076326 -0.013552 -0.345009 68 1 84
0.540237 -0.328746 -0.023264 51 182 121
-0.603124 -0.445919 0.093950 30 158 136
0.609964 -0.234922 0.114227 68 190 112
0.514750 0.188409 0.102322 71 18 101
-0.086846 -0.263628 -0.256338 68 1 84
-0.264030 -0.453697 -0.361549 68 1 84
-0.612760 -0.199279 0.175767 36 134 141
-0.622931 0.045338 0.446624 68 1 84
-0.582384 -0.304855 0.065647 44 114 142
0.365651 -0.082046 -0.180805 63 69 135
-0.425105 0.067778 -0.114218 71 17 99
-0.364704 0.087804 -0.156008 68 1 84
0.557250 0.055914 0.090609 50 99 141
0.354576 -0.173241 -0.180578 58 83 139
-0.227705 -0.121169 -0.226905 68 1 84
0.449193 -0.443085 -0.245171 66 62 133
0.660478 -0.388507 0.326400 119 208 82
0.637926 -0.106641 0.506778 44 112 142
0.655577 -0.269000 0.305115 41 175 127
-0.648895 -0.100737 0.327563 60 78 138
0.113507 -0.195491 -0.301930 68 1 84
-0.542583 0.233655 0.206175 68 1 84
0.473981 0.363939 0.217406 68 1 84
0.326940 -0.179807 -0.192350 58 83 139
-0.610725 0.047246 0.514822 68 1 84
-0.484633 0.012464 -0.080514 64 68 135
0.150877 0.323012 -0.205054 68 1 84
0.554112 0.055538 0.080144 60 77 138
-0.553922 0.029507 0.062071 69 54 129
0.183118 0.288843 -0.178080 70 12 95
0.368666 0.332214 -0.029235 68 3 87
-0.341064 0.503115 0.112726 68 1 84
-0.268372 -0.203501 -0.216345 68 1 84
-0.600939 0.071554 0.251852 68 1 84
0.617757 -0.273316 0.127521 94 201 97
-0.410246 0.255896 -0.031542 68 1 84
0.525031 0.272474 0.297338 68 1 84
-0.053638 -0.415435 -0.388178 68 1 84
0.673022 -0.575428 0.336872 186 222 39
-0.611140 -0.040530 0.220596 70 45 124
-0.551626 -0.209195 -0.001310 42 117 142
0.316760 -0.213972 -0.200606 68 55 129
-0.636487 -0.038399 0.467912 71 21 103
0.508146 0.159659 0.065640 71 39 119
0.655871 -0.259684 0.456810 66 190 113
0.610369 -0.006074 0.274755 60 77 138
0.659175 -0.258145 0.337846 30 156 137
-0.098361 0.506775 -0.230813 53 92 140
0.531740 -0.123355 -0.045529 61 187 116
0.141011 -0.427663 -0.376558 68 1 84
-0.436605 0.417519 0.206726 68 1 84
-0.638933 -0.115964 0.275154 53 93 140
0.277182 -0.328101 -0.237943 68 1 84
-0.651846 -0.187493 0.441933 51 97 141
0.588987 -0.125551 0.073056 30 154 137
0.193659 0.606462 0.025688 68 1 84
0.643271 -0.475170 0.153574 178 221 44
-0.395799 0.336418 0.005532 68 1 84
-0.056802 -0.394357 -0.371118 68 1 84
-0.306676 0.476694 -0.012063 68 3 87
-0.416838 0.064336 -0.124497 72 29 111
0.354889 -0.301135 -0.206455 71 40 120
0.399734 -0.435308 -0.289928 70 12 95
-0.608633 -0.258127 0.159561 35 136 141
-0.273154 -0.338267 -0.267187 68 1 84
0.547331 -0.195464 -0.024754 30 153 138
-0.626998 -0.457628 0.379149 38 172 129
0.589004 0.109848 0.494019 71 18 101
-0.105327 0.464422 -0.232771 49 102 141
0.477525 0.056617 -0.057896 53 92 140
-0.086258 0.330919 -0.229843 68 1 84
0.486622 -0.081101 -0.091845 45 110 142
-0.615392 0.077246 0.359237 68 1 84
0.227473 0.120834 -0.212067 68 1 84
-0.474109 0.153444 -0.000757 68 1 84
-0.316922 0.281422 -0.100820 68 1 84
0.451391 -0.257435 -0.095843 33 140 141
-0.035958 0.224933 -0.306032 68 1 84
-0.570710 0.070424 0.138993 72 33 114
-0.609923 -0.589188 0.134885 53 183 120
-0.431599 0.105986 -0.082212 68 1 84
-0.443306 0.195240 -0.018710 70 12 95
0.466071 0.291311 0.093056 68 1 84
-0.632269 -0.411731 0.237807 30 156 137
0.214160 -0.225417 -0.216564 68 1 84
0.248630 0.574954 0.067835 68 1 84
-0.493089 -0.461012 -0.102016 69 54 129
0.280639 0.409105 -0.069722 69 6 90
0.084994 -0.414664 -0.371397 68 1 84
0.552404 -0.076530 -0.000517 30 158 136
-0.597476 -0.171021 0.136875 44 112 142
-0.504452 -0.167815 -0.082883 52 94 141
-0.393778 0.317828 -0.013126 68 1 84
0.383387 0.350300 0.006773 68 1 84
0.240605 0.579002 0.042412 68 1 84
0.487281 -0.502711 -0.180245 61 76 137
-0.533915 -0.094774 -0.031443 59 81 138
0.473173 0.331814 0.147892 68 1 84
-0.127051 -0.076238 -0.278526 68 1 84
0.376208 0.379896 0.028134 68 1 84
-0.369317 0.463813 0.100686 68 1 84
0.580047 -0.130971 0.044304 33 167 132
0.658937 -0.445052 0.474145 121 209 81
-0.029562 -0.283812 -0.316452 68 1 84
-0.638239 -0.483450 0.265230 43 177 125
0.187755 -0.341120 -0.239937 68 1 84
-0.607225 -0.055455 0.202437 67 58 131
0.678106 -0.575666 0.406290 159 217 56
0.299011 0.212021 -0.142187 68 3 87
0.560002 -0.011481 0.045065 40 123 142
-0.650288 -0.233141 0.309853 39 126 142
-0.639811 -0.622799 0.327213 105 204 91
-0.571565 -0.069193 0.069416 46 107 142
0.459096 -0.079339 -0.120658 40 122 142
-0.525997 0.285003 0.239794 68 1 84
-0.459832 -0.202091 -0.129199 57 85 139
-0.220635 -0.198069 -0.222192 68 1 84
0.662317 -0.171857 0.389358 32 164 133
-0.639629 -0.516416 0.283673 50 181 122
0.057537 0.024592 -0.433976 68 1 84
0.548075 -0.235619 -0.017077 35 169 130
0.202165 0.302380 -0.153999 68 1 84
0.311787 0.540482 0.196906 68 1 84
0.090944 0.042399 -0.310901 68 1 84
0.148671 -0.154639 -0.272929 68 1 84
-0.569596 -0.112804 0.050825 53 93 140
0.175357 0.268983 -0.186494 69 6 90
0.570926 -0.326892 0.009434 68 190 112
0.560239 -0.384816 -0.028643 69 191 111
0.159784 -0.224548 -0.245229 68 1 84
0.417359 0.222788 -0.032259 62 72 136
0.192903 0.007149 -0.226367 68 1 84
-0.507396 0.311965 0.410401 68 1 84
-0.450717 -0.187032 -0.139175 61 76 137
-0.459516 0.331355 0.103279 68 1 84
-0.120368 -0.014963 -0.346636 68 1 84
-0.599404 0.101309 0.278070 68 1 84
0.008978 -0.300649 -0.345813 68 1 84
-0.549260 -0.151972 -0.008722 45 111 142
0.528418 -0.416594 -0.094804 30 154 137
-0.580239 0.037911 0.154451 72 33 114
0.020401 0.084141 -0.338929 68 1 84
0.619080 -0.010719 0.525638 69 50 127
-0.502288 0.273640 0.124380 68 1 84
-0.339894 0.116401 -0.160808 68 1 84
-0.628653 -0.423973 0.335617 31 163 134
0.402701 0.462819 0.326498 68 1 84
-0.551540 0.202658 0.191809 72 25 107
0.563240 0.158279 0.247610 69 50 127
0.037530 0.374022 -0.223998 71 43 122
0.420911 0.431800 0.371260 68 1 84
-0.110153 -0.073378 -0.325528 68 1 84
-0.477333 0.349373 0.181504 68 1 84
-0.537593 -0.166894 -0.032517 40 123 142
-0.500082 -0.459817 -0.091312 60 78 138
-0.550357 -0.292751 0.002627 45 111 142
0.556370 -0.498991 -0.070496 32 165 133
0.272028 0.314570 -0.097550 68 1 84
0.499866 0.043249 -0.035394 48 103 141
0.568544 0.115414 0.209738 50 99 141
-0.348129 0.475761 0.077372 68 1 84
0.259972 -0.279743 -0.210033 68 1 84
0.110465 -0.371260 -0.330361 68 1 84
0.291580 -0.416098 -0.328088 68 1 84
0.581476 0.039936 0.190694 39 124 142
-0.078017 0.415488 -0.231287 59 81 138
-0.613178 -0.187402 0.178504 40 123 142
-0.591626 -0.546821 0.064907 41 175 127
-0.126389 0.610109 -0.133673 68 55 129
0.098252 0.025622 -0.305225 68 1 84
-0.633392 -0.412021 0.288717 30 160 135
0.360627 -0.217483 -0.181253 62 73 137
0.465464 0.384813 0.249304 68 1 84
-0.509025 -0.222989 -0.070940 51 97 141
-0.087456 -0.261820 -0.256796 68 1 84
0.512698 0.276629 0.489184 68 1 84
0.656309 -0.321735 0.304700 77 194 107
-0.611275 0.079022 0.487765 68 1 84
-0.226126 0.209354 -0.143723 68 1 84
0.648697 -0.353928 0.220986 119 208 82
-0.438870 -0.062567 -0.149986 68 57 130
0.378374 0.391466 0.044117 68 1 84
-0.603409 -0.438777 0.094778 30 152 138
-0.510786 0.142493 0.044574 71 43 122
-0.651622 -0.285284 0.436010 40 122 142
0.162575 -0.281950 -0.217921 68 1 84
0.542798 -0.052176 -0.010661 33 166 133
-0.624205 -0.143530 0.220086 46 109 142
0.096323 0.623440 -0.117813 64 68 135
-0.642723 -0.601903 0.363540 105 204 91
-0.459591 0.393750 0.302289 68 1 84
-0.634501 -0.487555 0.223639 43 177 125
-0.453151 0.395479 0.215594 68 1 84
0.072917 -0.197106 -0.387991 68 1 84
-0.646873 -0.079029 0.438975 72 32 113
0.479961 0.359848 0.308378 68 1 84
-0.636532 -0.553320 0.275032 100 203 93
0.127612 0.623112 -0.080553 72 30 112
-0.417008 -0.220700 -0.146096 69 52 127
0.197494 0.446351 -0.146881 69 52 127
-0.314930 0.528381 0.129257 68 1 84
-0.222651 0.362816 -0.140270 70 48 125
0.123329 -0.258454 -0.265296 68 1 84
0.286716 0.509583 -0.000221 71 21 103
0.425821 -0.337660 -0.211375 71 43 122
-0.595131 0.125531 0.295264 68 1 84
0.557425 0.192497 0.480184 68 1 84
0.217878 0.326971 -0.143532 70 14 97
0.093159 0.147401 -0.306575 68 1 84
-0.199779 0.574869 -0.123379 62 73 137
0.151451 0.558186 -0.174600 44 112 142
0.116135 0.072348 -0.285453 68 1 84
0.308045 -0.142867 -0.189915 65 66 134
-0.230023 0.188337 -0.189555 68 1 84
-0.563950 -0.103192 0.035502 53 92 140
0.115045 0.443371 -0.214579 46 108 142
0.467533 0.223390 0.045510 71 44 123
0.106346 0.211691 -0.290502 68 1 84
-0.520387 0.297699 0.393213 68 1 84
-0.512938 0.283565 0.174378 68 1 84
0.494721 -0.333147 -0.066799 36 170 130
-0.150017 0.122446 -0.265085 68 1 84
-0.126805 0.002589 -0.323583 68 1 84
0.583746 -0.053390 0.096702 38 129 142
0.315274 -0.105473 -0.193378 65 65 134
0.566051 0.176583 0.419563 68 1 84
-0.261516 0.547973 -0.029215 71 17 99
-0.648618 -0.243263 0.451710 43 116 142
0.298633 0.384272 -0.059958 68 1 84
-0.448906 -0.036935 -0.138964 69 52 127
-0.383646 0.222131 -0.081353 68 1 84
-0.297960 0.287240 -0.103039 68 1 84
0.614544 -0.408013 0.063379 112 206 86
0.119174 0.193738 -0.285676 68 1 84
0.136504 -0.107778 -0.320235 68 1 84
0.519810 -0.231471 -0.048475 33 166 133
-0.467221 -0.165383 -0.125775 60 77 138
-0.658400 -0.213404 0.349937 51 97 141
0.027338 -0.291476 -0.353867 68 1 84
-0.554000 -0.196272 0.002924 45 110 142
-0.251488 -0.157323 -0.211983 68 1 84
-0.385409 -0.436079 -0.272833 68 1 84
-0.570035 -0.099628 0.055414 55 88 140
0.424945 0.328867 0.054657 71 17 99
0.470491 0.074684 -0.055296 56 87 140
-0.660410 -0.151226 0.395740 63 71 136
-0.451954 0.400123 0.316519 68 1 84
0.329537 -0.235305 -0.198447 61 74 137
0.187353 -0.093788 -0.240681 68 1 84
0.662474 -0.451922 0.421098 183 221 41
-0.498135 -0.321998 -0.054592 42 118 142
0.236052 -0.326388 -0.224121 68 1 84
-0.600205 -0.126269 0.156937 43 115 142
-0.156779 -0.429947 -0.385632 68 1 84
-0.072230 0.429901 -0.237245 57 84 139
-0.193977 0.547814 -0.157481 55 89 140
-0.517958 0.293230 0.221713 68 1 84
-0.089330 -0.095424 -0.329054 68 1 84
0.649058 -0.399642 0.429939 154 216 60
-0.323582 -0.388252 -0.306279 68 1 84
-0.486435 0.319244 0.149845 68 1 84
-0.260736 0.082611 -0.212309 68 1 84
-0.579138 -0.239239 0.067563 51 96 141
-0.400570 -0.432457 -0.253267 68 1 84
-0.597920 0.131536 0.423530 68 1 84
-0.029730 -0.049179 -0.468953 68 1 84
0.513691 -0.375664 -0.088172 30 153 138
0.467117 0.307700 0.109493 70 11 94
-0.377681 0.484270 0.202862 68 1 84
0.434568 0.389990 0.140995 68 1 84
0.160498 -0.397574 -0.358415 68 1 84
0.296404 0.549668 0.202332 68 1 84
0.038423 -0.280926 -0.358530 68 1 84
0.221578 0.179823 -0.209795 68 1 84
0.659270 -0.279985 0.347378 42 176 126
0.092263 -0.178813 -0.372999 68 1 84
-0.658622 -0.144234 0.411285 68 57 130
-0.487137 0.357438 0.311215 68 1 84
-0.421429 -0.035908 -0.163383 71 17 99
-0.165835 0.093973 -0.252044 68 1 84
-0.451257 0.403753 0.293695 68 1 84
-0.572596 0.087671 0.155764 68 2 85
0.642034 -0.492652 0.135084 189 222 38
0.364643 0.188593 -0.098763 69 5 88
0.443584 0.419365 0.286817 68 1 84
-0.657027 -0.218788 0.412776 50 98 141
-0.013773 0.540371 -0.209601 66 62 133
0.658637 -0.149841 0.440321 31 148 139
0.174321 -0.361849 -0.268337 68 1 84
0.661971 -0.573169 0.225991 136 213 71
0.292648 0.379805 -0.067609 68 1 84
0.197452 0.245069 -0.166705 68 1 84
-0.234472 -0.339444 -0.279362 68 1 84
-0.659417 -0.201384 0.354073 53 92 140
-0.414730 -0.374957 -0.189839 68 1 84
0.581762 0.130969 0.506460 68 1 84
0.648351 -0.491345 0.180018 157 217 58
-0.422927 0.330847 0.042182 68 1 84
0.633904 -0.497239 0.100231 210 225 27
-0.580272 0.163092 0.268543 68 1 84
-0.134202 0.292361 -0.226521 68 1 84
-0.512827 -0.250003 -0.058732 48 103 141
-0.240529 -0.035204 -0.236930 68 1 84
0.602681 -0.142943 0.119616 32 164 133
-0.626425 -0.158283 0.222852 44 114 142
0.270844 -0.360152 -0.280274 68 1 84
0.393045 0.390777 0.066815 68 1 84
-0.130581 0.031152 -0.275200 68 1 84
-0.426480 -0.060500 -0.160383 69 50 127
0.125565 0.498666 -0.212821 43 116 142
-0.127273 -0.145497 -0.265055 68 1 84
0.652813 -0.194112 0.308338 31 163 134
-0.626228 -0.474857 0.181038 33 167 132
0.382039 0.043115 -0.154836 43 116 142
0.202144 -0.265908 -0.213061 68 1 84
-0.236606 -0.076323 -0.234786 68 1 84
-0.367043 0.409033 0.032935 68 1 84
0.620980 -0.377660 0.090455 131 211 75
-0.152372 -0.139766 -0.253165 68 1 84
-0.448325 -0.113132 -0.140269 69 54 129
-0.402200 -0.507536 -0.248236 68 1 84
-0.044572 0.216188 -0.308123 68 1 84
0.355333 -0.259838 -0.194105 63 71 136
