ply
format ascii 1.0
element vertex 1260
property float x
property float y
property float z
property uchar red
property uchar green
property uchar blue
end_header
-0.262069 0.607335 0.033426 30 160 135
0.041341 0.439559 -0.230233 70 47 124
0.101879 0.571888 -0.183780 40 122 142
0.596386 -0.193755 0.115464 39 124 142
0.174612 0.059998 -0.223837 68 1 84
0.164574 0.028877 -0.214542 68 1 84
0.551953 -0.127774 0.012827 51 96 141
-0.143929 0.102385 -0.255818 68 1 84
0.155033 0.415660 -0.198814 67 58 131
0.635323 -0.107856 0.383905 54 91 140
-0.379443 0.531478 0.099823 46 109 142
-0.083242 -0.159846 -0.385193 68 1 84
-0.204548 0.329185 -0.204751 68 1 84
0.161225 0.552101 -0.163690 30 152 138
-0.651171 -0.108995 0.239536 68 1 84
0.212286 0.376763 -0.177381 71 39 119
0.523410 -0.066523 -0.029683 48 103 141
-0.583228 0.199547 0.386722 68 1 84
-0.635307 -0.086367 0.175120 68 1 84
-0.493668 0.221987 -0.005419 68 1 84
-0.688195 -0.408219 0.369869 46 109 142
-0.403606 0.024448 -0.158061 68 1 84
0.275174 -0.384015 -0.165848 70 9 92
0.559890 -0.457072 0.109733 31 150 139
0.669486 -0.357250 0.526236 34 138 141
0.109892 0.056769 -0.252014 68 1 84
-0.031015 0.602501 -0.183943 35 136 141
0.087565 -0.231586 -0.236734 68 1 84
-0.073052 -0.233977 -0.326918 68 1 84
-0.258388 0.460755 -0.109344 51 96 141
-0.098074 -0.223164 -0.276046 68 1 84
0.522489 0.301354 0.447524 47 105 141
0.283002 0.593908 0.067737 66 190 113
-0.698954 -0.359361 0.486472 60 77 138
-0.117781 0.660173 -0.090406 85 198 102
-0.192130 0.636025 -0.039039 42 176 126
-0.107710 0.402905 -0.219137 68 2 85
-0.379840 -0.398468 -0.179758 71 15 98
0.594663 -0.309714 0.146659 31 148 139
-0.599057 -0.240845 0.048558 60 77 138
0.659406 -0.343858 0.392521 37 131 141
-0.370134 0.445976 -0.026365 68 1 84
-0.136007 -0.145757 -0.237226 68 1 84
-0.590020 -0.336046 0.055789 39 124 142
0.550771 0.159284 0.106032 66 61 132
0.434638 -0.070475 -0.122195 69 50 127
-0.203680 -0.495203 -0.221374 68 1 84
0.576244 -0.475782 0.166149 33 141 140
0.514968 0.346765 0.245847 66 62 133
0.445116 0.460312 0.248105 47 106 141
0.593347 -0.068618 0.122044 52 94 141
0.627361 -0.478117 0.356437 30 157 136
-0.519593 0.371493 0.374086 68 1 84
0.033012 -0.312833 -0.268488 68 1 84
0.439949 -0.232489 -0.083091 47 105 141
0.630286 -0.181779 0.467614 36 134 141
0.179311 -0.206114 -0.178265 68 1 84
0.595547 -0.041655 0.145625 50 98 141
-0.276065 0.486073 -0.080163 49 102 141
0.608736 -0.037650 0.486823 45 110 142
0.260379 0.177614 -0.214480 68 1 84
0.568973 0.122672 0.477812 49 100 141
0.311601 0.503045 -0.031714 39 124 142
0.091952 -0.128769 -0.333422 68 1 84
0.444207 -0.513385 -0.122743 48 103 141
-0.165413 0.620105 -0.097224 37 130 142
0.605207 0.052948 0.399233 67 59 131
-0.523373 0.358636 0.293338 68 1 84
0.324801 0.567290 0.093657 47 179 123
0.381135 -0.404383 -0.113635 62 73 137
0.547093 0.168485 0.099611 71 38 118
-0.366581 -0.364989 -0.162809 72 32 113
-0.199544 -0.440515 -0.186588 71 17 99
0.127387 0.378870 -0.227984 68 1 84
0.669636 -0.355470 0.523570 34 139 141
0.509862 -0.378227 0.021175 31 149 139
0.628785 -0.190999 0.488501 44 112 142
-0.142052 0.017061 -0.222417 68 1 84
0.103325 -0.124654 -0.272118 68 1 84
0.535084 0.298066 0.319144 68 55 129
-0.569876 0.229654 0.257664 68 1 84
0.493664 0.191999 -0.016776 54 90 140
0.408629 0.252681 -0.105648 71 44 123
-0.577439 -0.283136 0.028699 49 100 141
0.293557 0.408332 -0.109142 41 120 142
0.644128 -0.420587 0.400416 32 164 133
0.616683 -0.258679 0.188670 33 141 140
-0.035013 0.564043 -0.198647 44 112 142
0.633209 -0.141714 0.440751 47 105 141
0.629719 -0.068428 0.383842 64 67 135
0.608318 -0.281948 0.172099 31 146 140
0.659189 -0.305330 0.484766 32 143 140
-0.457031 0.076105 -0.109946 68 1 84
0.646515 -0.233878 0.376907 32 143 140
-0.321611 -0.185929 -0.163697 68 1 84
-0.079785 -0.146767 -0.404811 68 1 84
-0.150270 -0.426147 -0.176988 71 22 105
0.659954 -0.326707 0.418042 34 137 141
-0.167309 0.526805 -0.142952 36 134 141
-0.126174 0.320739 -0.258181 68 1 84
0.070339 0.034019 -0.279817 68 1 84
-0.503154 -0.430260 -0.103666 61 74 137
-0.318311 0.174102 -0.191939 68 1 84
0.419449 0.416553 0.025898 41 121 142
-0.044645 0.559527 -0.197704 38 128 142
0.213861 0.579353 -0.105689 37 171 129
-0.480548 0.116123 -0.071680 68 1 84
-0.285163 0.598677 0.060240 42 176 126
0.007905 -0.471228 -0.238059 68 1 84
-0.071465 0.547758 -0.192358 48 104 141
0.206776 -0.532063 -0.224874 68 1 84
-0.478841 -0.484832 -0.149085 61 75 137
-0.519503 -0.250306 -0.044747 51 96 141
0.654875 -0.405614 0.468234 31 161 135
0.032377 0.688442 -0.082049 248 230 33
0.092313 -0.291406 -0.195002 68 1 84
0.471548 -0.546587 -0.100206 42 119 142
0.527575 -0.176843 -0.018421 46 107 142
0.048782 -0.390544 -0.198961 68 1 84
0.548367 0.193637 0.122020 70 49 126
0.612978 -0.507260 0.313583 31 146 140
-0.369113 -0.140745 -0.157054 68 1 84
-0.347898 -0.047763 -0.180870 68 1 84
-0.277272 -0.084764 -0.190514 68 1 84
0.085459 -0.054281 -0.333526 68 1 84
-0.680310 -0.185425 0.398079 68 1 84
-0.331219 0.162008 -0.186233 68 1 84
0.519140 0.299863 0.126433 65 66 134
0.282967 0.424533 -0.108310 39 125 142
-0.415618 -0.061959 -0.152278 68 1 84
0.537691 -0.215487 0.006612 43 116 142
-0.571401 0.103143 0.100893 68 1 84
-0.705173 -0.414977 0.480258 50 98 141
0.191234 -0.264156 -0.166089 68 1 84
0.218086 -0.465085 -0.194350 68 1 84
-0.457250 0.464450 0.318436 72 33 114
-0.599776 -0.068293 0.054807 68 1 84
0.521952 0.321388 0.188286 58 82 139
-0.284853 0.278710 -0.191395 68 1 84
-0.114319 -0.533267 -0.256266 68 1 84
-0.548479 0.027366 -0.009043 68 1 84
-0.049940 -0.100892 -0.441269 68 1 84
0.091561 -0.061928 -0.344209 68 1 84
0.645388 -0.247404 0.329111 34 137 141
-0.605958 -0.281446 0.071188 51 96 141
0.217662 -0.315205 -0.180350 68 1 84
-0.627849 -0.212868 0.102609 65 65 134
-0.196889 -0.423888 -0.178760 69 8 91
0.616391 -0.544410 0.335471 35 137 141
-0.561031 0.061554 0.035432 68 1 84
0.459978 -0.311952 -0.035070 35 135 141
-0.151981 0.392860 -0.208037 68 1 84
0.550600 -0.536675 0.114483 49 101 141
-0.019937 -0.349591 -0.275821 68 1 84
-0.625517 0.033888 0.423449 68 1 84
0.264933 0.243564 -0.194733 68 1 84
-0.038382 0.010175 -0.309951 68 1 84
-0.385576 -0.167982 -0.148999 68 1 84
-0.436150 0.447773 0.079522 71 22 105
-0.113280 -0.170144 -0.266234 68 1 84
-0.403899 0.526037 0.247763 52 95 141
0.509003 -0.395699 0.015907 35 136 141
-0.106811 -0.216013 -0.261312 68 1 84
0.489376 0.393820 0.221830 44 112 142
-0.351793 0.150159 -0.176786 68 1 84
-0.405557 -0.010833 -0.158900 68 1 84
0.597679 -0.063951 0.142262 48 104 141
0.601161 0.005976 0.217398 60 78 138
0.011556 0.373024 -0.248000 68 1 84
0.113382 -0.108648 -0.266603 68 1 84
-0.226572 0.016807 -0.214085 68 1 84
0.069975 0.066562 -0.292449 68 1 84
-0.697682 -0.369309 0.439484 62 72 136
0.470683 0.223286 -0.040068 55 88 140
0.450028 -0.205161 -0.087375 54 90 140
-0.217788 -0.526715 -0.244623 68 1 84
-0.021225 -0.240382 -0.367431 68 1 84
0.432670 -0.216577 -0.094379 62 73 137
0.606637 -0.092080 0.166537 45 111 142
-0.622564 -0.073221 0.126881 68 1 84
-0.125528 -0.521123 -0.254312 68 1 84
0.452264 0.295912 -0.027432 52 94 141
-0.360889 0.543416 0.084406 36 132 141
-0.605373 -0.447869 0.090633 30 151 138
-0.528154 -0.298605 -0.021696 44 112 142
-0.686622 -0.247085 0.338917 70 45 124
-0.581077 0.126048 0.165239 68 1 84
0.629414 -0.551522 0.376864 42 118 142
-0.551137 0.199800 0.118568 68 1 84
-0.121342 -0.466901 -0.217228 68 1 84
-0.153799 0.627402 -0.102149 40 123 142
0.616033 0.011280 0.375786 65 65 134
0.318437 0.550795 0.032247 30 159 136
-0.686188 -0.292613 0.320292 67 58 131
0.475368 0.412430 0.172024 51 97 141
-0.215964 -0.119353 -0.198712 68 1 84
0.325376 0.368358 -0.114271 62 72 136
-0.427472 -0.187074 -0.129471 68 1 84
-0.096276 -0.112195 -0.390486 68 1 84
0.386926 0.393570 -0.036759 46 108 142
0.135129 -0.292435 -0.168621 68 1 84
-0.011900 0.017043 -0.321373 68 1 84
-0.568861 0.197966 0.188741 68 1 84
0.604568 0.009802 0.449263 56 87 140
-0.539116 -0.008249 -0.037715 68 1 84
-0.645765 -0.240226 0.154949 60 77 138
0.525513 0.316047 0.201593 50 99 141
0.609373 -0.139058 0.159047 40 123 142
0.006322 0.011059 -0.325739 68 1 84
0.570913 0.119907 0.473048 50 99 141
0.601461 0.060694 0.306139 69 6 90
0.059710 0.035190 -0.292694 68 1 84
-0.511023 0.328783 0.118933 68 1 84
0.104383 -0.389362 -0.157641 68 1 84
-0.496329 -0.129820 -0.098792 68 1 84
0.197359 0.356009 -0.195825 68 1 84
0.573226 0.183156 0.296671 69 50 127
-0.558716 -0.386684 -0.004594 39 125 142
-0.579783 0.201622 0.428055 68 1 84
0.053716 0.233936 -0.284082 68 1 84
0.210045 -0.036080 -0.206510 68 1 84
0.597448 -0.397497 0.195602 33 142 140
-0.672812 -0.276869 0.277046 55 89 140
0.584882 0.131541 0.302106 68 55 129
0.531434 -0.448381 0.038926 30 153 138
0.569114 0.190977 0.252679 61 74 137
0.378647 0.528214 0.126791 30 156 137
-0.546797 0.300643 0.454529 68 1 84
-0.556230 0.270545 0.243776 68 1 84
-0.022836 -0.046086 -0.415846 68 1 84
0.676945 -0.367323 0.482407 30 155 137
0.640589 -0.191572 0.297681 38 129 142
0.352964 0.391718 -0.074791 48 104 141
-0.122375 -0.174452 -0.251124 68 1 84
-0.315003 0.440958 -0.085119 71 18 101
-0.447958 -0.386646 -0.120018 66 61 132
-0.687769 -0.269511 0.475668 62 72 136
-0.657032 -0.113502 0.290422 68 1 84
-0.665459 -0.428169 0.284757 42 117 142
0.613116 -0.360463 0.224584 30 153 138
0.615103 -0.233006 0.176943 34 137 141
0.319213 -0.425504 -0.170131 68 1 84
-0.586121 0.099370 0.155686 68 1 84
0.606683 -0.417445 0.240949 30 156 137
-0.616220 0.028105 0.220863 68 1 84
-0.099992 0.140490 -0.293959 68 1 84
-0.438315 0.486894 0.298428 69 50 127
0.610790 -0.451283 0.282264 30 155 137
0.531978 -0.431812 0.044200 34 137 141
0.271987 0.582079 -0.011493 44 177 125
-0.550562 0.291073 0.259427 68 1 84
-0.592942 -0.095132 0.029942 68 1 84
-0.510560 0.378013 0.237399 68 1 84
0.084695 -0.244188 -0.233347 68 1 84
0.017678 -0.523078 -0.252380 68 1 84
0.085557 0.654947 -0.132094 79 195 105
-0.487712 0.302466 0.036197 68 1 84
-0.582085 -0.481130 0.018931 35 135 141
0.306194 0.390238 -0.111847 44 113 142
-0.438053 0.449734 0.086868 71 39 119
0.621142 -0.212914 0.194759 35 136 141
-0.101341 0.664207 -0.095938 75 194 108
0.627898 -0.351893 0.284843 30 158 136
0.115816 -0.177676 -0.227190 68 1 84
-0.133650 0.201458 -0.278277 68 1 84
0.039454 0.559309 -0.205820 49 102 141
0.638191 -0.154907 0.406391 49 102 141
0.440144 0.270384 -0.060401 65 66 134
0.179054 -0.120767 -0.202335 68 1 84
-0.103469 0.355136 -0.256955 68 1 84
-0.098232 -0.389855 -0.189070 68 1 84
0.023291 0.467111 -0.226420 62 73 137
0.314225 -0.539551 -0.206080 68 1 84
-0.655304 -0.148943 0.216877 68 1 84
0.449453 -0.394167 -0.057462 41 121 142
0.273373 -0.152949 -0.167363 68 1 84
0.456466 0.177983 -0.077868 59 81 138
-0.667806 -0.488260 0.288073 30 151 138
-0.501561 0.276584 0.046071 68 1 84
-0.074591 -0.193995 -0.362661 68 1 84
-0.523253 -0.146379 -0.072903 68 2 85
0.351682 0.534783 0.068640 38 128 142
-0.107660 -0.146048 -0.289610 68 1 84
-0.591434 -0.417640 0.048835 33 140 141
0.435403 0.436881 0.077740 38 129 142
0.170391 -0.554735 -0.244764 68 1 84
0.169186 0.120999 -0.249886 68 1 84
-0.666644 -0.162610 0.270200 72 32 113
0.544727 0.185235 0.504584 44 112 142
-0.194148 -0.260929 -0.173728 68 1 84
0.659071 -0.452689 0.498273 32 165 133
-0.622351 -0.469402 0.144711 30 151 138
0.348909 -0.076835 -0.168502 68 1 84
0.512562 -0.414457 0.014634 31 148 139
0.529964 -0.380774 0.048362 30 159 136
0.067416 0.126758 -0.314453 68 1 84
-0.205104 0.447437 -0.149832 46 109 142
0.634267 -0.136285 0.282362 39 124 142
-0.681120 -0.233971 0.450221 67 59 131
0.278945 0.552552 -0.035057 34 167 132
0.047724 0.648734 -0.149140 51 182 121
-0.494706 -0.231674 -0.073366 63 71 136
0.482100 -0.193569 -0.065624 49 100 141
-0.005622 0.689023 -0.072490 253 231 36
-0.023299 0.465202 -0.217709 54 90 140
-0.601881 0.034478 0.152577 68 1 84
0.522542 0.327223 0.310096 69 53 128
0.456564 -0.005355 -0.106189 65 65 134
-0.045345 0.224394 -0.287988 68 1 84
0.057828 0.641718 -0.154118 50 181 122
0.167812 0.638835 -0.092837 105 204 91
0.027696 -0.398205 -0.222074 68 1 84
-0.348538 -0.371282 -0.171558 67 59 131
-0.187131 0.109373 -0.240294 68 1 84
-0.409995 0.037374 -0.152675 68 1 84
-0.490601 -0.370339 -0.079111 52 94 141
0.473344 -0.249134 -0.049776 40 122 142
-0.578169 0.216948 0.379185 68 1 84
0.481652 0.400774 0.168447 55 89 140
-0.586024 0.065801 0.115733 68 1 84
0.465444 -0.483523 -0.090800 42 118 142
-0.652203 -0.327388 0.203373 49 100 141
0.297537 -0.332319 -0.174737 68 1 84
0.300700 0.420404 -0.097568 35 137 141
0.537742 0.291872 0.318945 66 62 133
0.266467 -0.455772 -0.189037 68 3 87
0.539364 -0.141340 -0.006438 44 112 142
-0.658590 -0.165124 0.489437 72 26 108
0.091360 0.018014 -0.251936 68 1 84
-0.451224 0.441229 0.109019 71 20 102
0.446274 -0.583942 -0.121710 61 74 137
-0.691080 -0.274030 0.339359 69 53 128
0.400479 -0.069839 -0.145137 72 32 113
-0.077470 0.486661 -0.196882 44 113 142
-0.557582 -0.223455 -0.014351 69 50 127
0.457981 0.443802 0.242577 49 100 141
-0.587290 0.082950 0.141102 68 1 84
0.209349 0.441843 -0.152225 52 94 141
0.125688 0.015601 -0.220074 68 1 84
-0.209084 0.316126 -0.205244 68 1 84
-0.494063 0.410705 0.274421 68 1 84
0.548715 -0.082569 0.009503 48 103 141
0.169427 -0.270494 -0.166441 68 1 84
-0.101408 0.296888 -0.277107 68 1 84
-0.344202 -0.176756 -0.158926 68 1 84
-0.706675 -0.426456 0.483404 46 108 142
-0.552707 0.290703 0.374231 68 1 84
-0.070170 0.484078 -0.200032 49 100 141
0.620809 -0.102896 0.228084 44 112 142
-0.368371 0.002967 -0.177229 68 1 84
0.577667 -0.035617 0.084446 60 78 138
-0.039969 -0.041704 -0.405278 68 1 84
0.240438 0.172479 -0.222596 68 1 84
-0.683444 -0.475331 0.339332 34 139 141
-0.027520 0.155115 -0.329039 68 1 84
-0.356389 0.425620 -0.060650 68 1 84
-0.558282 0.269922 0.269730 68 1 84
0.507529 -0.392397 0.014920 32 144 140
-0.422245 0.445655 0.047955 71 40 120
0.043242 -0.380722 -0.207666 68 1 84
0.549440 0.253995 0.366574 62 73 137
0.543656 0.267228 0.205335 69 53 128
0.635012 -0.240381 0.261575 31 147 139
0.578762 0.019761 0.115056 61 75 137
-0.669464 -0.218860 0.255295 62 72 136
-0.266733 0.312441 -0.186688 68 1 84
-0.705195 -0.437982 0.456325 41 120 142
0.616836 0.002631 0.363845 62 72 136
0.155252 -0.386614 -0.155229 68 1 84
0.191439 0.317737 -0.213956 68 1 84
-0.603529 0.132891 0.357489 68 1 84
-0.396422 0.109757 -0.154041 68 1 84
0.522569 -0.411025 0.032747 31 149 139
-0.499642 0.169036 -0.024222 68 1 84
0.579209 -0.470877 0.173917 33 140 141
0.559049 0.226630 0.368079 57 85 139
0.659292 -0.520481 0.456071 30 153 138
0.070561 -0.217257 -0.277925 68 1 84
-0.624897 0.029815 0.438607 68 1 84
-0.676625 -0.325382 0.300202 53 93 140
0.119022 -0.036479 -0.298124 68 1 84
-0.564388 0.052532 0.037252 68 1 84
-0.184660 0.186981 -0.253931 68 1 84
-0.246110 -0.536835 -0.245268 68 1 84
-0.527344 0.357509 0.403585 68 1 84
0.573633 0.077154 0.135364 63 69 135
-0.684283 -0.439321 0.347759 44 113 142
0.251348 -0.432439 -0.175492 68 1 84
-0.393043 0.538766 0.202480 51 96 141
0.547285 0.245386 0.182428 67 60 132
-0.049366 0.570549 -0.193232 42 119 142
0.532178 0.234007 0.100244 71 40 120
0.131022 0.287367 -0.281824 68 1 84
-0.070124 0.658985 -0.122651 79 195 105
-0.676592 -0.218838 0.462618 69 50 127
0.642610 -0.178657 0.345010 39 126 142
-0.377314 -0.001340 -0.173293 68 1 84
-0.501789 0.398349 0.301384 68 1 84
0.061506 0.638015 -0.156961 59 186 117
-0.589629 -0.439358 0.040540 31 149 139
0.539945 0.213525 0.492365 46 107 142
-0.128330 0.563823 -0.160113 48 103 141
0.301511 -0.523633 -0.207908 68 1 84
0.652875 -0.291564 0.384711 30 158 136
-0.656579 -0.118956 0.266474 68 3 87
-0.677790 -0.396258 0.328002 45 111 142
-0.175676 0.469483 -0.155177 46 108 142
-0.327275 0.585933 0.129580 30 154 137
-0.298747 -0.125171 -0.172405 68 1 84
-0.145456 -0.178449 -0.224241 68 1 84
-0.370834 -0.274374 -0.161705 68 1 84
0.212490 0.631041 -0.027865 103 204 92
0.440887 0.364972 0.009162 54 91 140
0.361325 0.161644 -0.165211 72 34 115
-0.592286 -0.144902 0.020105 71 18 101
0.552620 0.252781 0.284232 69 53 128
0.090689 -0.184475 -0.257215 68 1 84
-0.308592 0.328070 -0.160769 68 1 84
0.628742 -0.228990 0.226821 40 122 142
0.445451 -0.248045 -0.072814 44 114 142
-0.364752 -0.451712 -0.207595 68 1 84
-0.037730 -0.445884 -0.235976 68 1 84
0.353400 -0.184792 -0.140126 71 39 119
0.037366 -0.211203 -0.368430 68 1 84
0.573565 0.146812 0.440768 71 39 119
-0.553881 0.270911 0.225232 68 1 84
-0.698710 -0.353932 0.499756 59 80 138
0.029382 0.090423 -0.307389 68 1 84
-0.363054 -0.347955 -0.162278 72 25 107
0.543829 -0.058290 0.004401 48 103 141
0.341644 0.265349 -0.156468 72 25 107
-0.286759 0.601921 0.075516 54 184 119
0.603145 0.048634 0.297833 72 26 108
0.398805 0.408654 -0.009824 46 108 142
0.428142 -0.008966 -0.131195 71 42 121
-0.677103 -0.365715 0.316638 51 97 141
-0.527229 0.092303 -0.015660 68 1 84
-0.022142 -0.355792 -0.270222 68 1 84
0.485655 0.396949 0.320763 54 90 140
0.615489 -0.249694 0.182291 35 135 141
-0.144129 -0.226787 -0.211970 68 1 84
0.149143 -0.205760 -0.193606 68 1 84
-0.456111 0.454314 0.157188 68 1 84
-0.622465 -0.182324 0.085487 61 75 137
0.097579 -0.146160 -0.261709 68 1 84
-0.119715 -0.328240 -0.180098 68 1 84
0.239028 0.011624 -0.207286 68 1 84
0.552694 0.192168 0.468008 65 66 134
-0.465330 -0.110583 -0.123398 68 1 84
-0.251931 0.133320 -0.222296 68 1 84
-0.643723 -0.445902 0.215375 32 144 140
-0.620433 0.020120 0.236510 68 1 84
-0.440427 0.488359 0.256031 70 47 124
-0.661767 -0.157323 0.464320 72 25 107
-0.455798 0.368206 0.027289 68 1 84
0.655518 -0.292998 0.478147 32 144 140
-0.192042 -0.069214 -0.211203 68 1 84
-0.435449 0.494072 0.233168 71 44 123
0.040200 0.259880 -0.304254 68 1 84
0.533722 0.246212 0.117614 71 37 117
0.580929 -0.356123 0.132333 31 146 140
0.322597 0.536758 0.018635 30 154 137
-0.660676 -0.508172 0.268335 30 151 138
0.647828 -0.254862 0.345007 32 144 140
-0.405793 -0.415219 -0.170963 72 34 115
-0.213537 0.575111 -0.081701 41 121 142
-0.042715 -0.281026 -0.326743 68 1 84
0.226381 0.143035 -0.228392 68 1 84
0.319034 0.383519 -0.108494 51 96 141
-0.462579 -0.344300 -0.087313 50 98 141
-0.241759 0.167500 -0.229228 68 1 84
0.399398 0.513777 0.175658 32 145 140
-0.597776 0.127129 0.432478 68 1 84
0.090254 0.258843 -0.296371 68 1 84
-0.579189 0.211100 0.320945 68 1 84
0.613617 -0.317275 0.203674 31 148 139
0.188834 0.639672 -0.059194 94 201 97
-0.517911 -0.506502 -0.116010 47 106 141
0.471195 0.421991 0.186981 52 95 141
0.602570 0.064900 0.333288 69 6 90
0.180092 0.642473 -0.067174 126 210 78
0.630479 -0.275819 0.249695 31 148 139
-0.326061 -0.242784 -0.169525 68 1 84
0.234682 -0.070829 -0.200531 68 1 84
-0.413661 0.515425 0.178337 69 53 128
-0.565681 0.205009 0.492971 68 1 84
0.154485 0.316879 -0.249797 68 1 84
0.466616 -0.077477 -0.095304 66 64 133
-0.051160 0.508549 -0.205659 44 114 142
-0.531400 0.346707 0.377079 68 1 84
-0.273531 0.077762 -0.211701 68 1 84
-0.561287 0.218718 0.176996 68 1 84
0.352883 -0.238050 -0.133029 70 48 125
0.634927 -0.132203 0.423406 48 103 141
-0.372723 -0.195075 -0.151658 68 1 84
0.145070 -0.165368 -0.207770 68 1 84
-0.071736 -0.158349 -0.406428 68 1 84
-0.698841 -0.467398 0.406504 40 123 142
-0.295323 0.165525 -0.204187 68 1 84
0.255899 0.349180 -0.160780 69 5 88
0.310111 0.528210 -0.010658 37 131 141
0.026114 -0.037837 -0.348485 68 1 84
0.199336 -0.043110 -0.206546 68 1 84
-0.173000 -0.123884 -0.213832 68 1 84
0.083980 0.122526 -0.305618 68 1 84
0.633911 -0.199362 0.468896 36 133 141
0.252609 0.024326 -0.206386 68 1 84
0.550715 0.237727 0.413374 61 75 137
-0.531313 0.345889 0.368603 68 1 84
0.544380 0.013477 0.021171 64 68 135
-0.387268 0.221822 -0.138220 68 1 84
0.462112 0.310531 -0.001509 52 94 141
-0.135557 -0.224271 -0.220883 68 1 84
0.640566 -0.200763 0.296238 36 132 141
0.090727 0.016712 -0.252844 68 1 84
-0.072472 0.659972 -0.120098 98 202 95
-0.255634 0.620765 0.073644 96 201 96
-0.088053 -0.159090 -0.373915 68 1 84
0.587798 -0.396003 0.165692 31 147 139
0.261114 -0.067001 -0.196095 68 1 84
-0.006874 0.367206 -0.251547 68 1 84
0.659485 -0.338959 0.405393 33 140 141
-0.090166 -0.110208 -0.402338 68 1 84
-0.472521 0.446978 0.310662 68 1 84
-0.657825 -0.234324 0.193141 66 61 132
-0.130825 -0.419921 -0.178698 68 1 84
-0.093792 -0.134241 -0.385912 68 1 84
0.244531 -0.215231 -0.162121 68 1 84
0.535457 -0.119956 -0.013311 44 114 142
-0.687316 -0.498359 0.352527 32 144 140
0.379280 0.527012 0.123949 30 152 138
0.550219 -0.545276 0.114646 61 76 137
0.610566 -0.393348 0.237439 30 155 137
-0.141013 -0.151583 -0.231936 68 1 84
-0.289608 -0.452922 -0.209708 68 1 84
-0.633351 -0.537117 0.173405 31 148 139
0.628354 -0.069004 0.339501 61 76 137
0.132411 -0.194824 -0.208384 68 1 84
-0.649805 -0.296925 0.181635 49 100 141
0.365123 -0.495311 -0.177255 68 1 84
-0.488714 0.422823 0.325552 68 1 84
-0.163811 0.034661 -0.220486 68 1 84
0.091521 0.503060 -0.209225 58 82 139
0.235996 0.612602 -0.030401 119 208 82
0.427581 -0.198070 -0.104797 63 71 136
-0.109827 -0.140730 -0.285456 68 1 84
-0.171129 0.360806 -0.214669 68 1 84
-0.000006 -0.456390 -0.235665 68 1 84
-0.206360 -0.190032 -0.182530 68 1 84
0.513651 -0.538471 -0.023564 41 120 142
0.211257 0.634434 -0.009329 119 208 82
-0.662376 -0.337030 0.255974 51 96 141
0.411062 -0.294025 -0.094000 50 98 141
0.117345 -0.063172 -0.315419 68 1 84
-0.572733 0.234302 0.358311 68 1 84
0.256018 -0.027870 -0.202495 68 1 84
-0.621060 -0.250422 0.091924 60 77 138
0.223525 0.380978 -0.168196 67 58 131
0.663528 -0.355274 0.395065 33 140 141
0.499204 -0.478238 -0.036997 35 135 141
0.525501 0.264542 0.107153 68 55 129
0.303396 0.007142 -0.194864 68 1 84
0.026957 -0.318307 -0.273687 68 1 84
-0.167571 0.567556 -0.130435 44 112 142
0.260646 -0.446041 -0.184373 70 9 92
0.648098 -0.268000 0.341490 30 155 137
0.577767 -0.164307 0.065551 40 122 142
0.500291 0.370064 0.328648 65 66 134
0.046833 -0.185063 -0.389734 68 1 84
-0.692690 -0.326538 0.400842 58 83 139
0.548477 -0.292396 0.051040 40 122 142
-0.490641 0.362652 0.102857 68 1 84
0.012003 0.487073 -0.221965 59 80 138
0.533516 0.084743 0.019757 68 55 129
0.587313 0.122402 0.397229 61 74 137
0.613977 -0.163101 0.171225 38 127 142
-0.059994 -0.398714 -0.229258 68 1 84
0.596540 -0.140896 0.115793 44 113 142
-0.129286 -0.406738 -0.172567 68 1 84
-0.530791 -0.397834 -0.051977 51 96 141
-0.685664 -0.253234 0.439345 61 75 137
-0.418419 0.489469 0.109123 53 92 140
-0.476068 0.434470 0.390859 72 30 112
0.421586 0.434584 0.049027 36 133 141
0.635744 -0.112637 0.389158 50 99 141
0.365578 0.227118 -0.150775 69 52 127
-0.688758 -0.251390 0.397022 67 60 132
-0.471386 0.272070 -0.014754 68 1 84
-0.247382 -0.345256 -0.177590 68 1 84
0.066017 0.005195 -0.283134 68 1 84
-0.159006 0.658050 -0.031709 91 200 98
-0.432047 -0.545236 -0.190935 71 37 117
0.343538 0.540867 0.064008 31 150 139
-0.547812 0.305265 0.439172 68 1 84
0.018253 -0.165993 -0.427079 68 1 84
0.105898 -0.256278 -0.203790 68 1 84
-0.657505 -0.378099 0.249908 46 109 142
0.584094 0.008861 0.128866 58 82 139
0.147271 -0.358660 -0.150700 68 1 84
0.393439 0.139211 -0.148330 67 60 132
0.491443 0.101782 -0.050220 65 65 134
-0.039709 0.381144 -0.242157 68 1 84
-0.593966 -0.440519 0.053295 34 138 141
0.050853 0.535106 -0.211861 49 101 141
0.656601 -0.345882 0.381711 30 153 138
0.428451 -0.596116 -0.136094 68 3 87
-0.412460 0.133552 -0.137755 68 1 84
-0.608227 0.111324 0.388438 68 1 84
-0.281865 -0.150027 -0.169413 68 1 84
0.225122 0.468359 -0.132217 43 115 142
0.301659 -0.500194 -0.206966 68 1 84
0.627963 -0.056522 0.400304 58 82 139
-0.537496 0.329209 0.318472 68 1 84
0.355009 0.470699 -0.008812 41 120 142
-0.558510 -0.118655 -0.032530 68 1 84
-0.335753 0.374076 -0.118219 68 1 84
0.212291 -0.417793 -0.179989 68 1 84
0.577335 -0.072622 0.073435 44 112 142
0.166469 0.219149 -0.244523 68 1 84
0.494372 0.150478 -0.032385 68 55 129
0.430509 0.445206 0.078830 39 126 142
-0.214548 0.504640 -0.115718 52 94 141
0.043783 0.278741 -0.319708 68 1 84
0.346201 -0.089812 -0.166751 68 1 84
-0.576801 0.221518 0.359118 68 1 84
-0.383357 -0.290568 -0.157689 71 18 101
0.144429 -0.168931 -0.207700 68 1 84
-0.292130 -0.441337 -0.205262 69 6 90
-0.324706 0.186588 -0.187415 68 1 84
-0.589101 0.115156 0.190515 68 1 84
-0.188611 0.052747 -0.221742 68 1 84
0.219323 -0.206477 -0.167218 68 1 84
-0.475258 0.246621 -0.022735 68 1 84
0.589266 -0.035010 0.125201 53 93 140
-0.602920 -0.395856 0.080586 35 137 141
-0.636283 -0.387301 0.170676 41 120 142
0.619132 -0.006786 0.373677 59 80 138
0.569337 -0.320448 0.095998 37 131 141
-0.594288 -0.200167 0.028724 71 44 123
-0.576882 0.221421 0.375367 68 1 84
0.639369 -0.141826 0.350385 45 111 142
-0.397098 -0.246072 -0.143339 69 6 90
-0.674450 -0.209111 0.461204 71 43 122
-0.598421 0.099298 0.469531 68 1 84
0.643115 -0.238207 0.315632 31 146 140
0.494007 0.182134 -0.020564 57 84 139
-0.477847 -0.446292 -0.134134 69 52 127
0.535872 0.296194 0.319385 67 60 132
-0.000480 0.018612 -0.321742 68 1 84
0.190382 0.266376 -0.210362 68 1 84
-0.694888 -0.378072 0.411536 59 81 138
0.395932 0.223599 -0.127994 60 78 138
0.273360 0.450229 -0.100836 33 142 140
-0.297899 -0.242774 -0.173624 68 1 84
-0.323328 0.580632 0.094832 30 153 138
-0.060526 -0.041587 -0.322165 68 1 84
-0.136086 -0.123284 -0.236448 68 1 84
-0.101249 -0.191595 -0.284615 68 1 84
-0.301778 0.183250 -0.199640 68 1 84
0.274050 0.504522 -0.074855 32 145 140
-0.591730 0.171027 0.389449 68 1 84
-0.367782 -0.158866 -0.154453 68 1 84
0.322418 0.402888 -0.092721 47 106 141
0.323071 0.146167 -0.186863 69 6 90
-0.379241 -0.453136 -0.201575 72 35 116
0.655903 -0.434051 0.494096 31 161 135
-0.599462 0.145811 0.338426 68 1 84
-0.402724 0.196423 -0.131461 68 1 84
-0.569926 -0.162417 -0.014500 72 25 107
0.058985 -0.277492 -0.249333 68 1 84
0.064028 0.651119 -0.142921 71 192 110
0.584567 0.109671 0.430633 56 86 139
0.177171 0.112090 -0.243457 68 1 84
-0.301696 -0.330970 -0.182892 68 1 84
-0.078068 -0.355797 -0.224009 68 1 84
0.336694 0.347334 -0.120214 57 85 139
0.414504 -0.519964 -0.149493 60 78 138
-0.040811 0.598326 -0.183802 38 129 142
0.511371 0.217949 0.032479 65 66 134
-0.683457 -0.413053 0.348866 49 102 141
-0.012049 -0.395446 -0.243830 68 1 84
-0.132390 0.003585 -0.232285 68 1 84
0.202919 0.582108 -0.116394 34 167 132
-0.419612 0.011529 -0.149077 68 1 84
0.232693 0.616679 -0.027229 109 206 88
-0.098792 0.290481 -0.277428 68 1 84
0.544233 0.222472 0.133233 72 34 115
0.349813 0.085849 -0.178605 72 28 110
-0.698277 -0.402593 0.424436 51 97 141
0.313752 -0.076731 -0.180364 68 1 84
0.529692 -0.069632 -0.021213 49 102 141
0.361798 -0.298932 -0.136593 72 29 111
0.239738 -0.520788 -0.213843 68 1 84
0.484961 -0.290079 -0.020754 35 136 141
-0.211858 -0.511694 -0.234304 68 1 84
0.445918 0.350256 0.004372 59 81 138
-0.190838 -0.217645 -0.182621 68 1 84
-0.134218 0.546199 -0.160868 36 133 141
0.483416 0.399810 0.329247 52 95 141
-0.469869 -0.019512 -0.115228 68 1 84
-0.163254 -0.534340 -0.257372 68 1 84
-0.245600 0.092724 -0.219574 68 1 84
0.499587 0.372783 0.200226 51 96 141
0.596311 0.075374 0.285365 68 57 130
0.407066 0.346864 -0.052891 51 97 141
-0.596993 -0.290079 0.058713 46 109 142
-0.150157 0.257867 -0.243367 68 1 84
-0.624429 -0.442172 0.147642 31 150 139
0.053996 -0.053243 -0.326647 68 1 84
-0.518045 -0.231694 -0.053678 62 73 137
0.328935 0.218851 -0.175270 69 5 88
-0.703194 -0.519909 0.434915 31 150 139
0.421609 0.312132 -0.060321 58 82 139
-0.517958 0.344006 0.168938 68 1 84
-0.110636 -0.346866 -0.180765 68 1 84
0.360913 0.107179 -0.171443 72 29 111
0.594708 0.101592 0.369625 67 58 131
-0.376914 -0.525728 -0.210766 69 6 90
0.061994 0.051647 -0.294361 68 1 84
-0.660413 -0.150150 0.457620 69 5 88
-0.103255 0.673701 -0.063003 165 218 53
0.017982 0.411123 -0.234836 68 1 84
0.567262 0.160665 0.178948 62 73 137
0.653027 -0.286475 0.404509 32 144 140
0.521327 0.155331 0.021091 63 71 136
-0.238161 -0.118964 -0.191123 68 1 84
0.235413 -0.413158 -0.174767 68 1 84
0.297464 -0.002312 -0.195915 68 1 84
0.217381 -0.245348 -0.165063 68 1 84
-0.539148 -0.376466 -0.028624 40 122 142
0.276324 0.566570 -0.024441 31 147 139
-0.080299 -0.129721 -0.413270 68 1 84
-0.020944 -0.317868 -0.304726 68 1 84
-0.370231 -0.492890 -0.207731 70 14 97
-0.124976 0.667595 -0.057680 126 210 78
-0.099494 -0.231525 -0.267651 68 1 84
-0.515397 0.374528 0.418754 68 1 84
0.663816 -0.478072 0.481095 36 170 130
-0.067044 -0.140684 -0.423835 68 1 84
-0.656940 -0.341463 0.232329 47 106 141
-0.601026 0.135293 0.310378 68 1 84
-0.305894 0.268536 -0.182969 68 1 84
-0.129640 -0.080057 -0.309989 68 1 84
-0.699804 -0.369978 0.473474 60 78 138
0.485694 0.384292 0.393751 58 82 139
0.359775 0.504309 0.033238 36 133 141
0.509322 0.313233 0.108055 56 86 139
-0.004913 -0.464725 -0.238803 68 1 84
0.215155 0.473492 -0.139295 32 143 140
0.624202 -0.142404 0.219443 39 126 142
0.613468 0.023910 0.392932 65 66 134
-0.451812 -0.417102 -0.136110 67 58 131
0.440312 -0.145772 -0.110416 65 66 134
-0.602230 0.029902 0.147933 68 1 84
-0.082117 -0.233798 -0.308258 68 1 84
0.499039 0.315485 0.078180 49 101 141
0.620730 -0.021617 0.359304 61 74 137
0.429082 -0.163594 -0.114553 67 60 132
-0.696849 -0.331485 0.476444 55 88 140
0.453871 -0.253408 -0.063979 41 121 142
-0.627823 -0.409002 0.150879 36 133 141
-0.491525 0.310576 0.051583 68 1 84
-0.610829 -0.457345 0.109039 31 146 140
0.463078 -0.350341 -0.025331 37 130 142
0.342160 0.421498 -0.062520 36 132 141
0.562912 0.216486 0.260228 62 73 137
0.531729 -0.044565 -0.015050 51 96 141
0.589831 0.120799 0.354710 64 67 135
-0.443385 0.479362 0.187966 68 1 84
-0.060298 0.580394 -0.186589 40 123 142
-0.650163 -0.399593 0.226726 40 123 142
-0.571193 -0.050563 -0.000824 68 1 84
0.282465 -0.033205 -0.196455 68 1 84
-0.287689 -0.361361 -0.176902 69 5 88
-0.223117 0.618819 -0.018433 35 168 131
-0.334369 0.439921 -0.069683 68 1 84
-0.657360 -0.128657 0.444138 70 9 92
0.294884 -0.568747 -0.217166 68 1 84
0.576292 0.077294 0.148163 65 65 134
0.380833 0.358359 -0.073142 57 84 139
0.090236 -0.098481 -0.367995 68 1 84
-0.440436 0.324794 -0.032482 68 1 84
0.564102 -0.027236 0.052841 56 87 140
-0.159471 -0.186346 -0.211195 68 1 84
-0.433213 -0.085014 -0.142314 68 1 84
0.202386 -0.001800 -0.208141 68 1 84
0.205683 -0.418486 -0.180244 68 1 84
-0.376542 0.504466 0.046466 59 80 138
-0.505578 -0.132624 -0.091145 68 1 84
0.608097 -0.076530 0.183131 45 111 142
0.053392 -0.114145 -0.423262 68 1 84
-0.137724 -0.078296 -0.262952 68 1 84
0.337698 0.034393 -0.184937 68 1 84
-0.161916 0.134911 -0.258676 68 1 84
0.474383 0.041893 -0.082943 65 65 134
0.486921 -0.074149 -0.074782 54 91 140
-0.127926 -0.459021 -0.207681 71 17 99
-0.696685 -0.345643 0.451917 58 83 139
-0.449956 0.188847 -0.085186 68 1 84
0.024886 -0.435343 -0.222804 68 1 84
-0.651811 -0.087890 0.483840 69 6 90
0.440227 0.467943 0.208041 55 89 140
0.403194 0.508968 0.206592 33 142 140
0.446211 0.077529 -0.110523 65 66 134
0.492560 -0.510376 -0.061529 35 137 141
-0.494538 0.411418 0.309419 68 1 84
0.123589 -0.103091 -0.233321 68 1 84
-0.445348 0.055172 -0.124626 68 1 84
0.331279 0.150007 -0.182546 69 6 90
-0.196004 0.648231 0.017253 151 216 62
0.521477 0.050748 -0.013881 62 72 136
-0.108179 -0.165204 -0.278510 68 1 84
0.325604 0.567925 0.101015 31 161 135
0.565249 0.202824 0.390444 59 81 138
-0.215722 -0.375365 -0.165147 68 1 84
-0.069396 0.075137 -0.289787 68 1 84
-0.285414 -0.251649 -0.176681 68 1 84
0.482084 -0.379306 -0.013413 34 137 141
-0.646666 -0.065622 0.314311 68 1 84
-0.253026 -0.545945 -0.249008 68 1 84
-0.667310 -0.396478 0.289079 42 117 142
0.320492 -0.582481 -0.212029 68 1 84
-0.245804 0.309018 -0.195005 68 1 84
-0.644948 -0.438281 0.218696 34 139 141
-0.416572 0.485077 0.095273 63 71 136
0.522557 0.012779 -0.020194 65 65 134
0.646928 -0.360837 0.363757 31 146 140
-0.258160 -0.376507 -0.176345 68 3 87
-0.410619 -0.208766 -0.134654 68 1 84
-0.519511 -0.319218 -0.028812 43 115 142
-0.008642 -0.370109 -0.258460 68 1 84
0.104574 -0.085366 -0.340698 68 1 84
-0.227719 -0.094226 -0.200418 68 1 84
0.602364 0.059325 0.313980 70 11 94
0.586934 -0.503061 0.220341 30 156 137
-0.542181 0.115526 0.026882 68 1 84
-0.480233 0.304821 0.022722 68 1 84
-0.514169 0.341590 0.149234 68 1 84
0.641911 -0.238187 0.307028 32 145 140
0.075017 -0.041394 -0.306757 68 1 84
-0.432751 -0.036126 -0.142861 68 1 84
0.381400 0.028469 -0.163722 72 28 110
0.576775 -0.339023 0.116888 31 146 140
0.293970 0.427072 -0.098516 34 139 141
-0.593514 0.159073 0.287768 68 1 84
-0.469378 0.451662 0.320777 68 1 84
-0.603694 -0.518904 0.088974 36 133 141
-0.380042 -0.062343 -0.167818 68 1 84
0.045359 0.307403 -0.320205 68 1 84
0.459371 0.441719 0.207263 65 66 134
0.423741 0.018617 -0.134484 70 47 124
0.145464 0.352594 -0.233885 68 1 84
0.461972 -0.468712 -0.088888 43 116 142
0.499491 -0.568037 -0.054121 39 126 142
0.637276 -0.218985 0.446231 36 132 141
-0.641441 -0.046609 0.306433 68 1 84
-0.634763 -0.494147 0.185522 33 140 141
0.529872 0.010529 -0.008186 61 74 137
0.434266 0.474109 0.239734 46 107 142
-0.629179 -0.005810 0.264136 68 1 84
-0.548808 -0.376547 -0.014826 38 129 142
-0.559520 0.060721 0.031306 68 1 84
0.595276 -0.084980 0.123882 47 105 141
-0.439851 -0.502031 -0.179017 67 59 131
0.182505 0.291076 -0.226732 68 1 84
0.084865 0.564407 -0.192320 50 99 141
0.236802 0.009720 -0.207376 68 1 84
0.418229 0.306826 -0.068247 60 77 138
0.072458 -0.044697 -0.311020 68 1 84
0.520994 -0.379622 0.035887 30 151 138
-0.123026 -0.139582 -0.254156 68 1 84
0.497629 0.361845 0.144055 53 92 140
0.478730 -0.465839 -0.065804 37 131 141
0.567059 0.196447 0.245468 61 74 137
0.553423 -0.507281 0.110481 39 125 142
0.515219 0.339726 0.336363 68 55 129
0.594251 0.049556 0.444467 54 90 140
0.565873 -0.553392 0.159564 46 108 142
-0.325033 0.529120 0.005525 71 39 119
-0.553496 0.288647 0.295757 68 1 84
-0.596280 -0.444162 0.060649 32 144 140
-0.624059 0.038479 0.314893 68 1 84
-0.356677 0.202515 -0.165943 68 1 84
-0.580491 0.176095 0.460241 68 1 84
-0.556981 -0.029169 -0.017718 68 1 84
-0.619976 0.031191 0.255434 68 1 84
-0.668489 -0.222832 0.247348 66 62 133
-0.126124 0.419727 -0.202384 68 3 87
0.106269 0.665875 -0.102252 165 218 53
0.434780 -0.173571 -0.108570 60 78 138
0.511594 0.256863 0.059152 56 86 139
0.052010 0.676332 -0.104987 178 221 44
0.592023 -0.185364 0.102079 42 119 142
0.644912 -0.351811 0.356653 30 154 137
-0.345451 0.272875 -0.156463 68 1 84
-0.600453 -0.040696 0.070569 68 1 84
-0.443027 0.323362 -0.029571 68 1 84
0.533796 0.057217 0.011757 64 68 135
0.416745 -0.248921 -0.093655 56 86 139
-0.234947 -0.258274 -0.176695 68 1 84
-0.601089 0.139013 0.386995 68 1 84
-0.651463 -0.088064 0.470457 71 22 105
-0.499371 0.368793 0.139615 68 1 84
-0.562251 0.243456 0.227128 68 1 84
0.476189 -0.563708 -0.096256 44 114 142
0.392207 0.378133 -0.044377 50 98 141
0.673467 -0.369772 0.459075 31 148 139
-0.534347 0.096461 -0.000485 68 1 84
-0.645114 -0.044187 0.364059 69 6 90
0.188275 -0.488407 -0.200156 68 1 84
-0.561675 0.266552 0.387620 68 1 84
0.022199 -0.283860 -0.312656 68 1 84
0.121484 0.038047 -0.231820 68 1 84
0.323196 -0.022742 -0.186501 68 1 84
0.099892 -0.086569 -0.350233 68 1 84
-0.556653 0.105090 0.056881 68 1 84
0.272206 0.410558 -0.122554 44 114 142
-0.151344 -0.372593 -0.155293 68 1 84
-0.450370 -0.248086 -0.104981 71 43 122
0.581155 -0.313233 0.115672 32 144 140
0.353479 0.008925 -0.177276 68 3 87
-0.265090 -0.390276 -0.178373 69 5 88
0.084024 -0.195002 -0.263693 68 1 84
-0.126067 -0.075280 -0.326177 68 1 84
0.057185 0.437948 -0.228619 71 24 106
-0.029755 -0.010317 -0.327422 68 1 84
-0.080109 -0.287207 -0.270974 68 1 84
0.534135 -0.373593 0.054325 30 152 138
0.276677 0.185259 -0.206619 68 1 84
-0.384250 0.294700 -0.116229 68 1 84
0.098585 -0.185126 -0.245239 68 1 84
0.309312 0.095752 -0.194722 68 1 84
0.579650 -0.360950 0.131318 31 146 140
0.079637 0.330794 -0.290301 68 1 84
-0.374601 0.465554 -0.000257 71 40 120
-0.198033 0.437390 -0.160248 67 60 132
0.564920 -0.023479 0.055798 51 97 141
-0.338715 -0.515426 -0.217298 71 22 105
0.289646 0.321875 -0.155971 71 37 117
0.508210 0.329432 0.443109 48 103 141
-0.546354 0.127845 0.046846 68 1 84
-0.693745 -0.312584 0.456215 54 90 140
0.476816 0.091141 -0.072538 67 59 131
0.365773 -0.097216 -0.157471 70 14 97
-0.518297 0.286215 0.096822 68 1 84
-0.509430 -0.523252 -0.128696 55 89 140
0.130844 -0.040174 -0.231702 68 1 84
0.449512 -0.344243 -0.040298 34 137 141
-0.586707 -0.412298 0.038726 32 144 140
0.069301 -0.166287 -0.369663 68 1 84
0.328103 -0.022238 -0.184997 68 1 84
0.240602 -0.023442 -0.205009 68 1 84
0.512663 0.309532 0.469306 45 110 142
0.043797 -0.435548 -0.211402 68 1 84
-0.684737 -0.233063 0.339391 71 44 123
-0.465833 0.164739 -0.074239 68 1 84
-0.094913 -0.000311 -0.280395 68 1 84
-0.019928 -0.401749 -0.242306 68 1 84
0.379105 0.210301 -0.145258 68 55 129
0.571708 0.040757 0.103570 67 58 131
-0.097765 -0.152799 -0.334980 68 1 84
0.222360 0.566405 -0.105042 30 153 138
-0.575224 0.102411 0.113298 68 1 84
-0.470681 -0.356042 -0.086764 49 100 141
0.641067 -0.193661 0.302342 36 133 141
0.208543 -0.205922 -0.169555 68 1 84
0.141734 0.516719 -0.182794 33 141 140
0.631977 -0.084987 0.403252 54 90 140
0.466636 0.359091 0.049217 56 87 140
0.539783 0.272360 0.188315 64 68 135
-0.356258 0.157193 -0.173396 68 1 84
-0.429665 0.387608 -0.000098 68 1 84
-0.554038 0.283595 0.445793 68 1 84
0.522700 -0.449419 0.020068 32 144 140
0.301984 -0.306323 -0.172971 68 1 84
0.417954 -0.384847 -0.077845 50 98 141
0.240356 0.335848 -0.173441 68 1 84
-0.510771 0.380806 0.262562 68 1 84
0.299416 0.259984 -0.178129 71 21 103
0.516143 -0.332194 0.025856 30 153 138
-0.624332 -0.008236 0.215998 68 1 84
0.275391 0.152113 -0.208824 68 1 84
0.533098 0.298002 0.352549 59 81 138
0.180605 -0.139185 -0.198678 68 1 84
-0.129316 -0.082812 -0.308744 68 1 84
-0.206134 0.174327 -0.245058 68 1 84
0.373747 0.377622 -0.065481 50 99 141
-0.633884 -0.093457 0.160153 68 1 84
-0.041833 0.482985 -0.210483 56 87 140
-0.374689 -0.561772 -0.218522 72 34 115
0.162137 -0.093982 -0.207129 68 1 84
0.645619 -0.250246 0.329610 32 144 140
-0.187485 0.644825 -0.024449 100 203 93
0.136449 0.415319 -0.208572 64 68 135
-0.657962 -0.208868 0.195372 65 65 134
-0.648440 -0.139182 0.190299 71 20 102
0.112057 0.445079 -0.210819 63 71 136
-0.330367 -0.301034 -0.181001 68 1 84
-0.618850 -0.255309 0.087936 57 85 139
-0.127397 -0.089086 -0.307292 68 1 84
0.620923 -0.511166 0.341153 31 148 139
-0.315742 0.442362 -0.083371 68 1 84
-0.237261 -0.003618 -0.211629 68 1 84
-0.534039 0.299285 0.164730 68 1 84
-0.449329 -0.515212 -0.176083 65 66 134
-0.357916 -0.205797 -0.156634 68 1 84
0.261184 -0.314129 -0.182275 68 1 84
0.025941 -0.402239 -0.222839 68 1 84
0.257537 -0.114171 -0.185292 68 1 84
-0.609845 -0.093692 0.071743 68 1 84
-0.434695 0.488717 0.174103 72 28 110
-0.629862 -0.018920 0.237697 68 1 84
0.308791 0.244634 -0.179364 68 1 84
-0.468619 -0.450770 -0.143168 67 60 132
-0.587407 0.141630 0.466183 68 1 84
0.543722 -0.433016 0.068177 30 156 137
-0.523760 -0.322483 -0.025361 48 104 141
-0.548445 0.217109 0.124662 68 1 84
-0.668440 -0.522726 0.289790 36 133 141
0.607049 -0.078912 0.176503 46 108 142
-0.262951 -0.316958 -0.185521 68 1 84
-0.611262 0.091555 0.310144 68 1 84
-0.139535 -0.074083 -0.254752 68 1 84
-0.220915 0.323267 -0.198455 68 1 84
-0.705499 -0.501530 0.463054 34 138 141
0.173015 -0.519211 -0.221972 68 1 84
-0.516901 -0.038615 -0.073312 68 1 84
0.038828 0.587890 -0.193303 42 118 142
-0.614033 0.035989 0.493821 68 1 84
0.582642 0.114604 0.434380 56 86 139
0.500764 0.022671 -0.051581 67 60 132
-0.310280 0.200396 -0.193431 68 1 84
0.363558 0.496302 0.028539 32 143 140
-0.348681 -0.386932 -0.176776 72 29 111
0.630672 -0.085293 0.427094 47 106 141
-0.415676 0.512659 0.273109 58 83 139
-0.445882 0.318688 -0.028057 68 1 84
0.665460 -0.483133 0.475065 31 161 135
-0.636108 -0.013391 0.337945 68 1 84
0.073221 -0.335459 -0.184624 68 1 84
-0.599499 0.060978 0.173527 68 1 84
-0.592192 -0.161832 0.020259 72 30 112
-0.458741 -0.556934 -0.168888 70 47 124
0.600091 -0.545741 0.278487 32 143 140
0.304085 -0.069656 -0.184743 68 1 84
-0.236206 -0.549307 -0.253021 68 1 84
-0.665403 -0.149124 0.423221 68 1 84
-0.643769 -0.047008 0.519094 72 29 111
0.530033 0.167501 0.049968 67 60 132
0.247854 -0.542366 -0.220904 68 1 84
-0.034116 -0.482664 -0.244552 68 1 84
0.447259 0.118532 -0.103379 67 58 131
0.411512 0.448018 0.047419 36 134 141
-0.470629 -0.244667 -0.088880 65 65 134
0.144941 0.440647 -0.195849 67 60 132
-0.693499 -0.313870 0.444400 56 87 140
0.274960 0.589336 0.009656 77 194 107
-0.232237 0.313706 -0.197479 68 1 84
-0.072991 -0.147455 -0.413562 68 1 84
-0.352769 0.529722 0.045184 45 110 142
0.045811 -0.078345 -0.419259 68 1 84
-0.025362 -0.528282 -0.254490 68 1 84
-0.642837 -0.037904 0.480462 68 1 84
0.650621 -0.315434 0.365197 32 164 133
0.484957 -0.323911 -0.008265 32 143 140
0.562981 0.199830 0.214669 66 64 133
-0.663357 -0.160139 0.251821 68 1 84
-0.631083 -0.235805 0.114927 61 75 137
-0.064774 0.352841 -0.272148 68 1 84
-0.440601 0.432403 0.068132 70 12 95
-0.137070 0.093795 -0.255588 68 1 84
0.453883 0.439621 0.318559 47 106 141
0.431175 -0.056033 -0.126271 67 60 132
-0.697015 -0.379208 0.426624 59 80 138
0.351641 -0.055843 -0.171291 68 1 84
-0.223848 0.217294 -0.235353 68 1 84
-0.281408 -0.394859 -0.178441 72 28 110
0.533955 0.237563 0.109739 72 30 112
-0.479108 0.396680 0.116652 68 1 84
0.434686 0.471409 0.163461 61 74 137
-0.231885 -0.103990 -0.196663 68 1 84
-0.075980 0.224222 -0.284648 68 1 84
-0.519578 0.334243 0.158370 68 1 84
0.352815 -0.611217 -0.192162 68 1 84
0.236844 0.032483 -0.208537 68 1 84
0.496238 -0.286303 -0.011495 37 130 142
0.415331 -0.139891 -0.126699 70 48 125
0.422667 0.258536 -0.087983 71 40 120
0.621871 -0.039311 0.330208 62 72 136
0.006869 0.427924 -0.229882 71 44 123
0.657066 -0.396207 0.410394 30 159 136
0.526204 0.309926 0.184369 64 68 135
-0.174239 -0.366027 -0.151363 68 1 84
-0.047325 -0.030431 -0.317141 68 1 84
-0.360332 -0.317617 -0.169074 71 17 99
-0.289604 0.562776 0.001797 53 93 140
-0.567607 0.130733 0.114086 68 1 84
-0.005515 0.448634 -0.224300 61 74 137
-0.570774 0.047450 0.049253 68 1 84
-0.429224 -0.133001 -0.140435 68 1 84
0.448791 -0.292890 -0.053742 41 121 142
-0.005814 -0.157620 -0.436927 68 1 84
0.023001 -0.236651 -0.355509 68 1 84
0.135453 0.031956 -0.223041 68 1 84
-0.203276 0.150853 -0.243793 68 1 84
0.480648 -0.434391 -0.045659 37 130 142
0.191966 0.639699 -0.052826 109 206 88
0.041682 -0.275399 -0.284635 68 1 84
-0.617032 0.064862 0.424653 68 1 84
0.118771 -0.364879 -0.150942 68 2 85
-0.637508 -0.413762 0.184127 35 135 141
-0.156322 -0.459836 -0.200071 70 9 92
0.576646 0.169993 0.373884 70 48 125
-0.073755 -0.183283 -0.377968 68 1 84
0.630087 -0.145796 0.462603 46 108 142
0.116343 0.169583 -0.293223 68 1 84
-0.336252 -0.006722 -0.189084 68 1 84
-0.107998 0.566058 -0.171182 36 134 141
0.176403 0.331124 -0.222560 68 1 84
-0.526919 0.250634 0.088542 68 1 84
0.652989 -0.287973 0.396392 31 148 139
-0.072210 0.301372 -0.298212 68 1 84
-0.424670 0.101972 -0.133673 68 1 84
-0.679428 -0.224358 0.445244 66 61 132
-0.264381 0.572275 -0.019820 50 99 141
0.416982 0.047728 -0.139439 70 49 126
-0.503835 0.392471 0.408387 68 1 84
-0.494380 0.172900 -0.030999 68 1 84
-0.228762 0.022350 -0.214221 68 1 84
0.660193 -0.390254 0.411039 30 158 136
0.602597 -0.098020 0.146568 44 112 142
0.537187 0.238398 0.122486 71 40 120
0.533830 -0.131366 -0.015214 45 111 142
0.598473 0.006735 0.470637 52 94 141
0.662849 -0.402608 0.520061 31 148 139
-0.489052 -0.331735 -0.060395 52 94 141
0.388577 -0.220858 -0.117854 70 48 125
-0.388928 -0.511043 -0.203830 70 48 125
-0.558836 -0.079631 -0.027920 68 1 84
-0.601601 -0.520687 0.082044 47 106 141
0.342305 0.559791 0.140781 44 177 125
-0.585175 -0.056249 0.025024 68 1 84
-0.677412 -0.408476 0.327266 43 115 142
-0.611935 -0.316826 0.091311 44 114 142
0.420785 0.490230 0.173534 50 99 141
-0.549809 -0.501433 -0.060872 61 76 137
-0.473552 -0.143021 -0.114453 68 1 84
-0.421693 -0.227819 -0.127368 71 18 101
0.611364 -0.356678 0.216016 30 158 136
-0.080940 0.582635 -0.178065 42 117 142
0.640943 -0.245690 0.500259 32 144 140
-0.634300 -0.006348 0.331234 69 6 90
0.051355 0.382164 -0.241673 68 2 85
0.338248 0.078498 -0.183763 69 8 91
-0.046679 0.177194 -0.323258 68 1 84
0.608857 0.001670 0.268422 69 53 128
0.625512 -0.079894 0.284694 48 104 141
0.040815 0.299133 -0.322409 68 1 84
0.653512 -0.286619 0.494101 32 143 140
0.142984 0.658483 -0.080072 170 219 50
0.573187 0.142009 0.193307 62 72 136
-0.102025 -0.043988 -0.339016 68 1 84
-0.624936 -0.071819 0.138145 68 1 84
0.396144 -0.016578 -0.153016 71 15 98
-0.574232 0.141543 0.153218 68 1 84
0.638150 -0.414860 0.372665 31 146 140
-0.312563 0.003876 -0.196806 68 1 84
0.020763 -0.248433 -0.345414 68 1 84
-0.594882 0.160983 0.329183 68 1 84
0.192545 -0.404226 -0.173148 68 1 84
-0.101177 0.091687 -0.274811 68 1 84
0.023920 -0.180425 -0.413462 68 1 84
-0.555597 -0.408058 -0.019368 38 129 142
0.499897 -0.334213 0.008453 32 144 140
-0.464082 0.367263 0.043295 68 1 84
-0.452020 0.403467 0.056862 68 3 87
-0.590154 0.147619 0.237319 68 1 84
-0.181086 -0.459542 -0.196088 70 14 97
-0.582265 0.171329 0.456623 68 1 84
0.565056 -0.484968 0.135436 36 134 141
0.322816 -0.386533 -0.154689 68 1 84
0.216669 0.169250 -0.232405 68 1 84
0.547149 0.258065 0.379412 61 75 137
-0.551184 0.091103 0.031540 68 1 84
-0.146580 0.256544 -0.245462 68 1 84
-0.427048 0.499425 0.291085 56 87 140
-0.431733 0.140766 -0.118608 68 1 84
-0.198414 0.526640 -0.119870 34 137 141
-0.612756 0.051987 0.234586 68 1 84
-0.615586 -0.008036 0.163660 68 1 84
0.559909 -0.317618 0.078459 40 123 142
-0.564010 0.254019 0.278483 68 1 84
-0.067702 -0.354103 -0.240626 68 1 84
0.175936 -0.285136 -0.167311 68 1 84
0.195264 0.618712 -0.089041 62 188 115
-0.172835 0.649351 -0.038663 56 185 118
-0.225860 0.621245 -0.008257 35 169 130
-0.072947 0.261960 -0.280816 68 1 84
0.010019 0.152267 -0.329568 68 1 84
0.215997 0.532712 -0.126572 30 156 137
0.142207 -0.329368 -0.160463 68 1 84
-0.101274 0.461583 -0.191751 49 101 141
-0.528885 -0.100874 -0.068947 68 1 84
-0.654009 -0.095700 0.424819 68 1 84
-0.658744 -0.254288 0.197792 66 64 133
0.629936 -0.112643 0.276218 43 115 142
-0.387975 -0.241841 -0.147462 68 1 84
0.585037 -0.181189 0.083715 41 121 142
0.534556 0.301221 0.299930 69 53 128
0.624788 -0.412827 0.308882 30 153 138
0.547022 0.228308 0.154438 71 44 123
-0.521811 0.317005 0.141474 68 1 84
0.307124 0.342227 -0.139809 69 53 128
0.129409 -0.105926 -0.222948 68 1 84
-0.072518 -0.154260 -0.409095 68 1 84
-0.205655 -0.467135 -0.201061 68 1 84
0.610084 0.018319 0.315168 71 20 102
0.162209 -0.357389 -0.156070 68 1 84
0.119050 0.020844 -0.225664 68 1 84
-0.321814 0.262873 -0.174776 68 1 84
0.294947 -0.285468 -0.166317 68 1 84
0.632318 -0.211243 0.242039 39 125 142
0.576904 0.167658 0.382002 66 62 133
-0.371561 0.033673 -0.175565 68 1 84
0.548125 0.248725 0.197497 67 58 131
-0.138747 -0.411069 -0.171589 68 1 84
0.133769 0.064422 -0.242377 68 1 84
-0.700620 -0.407113 0.438546 51 96 141
0.310885 -0.165857 -0.154480 68 1 84
0.616299 -0.107856 0.202080 41 120 142
0.474053 0.418334 0.198175 48 103 141
-0.555298 0.277071 0.451091 68 1 84
-0.597780 0.125242 0.434792 68 1 84
0.611851 -0.059426 0.215936 47 105 141
0.392698 0.111466 -0.152377 68 57 130
-0.374105 0.460760 -0.005891 70 47 124
-0.314245 0.126294 -0.197038 68 1 84
0.419902 0.328243 -0.051097 51 97 141
0.049080 -0.057041 -0.360293 68 1 84
-0.069564 0.478862 -0.200696 52 94 141
-0.560924 -0.316548 0.014737 43 116 142
-0.692697 -0.323539 0.385092 57 85 139
-0.462462 -0.026172 -0.121716 68 1 84
0.320191 0.567920 0.077122 32 165 133
0.123983 -0.036017 -0.287975 68 1 84
0.489856 0.375756 0.402214 51 97 141
0.637457 -0.130809 0.391375 46 107 142
0.539277 -0.342638 0.056458 33 141 140
0.518266 -0.370904 0.032030 30 151 138
0.112128 -0.461190 -0.188390 68 1 84
-0.629738 -0.440050 0.164128 33 141 140
0.574086 -0.154998 0.057294 41 120 142
0.539404 -0.541724 0.071576 56 86 139
-0.039546 0.517011 -0.208258 42 117 142
-0.650791 -0.073014 0.493413 72 34 115
-0.112891 0.180083 -0.292708 68 1 84
-0.444879 -0.503780 -0.176379 63 69 135
-0.552319 -0.263327 -0.006995 51 97 141
0.487569 0.151836 -0.042607 67 59 131
0.431755 0.478138 0.215693 48 104 141
