ply
format ascii 1.0
element vertex 1259
property float x
property float y
property float z
property uchar red
property uchar green
property uchar blue
end_header
-0.462536 -0.036994 -0.080638 66 64 133
0.366728 0.348674 -0.099331 68 1 84
0.634161 0.048733 0.440090 30 159 136
0.329262 0.549727 0.062983 68 1 84
-0.566988 0.245179 0.344765 121 209 81
-0.633280 -0.058930 0.358696 126 210 78
0.456520 0.018142 -0.086895 68 1 84
-0.458875 0.217232 -0.057287 49 101 141
-0.624828 -0.508733 0.415350 48 180 122
-0.408254 0.511418 0.193206 66 61 132
-0.296254 0.518187 -0.068761 68 1 84
-0.478607 -0.366125 0.024559 66 62 133
-0.546887 0.284598 0.237109 30 156 137
-0.049605 -0.032637 -0.445653 68 1 84
-0.274361 -0.446311 -0.220606 71 17 99
-0.619066 -0.386511 0.356025 53 183 120
0.619038 -0.264832 0.144665 62 73 137
-0.364460 0.460498 -0.038032 68 1 84
0.619864 0.077689 0.281767 39 124 142
0.275903 0.225918 -0.203076 68 1 84
-0.277585 0.594385 -0.015740 68 1 84
-0.151149 -0.405231 -0.181127 68 1 84
0.666638 -0.071010 0.356466 32 145 140
0.688362 -0.451584 0.411431 30 157 136
0.450789 0.012198 -0.093612 68 1 84
0.563767 0.044305 0.077884 70 49 126
0.258569 0.574546 -0.017049 68 1 84
0.348665 0.540778 0.080572 68 1 84
-0.620594 -0.352215 0.420659 89 199 100
0.325673 -0.131427 -0.166545 68 1 84
-0.416902 -0.389481 -0.052812 71 42 121
0.670632 -0.212029 0.278722 46 107 142
0.269642 -0.465250 -0.301590 72 28 110
-0.607352 0.069007 0.325275 83 197 103
0.498616 0.019006 -0.037908 68 1 84
-0.491841 0.114877 -0.031473 51 97 141
0.566008 -0.315167 0.062236 65 65 134
-0.613220 -0.044203 0.273373 30 152 138
0.336893 0.337017 -0.131670 68 1 84
-0.111438 0.103178 -0.285578 68 1 84
0.541653 0.329049 0.479009 35 136 141
0.152343 -0.287342 -0.171764 68 1 84
0.609541 -0.135218 0.126872 60 77 138
0.167188 -0.229674 -0.207977 68 1 84
0.668009 -0.241425 0.434576 42 176 126
0.223825 -0.315405 -0.141265 68 1 84
-0.581521 0.184056 0.299895 85 198 102
0.631554 -0.386340 0.202792 46 108 142
-0.500772 -0.174918 -0.028738 61 76 137
0.340992 0.135337 -0.161474 68 1 84
-0.137415 0.046582 -0.240606 68 1 84
0.249668 -0.050645 -0.211879 68 1 84
0.594381 0.177234 0.282175 40 122 142
-0.479629 0.384295 0.100260 47 105 141
0.682121 -0.399284 0.470171 32 164 133
0.035293 0.543375 -0.238527 68 1 84
0.275317 -0.351152 -0.135902 68 1 84
-0.447587 0.474157 0.232592 42 119 142
0.612391 0.081449 0.500030 51 182 121
0.086916 -0.235460 -0.339367 68 1 84
-0.041040 0.122410 -0.316192 68 1 84
-0.628463 -0.158323 0.279680 42 176 126
-0.228876 0.581340 -0.120476 68 1 84
0.109445 0.619205 -0.162530 68 1 84
-0.476874 0.393158 0.105316 48 104 141
0.361541 -0.341874 -0.115108 68 1 84
0.481042 0.221177 -0.020663 68 1 84
-0.465281 0.294751 -0.016368 48 104 141
0.653122 -0.139867 0.224399 46 108 142
0.317207 0.207616 -0.168171 68 1 84
-0.318010 0.562324 0.042146 68 1 84
-0.389591 0.391951 -0.067275 70 9 92
-0.027701 -0.015782 -0.346177 68 1 84
-0.449314 0.092693 -0.085085 60 77 138
-0.512770 -0.123674 -0.013029 51 97 141
0.001414 -0.124417 -0.474954 70 12 95
-0.581071 -0.235325 0.153055 38 128 142
-0.233171 0.271911 -0.185613 68 1 84
0.132701 -0.112775 -0.296782 68 1 84
0.669507 -0.277901 0.400864 30 159 136
0.006931 -0.122727 -0.474418 70 9 92
0.364121 -0.352193 -0.132265 68 1 84
-0.069376 -0.421814 -0.291097 71 24 106
-0.553355 0.260849 0.230592 33 166 133
0.187695 0.635263 -0.036991 68 1 84
0.576188 -0.032905 0.082781 68 55 129
0.462698 0.217756 -0.044595 68 1 84
-0.324265 0.083293 -0.185727 70 12 95
0.655405 -0.185857 0.488289 32 164 133
0.640164 -0.189962 0.186430 57 85 139
-0.162351 0.308290 -0.235160 68 1 84
0.568734 -0.196748 0.038441 69 50 127
0.635539 -0.307870 0.192913 46 109 142
-0.469486 -0.132682 -0.072062 60 78 138
-0.321948 -0.200196 -0.154779 68 1 84
0.197801 -0.366953 -0.139856 68 1 84
-0.581219 0.210546 0.488179 253 231 36
-0.135605 0.125566 -0.274653 68 1 84
-0.334552 0.540163 0.027276 68 1 84
-0.457439 -0.535802 -0.056490 56 86 139
0.658043 -0.042542 0.311938 40 122 142
0.235552 0.216346 -0.223580 68 1 84
-0.616369 -0.024269 0.497851 236 228 26
0.416194 0.528757 0.281408 71 42 121
0.624931 0.087801 0.446971 30 159 136
-0.602207 0.134797 0.391968 159 217 56
0.515467 0.389567 0.336092 51 96 141
-0.477815 0.068511 -0.052340 54 91 140
0.302780 0.588405 0.125596 68 1 84
0.680488 -0.490450 0.358396 32 164 133
0.503661 0.167941 -0.009204 72 28 110
-0.409608 -0.208878 -0.109293 70 47 124
0.355663 0.410548 -0.069616 68 1 84
-0.270047 -0.046526 -0.211418 68 1 84
-0.101573 -0.117834 -0.401008 68 2 85
-0.045459 0.522985 -0.249859 68 1 84
0.163529 -0.218587 -0.220760 68 1 84
-0.132145 -0.017836 -0.314430 68 1 84
0.121577 0.142469 -0.278547 68 1 84
0.251457 0.320903 -0.171289 68 1 84
-0.432511 0.224199 -0.090415 65 66 134
-0.498660 0.144098 -0.018673 47 105 141
-0.510046 0.368947 0.229887 30 153 138
0.615092 0.147849 0.377275 30 158 136
0.212984 0.217546 -0.228183 68 1 84
-0.036939 0.263718 -0.269828 68 1 84
0.041510 0.488564 -0.229855 68 1 84
-0.622733 -0.000501 0.439765 205 224 29
0.655643 -0.123345 0.458426 30 159 136
0.401397 0.388973 -0.034156 68 1 84
0.653684 -0.042978 0.425759 30 152 138
0.245325 0.552103 -0.068089 68 1 84
0.435484 -0.496571 -0.208008 72 35 116
-0.547467 0.215030 0.151873 32 143 140
-0.554443 0.274357 0.310062 91 200 98
-0.355067 0.044943 -0.171891 71 40 120
0.464672 0.473198 0.253114 58 82 139
0.492959 0.252857 0.009854 71 37 117
0.562754 0.269855 0.256265 46 108 142
0.160053 -0.410728 -0.227605 68 1 84
-0.401642 0.411549 -0.032850 69 5 88
0.274205 -0.102879 -0.195471 68 1 84
-0.116532 0.452347 -0.206587 68 1 84
-0.171762 -0.224832 -0.193861 68 1 84
0.140058 -0.037727 -0.313655 68 1 84
0.429110 0.517330 0.283407 66 62 133
0.034885 0.259863 -0.263287 68 1 84
-0.540172 -0.433873 0.128416 42 117 142
0.323041 0.115618 -0.174254 68 1 84
-0.480334 0.366654 0.076788 56 86 139
0.193694 0.168152 -0.246330 68 1 84
0.158323 -0.043503 -0.224711 68 1 84
-0.576155 -0.272133 0.151655 31 150 139
-0.609738 -0.138856 0.552468 220 226 24
-0.578542 -0.008969 0.190012 38 128 142
0.570336 0.125871 0.153744 62 73 137
-0.498167 0.393455 0.344761 34 167 132
0.388429 0.247048 -0.111433 68 1 84
0.073191 0.367916 -0.255066 68 1 84
0.594960 0.169585 0.276205 38 128 142
-0.581451 -0.063202 0.175201 34 137 141
0.669704 -0.344207 0.327380 34 137 141
-0.560034 -0.028615 0.108958 42 118 142
0.371946 0.094041 -0.149520 68 1 84
0.319905 0.290898 -0.158167 68 1 84
0.670786 -0.242866 0.418838 32 164 133
0.310315 -0.007368 -0.192474 68 1 84
-0.055474 -0.368141 -0.281459 72 26 108
0.484123 -0.081902 -0.070892 72 33 114
-0.567843 -0.129738 0.110366 40 122 142
-0.058960 0.665895 -0.151285 68 1 84
-0.113292 0.246633 -0.242008 68 1 84
-0.569623 -0.177129 0.114589 39 124 142
-0.496293 -0.532538 0.041009 51 96 141
-0.479032 0.431649 0.262579 30 158 136
-0.602152 -0.131765 0.209375 31 150 139
0.660895 -0.192342 0.465311 30 160 135
0.551347 0.267600 0.187785 46 107 142
-0.499448 0.172721 -0.009450 47 106 141
-0.508975 0.373550 0.349466 50 181 122
-0.082034 -0.066331 -0.442050 68 1 84
0.325558 0.418645 -0.091360 68 1 84
-0.627912 -0.099685 0.299080 64 189 114
-0.455035 -0.288302 -0.030838 59 81 138
-0.474977 -0.428681 0.008443 64 67 135
-0.067212 0.666753 -0.148309 68 1 84
-0.473077 0.429920 0.333380 31 161 135
0.594874 0.173899 0.280525 39 125 142
0.469754 0.447655 0.181051 65 66 134
0.330556 -0.043112 -0.182601 68 1 84
0.641326 0.046699 0.356564 31 148 139
0.458705 -0.031397 -0.090106 68 1 84
-0.089267 -0.302815 -0.248986 68 1 84
0.295656 -0.315555 -0.136456 68 1 84
0.640456 0.051091 0.362338 31 148 139
-0.431707 -0.354744 -0.020247 71 40 120
0.707181 -0.470000 0.490577 42 176 126
-0.514062 0.261944 0.068184 40 123 142
0.433348 0.211757 -0.078825 68 1 84
0.563158 -0.346638 0.062023 69 53 128
0.650421 -0.156578 0.508333 30 157 136
0.276528 -0.236133 -0.148949 68 1 84
0.319526 0.457994 -0.065322 68 1 84
0.569409 -0.260922 0.053324 66 62 133
0.679012 -0.389658 0.431148 31 150 139
-0.029208 -0.019030 -0.351189 68 1 84
0.671208 -0.356928 0.545092 85 198 102
-0.569797 0.240565 0.488548 191 223 36
-0.494640 0.297163 0.043381 43 115 142
-0.480435 0.418142 0.189376 38 128 142
0.152301 0.440200 -0.179030 68 1 84
-0.520641 0.182141 0.039008 35 136 141
-0.274397 -0.332059 -0.136892 71 21 103
-0.269603 0.390479 -0.144213 68 1 84
-0.626994 -0.329040 0.357107 71 192 110
-0.309202 -0.444969 -0.207046 72 28 110
0.583471 -0.392136 0.091057 67 60 132
-0.374874 -0.400026 -0.112106 70 14 97
0.156202 0.521953 -0.160583 68 1 84
0.247779 0.526923 -0.083051 68 1 84
-0.613770 -0.194121 0.540472 109 206 88
-0.522913 -0.168754 0.007406 56 86 139
0.608531 -0.180826 0.117456 64 68 135
-0.065297 0.121730 -0.310974 68 1 84
-0.020556 -0.474551 -0.346632 71 44 123
0.563917 -0.373736 0.061256 63 71 136
0.368583 0.539632 0.118712 71 15 98
0.654330 -0.048305 0.426251 30 155 137
-0.280797 0.391510 -0.138376 68 1 84
0.590445 0.038866 0.161181 65 65 134
0.695189 -0.429817 0.497501 33 166 133
-0.561952 -0.067873 0.107638 35 136 141
0.388155 0.464045 0.026292 68 1 84
-0.571125 -0.419911 0.195153 35 136 141
-0.127097 0.173354 -0.275388 68 1 84
0.503535 -0.470783 -0.118075 67 58 131
-0.155958 0.056224 -0.235332 68 1 84
-0.091491 0.187464 -0.285573 68 1 84
0.058556 -0.372850 -0.315905 70 14 97
0.561208 0.085596 0.091946 69 50 127
0.527334 -0.109169 -0.025742 72 28 110
0.155612 -0.389062 -0.172577 68 1 84
0.443487 0.501796 0.293775 68 55 129
-0.561617 0.018506 0.131257 42 117 142
-0.282501 -0.149259 -0.187554 68 1 84
-0.634558 -0.233016 0.431678 98 202 95
-0.504164 0.201908 0.009403 43 116 142
0.527077 -0.398316 -0.010562 67 60 132
-0.315077 -0.162996 -0.170629 68 1 84
-0.283062 -0.110767 -0.199259 69 5 88
-0.054891 0.050059 -0.314812 68 1 84
-0.033521 0.351806 -0.269193 68 1 84
0.671586 -0.299976 0.342711 34 137 141
-0.549347 0.145564 0.123856 34 139 141
-0.467836 -0.348083 0.009551 67 60 132
-0.423705 -0.468531 -0.139359 61 74 137
-0.569837 0.229808 0.501140 167 219 51
0.463075 0.399730 0.086995 68 1 84
-0.463162 0.454691 0.213356 53 93 140
-0.631282 -0.189539 0.443394 136 213 71
-0.510556 0.178603 0.013638 41 121 142
0.269290 -0.421907 -0.228420 69 5 88
0.471035 0.281984 -0.006490 71 37 117
0.261251 0.455756 -0.114773 68 1 84
0.102963 0.055329 -0.265845 68 1 84
0.389877 -0.322019 -0.091617 68 3 87
-0.568634 -0.518711 0.210106 34 137 141
-0.240136 0.630149 -0.015950 68 1 84
0.105579 -0.318154 -0.269562 68 1 84
-0.048196 0.363318 -0.260576 68 1 84
0.101980 0.466964 -0.190840 68 1 84
-0.252809 0.617267 -0.027859 68 1 84
0.445096 -0.359760 -0.079474 69 8 91
0.174438 0.179394 -0.250863 68 1 84
0.394709 -0.215634 -0.111812 68 1 84
0.677115 -0.195773 0.377058 33 142 140
0.098578 -0.329454 -0.281561 68 1 84
0.087852 -0.210068 -0.356211 68 1 84
-0.196504 0.453158 -0.160763 68 1 84
0.409254 0.087656 -0.121566 68 1 84
0.530052 0.360965 0.361192 31 146 140
-0.614097 0.037346 0.329314 75 194 108
-0.413154 0.246283 -0.107818 63 69 135
0.311149 0.471829 -0.062901 68 1 84
0.627527 -0.140121 0.163567 53 92 140
-0.331690 0.001392 -0.187382 71 43 122
-0.513265 0.367176 0.292293 42 176 126
-0.128345 -0.003032 -0.265787 68 1 84
-0.515412 -0.514797 0.081952 49 102 141
0.616913 -0.313533 0.148041 57 84 139
-0.290007 -0.145487 -0.186463 68 1 84
-0.427509 -0.501653 -0.146359 60 78 138
0.657912 -0.473031 0.278923 33 142 140
-0.573843 -0.142927 0.126308 38 127 142
-0.505559 -0.522069 0.061286 55 88 140
0.100620 -0.135888 -0.379022 68 1 84
0.673466 -0.169615 0.401243 30 153 138
0.085629 0.665365 -0.107042 68 1 84
0.342210 0.423831 -0.072404 68 1 84
-0.488545 0.402382 0.379862 31 163 134
0.077156 0.404227 -0.227932 68 1 84
0.366697 0.503810 0.041215 68 1 84
0.068384 0.500952 -0.217598 68 1 84
0.533106 -0.420598 -0.017216 62 73 137
0.249565 0.445762 -0.126696 68 1 84
0.349389 0.191123 -0.148087 68 1 84
-0.382323 0.297562 -0.124274 68 1 84
0.502560 -0.307777 -0.001503 61 74 137
-0.034744 0.292963 -0.283446 68 1 84
0.496914 0.307476 0.056017 72 34 115
0.383848 0.047148 -0.146629 68 1 84
0.130364 -0.257120 -0.255123 68 1 84
0.155003 0.647433 -0.070677 68 1 84
-0.534799 0.299494 0.190730 31 146 140
0.267403 0.248370 -0.201156 68 1 84
0.405882 -0.293014 -0.082078 71 17 99
-0.126235 -0.427133 -0.226073 68 1 84
-0.196448 0.509362 -0.161536 68 1 84
-0.482733 0.015382 -0.049857 56 86 139
0.048276 -0.178123 -0.423115 68 1 84
-0.306672 0.563988 0.006085 68 1 84
0.340634 0.561250 0.115420 68 2 85
-0.495253 -0.416895 0.048173 64 68 135
0.311731 0.582336 0.120693 68 1 84
-0.616995 -0.020609 0.469658 199 224 31
0.299234 -0.333135 -0.133274 68 1 84
-0.289329 -0.364726 -0.131172 71 21 103
0.438512 0.103424 -0.091224 68 1 84
0.575276 0.043294 0.113910 64 68 135
0.052149 -0.404016 -0.316745 71 20 102
0.259610 0.189505 -0.215109 68 1 84
-0.550427 -0.078228 0.068232 39 125 142
-0.059636 -0.049732 -0.459049 68 1 84
-0.600457 -0.340515 0.236262 31 161 135
-0.582634 0.020207 0.211157 33 142 140
0.627725 0.065680 0.451501 30 159 136
0.433735 -0.179305 -0.105656 68 1 84
0.494405 -0.397638 -0.083424 71 43 122
0.208014 -0.446244 -0.314772 72 33 114
0.011200 -0.020987 -0.435397 68 1 84
0.149070 -0.294792 -0.169109 68 1 84
-0.071893 -0.296413 -0.295702 68 1 84
-0.614284 -0.082627 0.260191 35 169 130
0.151399 0.512617 -0.164175 68 1 84
0.392412 0.512417 0.107048 69 5 88
-0.057037 0.226897 -0.265343 68 1 84
0.233299 -0.460707 -0.317907 72 29 111
0.163544 0.022533 -0.219415 68 1 84
-0.429970 0.104252 -0.105260 65 66 134
-0.405418 0.420362 -0.018500 68 3 87
0.290855 0.212283 -0.191502 68 1 84
0.651073 -0.005254 0.416526 31 149 139
-0.559038 -0.567169 0.186509 41 121 142
0.676535 -0.185443 0.351557 32 143 140
-0.091816 0.469228 -0.228102 68 1 84
0.079520 -0.423466 -0.312128 68 1 84
-0.141851 -0.025169 -0.300241 68 1 84
0.577621 0.210625 0.248855 42 118 142
-0.443121 -0.162649 -0.094852 69 53 128
-0.574248 0.231642 0.380077 114 207 85
0.331382 0.278096 -0.153176 68 1 84
-0.181732 0.628429 -0.132682 68 1 84
-0.283474 -0.366088 -0.132348 70 9 92
-0.263106 -0.473705 -0.255204 66 64 133
0.251171 0.510608 -0.090699 68 1 84
0.706151 -0.458180 0.514909 30 151 138
0.601263 0.145712 0.506659 54 184 119
-0.476808 -0.518075 -0.007538 58 83 139
-0.568040 -0.050583 0.137669 44 114 142
-0.287643 0.057050 -0.201796 68 1 84
0.562593 -0.225321 0.034016 68 55 129
0.027598 -0.239275 -0.392678 71 15 98
0.551110 0.313602 0.469828 30 160 135
0.081444 -0.335023 -0.310241 68 1 84
-0.165037 0.484053 -0.180867 68 1 84
0.668719 -0.088810 0.389535 33 142 140
0.130713 -0.429749 -0.301414 68 1 84
-0.530826 -0.122828 0.020380 46 109 142
-0.348068 0.491657 -0.027620 68 1 84
-0.615189 -0.467150 0.365544 35 169 130
-0.575996 0.212674 0.500942 207 225 28
-0.065409 -0.038390 -0.357385 68 1 84
-0.503781 -0.199793 -0.018481 61 75 137
0.611277 0.080488 0.539966 32 164 133
-0.563844 -0.092780 0.105368 39 125 142
-0.260707 -0.462211 -0.239030 72 33 114
0.581210 0.227764 0.295427 45 111 142
0.273832 -0.156269 -0.177149 68 1 84
0.393133 0.464613 0.034649 68 1 84
-0.512315 -0.573824 0.082796 58 83 139
0.351658 0.417922 -0.067757 68 1 84
-0.284360 -0.133932 -0.192036 68 1 84
-0.095564 -0.323937 -0.193490 68 1 84
0.125295 -0.077717 -0.353582 68 1 84
0.528107 0.079524 0.011660 71 38 118
0.071023 0.242957 -0.249481 68 1 84
0.028319 -0.440992 -0.336440 69 5 88
0.313151 0.472979 -0.059932 68 1 84
-0.051136 0.173503 -0.306586 68 1 84
-0.128408 -0.136893 -0.268395 68 1 84
-0.598184 0.046834 0.264859 30 157 136
-0.583016 -0.110409 0.162946 35 136 141
0.034915 0.590031 -0.223556 68 1 84
-0.564234 0.262488 0.443336 126 210 78
0.561767 0.015897 0.062337 70 45 124
0.248275 -0.284874 -0.146234 68 1 84
0.629789 0.033880 0.461659 30 158 136
-0.538011 0.315384 0.450806 162 218 55
-0.456293 0.465532 0.232012 49 102 141
0.216436 0.627138 0.020404 68 1 84
0.625423 0.104255 0.421189 33 167 132
0.183912 -0.312082 -0.143555 68 1 84
0.111209 0.331031 -0.246834 68 1 84
0.267848 -0.310942 -0.140145 68 1 84
-0.129600 -0.002865 -0.246933 68 1 84
0.662907 -0.150893 0.256437 51 96 141
-0.511039 -0.021374 -0.008770 51 96 141
0.241173 0.482869 -0.112581 68 1 84
0.671046 -0.309001 0.329919 31 148 139
0.430975 0.208186 -0.081891 68 1 84
-0.546396 0.155076 0.114178 34 139 141
-0.312501 0.112141 -0.189140 68 1 84
0.190728 -0.197996 -0.199423 68 1 84
-0.531516 0.013153 0.031002 46 107 142
-0.294878 0.541518 -0.052931 68 1 84
-0.271710 -0.173605 -0.180880 68 1 84
-0.422920 -0.544605 -0.137106 67 60 132
-0.587298 -0.508258 0.249295 34 137 141
0.134759 -0.008876 -0.240241 68 1 84
-0.456557 -0.534494 -0.059690 54 91 140
-0.645507 -0.218198 0.372660 71 192 110
-0.616410 -0.210567 0.500348 96 201 96
-0.405655 0.338517 -0.083277 66 64 133
-0.478107 -0.377309 0.025101 67 58 131
0.298631 0.544218 0.003811 68 1 84
-0.520565 -0.307285 0.051013 52 94 141
-0.434339 -0.494634 -0.133752 57 84 139
-0.146513 0.532824 -0.209709 68 1 84
-0.236900 0.144736 -0.230585 68 1 84
-0.610146 -0.353688 0.531856 136 213 71
-0.616965 -0.173661 0.485553 112 206 86
0.527056 0.313341 0.148888 65 65 134
-0.358294 0.537132 0.091137 68 1 84
0.567450 -0.011433 0.068495 63 71 136
-0.615282 -0.339469 0.275398 40 174 127
-0.121898 -0.393665 -0.163414 68 1 84
-0.543941 0.164229 0.106772 33 140 141
0.338899 -0.324301 -0.126353 68 1 84
0.106619 -0.365497 -0.246759 68 1 84
-0.507936 -0.463554 0.069384 54 91 140
-0.597380 0.049688 0.263811 31 163 134
-0.501594 -0.397514 0.057568 57 84 139
-0.611339 -0.092241 0.485647 154 216 60
0.203037 0.008847 -0.213428 68 1 84
-0.386151 -0.576440 -0.182349 70 45 124
-0.423151 0.291579 -0.081193 56 86 139
0.660426 -0.029355 0.377628 35 135 141
-0.255986 0.350315 -0.161794 68 1 84
-0.227923 0.101022 -0.222158 68 1 84
0.674183 -0.182497 0.311988 38 129 142
-0.056713 0.062915 -0.315050 68 1 84
-0.538270 -0.024813 0.044075 41 120 142
-0.109679 0.361730 -0.256379 68 1 84
0.650024 -0.087311 0.242524 48 103 141
-0.585350 -0.234131 0.163738 38 128 142
-0.539902 -0.243056 0.056668 51 97 141
-0.317149 -0.253860 -0.133316 72 30 112
-0.521377 0.033544 0.013398 52 95 141
0.549903 0.245941 0.156179 54 90 140
-0.052331 -0.114421 -0.472085 69 8 91
0.200049 -0.435662 -0.300669 70 9 92
0.377537 -0.169891 -0.137562 68 1 84
0.087562 0.392397 -0.233102 68 1 84
-0.474879 0.357772 0.050026 53 93 140
0.086183 -0.423822 -0.308776 68 1 84
0.632348 -0.122350 0.177510 56 86 139
-0.397171 -0.374157 -0.052524 72 33 114
0.601491 -0.512334 0.121540 52 95 141
0.242049 -0.445233 -0.296233 72 29 111
-0.502778 -0.414168 0.059817 62 72 136
0.652180 -0.094733 0.245344 46 107 142
-0.143257 -0.085139 -0.262491 68 1 84
0.639243 -0.433433 0.229896 37 130 142
0.664913 -0.257940 0.264754 40 122 142
-0.245663 0.624397 -0.021794 68 1 84
0.426356 0.349132 -0.025038 68 1 84
-0.337067 -0.458741 -0.209464 66 61 132
0.272697 -0.345804 -0.134650 68 1 84
0.481416 0.199087 -0.027316 71 15 98
-0.235121 -0.076221 -0.218090 68 1 84
-0.172051 0.479390 -0.175055 68 1 84
-0.431436 -0.552535 -0.115433 59 81 138
-0.588832 0.185611 0.388610 141 214 68
-0.511007 -0.207015 -0.005923 57 84 139
-0.120497 -0.424348 -0.224152 68 1 84
-0.101766 -0.215201 -0.285859 68 1 84
-0.571510 -0.232203 0.127143 43 116 142
0.617442 -0.428177 0.168617 41 120 142
0.617679 0.117462 0.455503 83 197 103
0.380406 -0.226863 -0.114401 68 1 84
-0.612895 -0.304968 0.477364 109 206 88
0.564615 0.258655 0.243681 47 106 141
0.645346 -0.277507 0.209631 52 95 141
-0.526598 0.196219 0.063127 39 125 142
-0.306880 0.030323 -0.197627 70 9 92
0.638513 -0.390991 0.224894 40 122 142
-0.614196 0.079765 0.403962 159 217 56
0.111678 -0.247716 -0.291836 68 1 84
0.012092 -0.012579 -0.394559 68 1 84
-0.643629 -0.195581 0.340915 69 191 111
-0.141521 -0.467264 -0.328401 71 37 117
0.454132 0.486003 0.319694 60 78 138
0.578031 -0.087415 0.068501 69 50 127
-0.517682 0.300105 0.119565 41 120 142
0.138733 -0.096529 -0.289985 68 1 84
0.130950 0.229043 -0.235988 68 1 84
0.667862 -0.081019 0.348765 32 143 140
0.550395 0.153928 0.094416 66 61 132
-0.261280 -0.264089 -0.149667 68 1 84
-0.546616 0.164866 0.118777 36 132 141
0.599833 0.191487 0.406707 33 167 132
-0.164312 -0.251674 -0.181341 68 1 84
0.660222 -0.223898 0.474651 32 165 133
0.078430 -0.375275 -0.297944 69 8 91
-0.608779 -0.555521 0.354015 30 153 138
0.569640 0.177914 0.185097 50 99 141
-0.315500 0.480178 -0.074879 68 1 84
0.148335 0.393392 -0.199697 68 1 84
-0.607059 -0.287378 0.491292 71 192 110
0.693403 -0.435638 0.468796 47 179 123
0.686897 -0.449091 0.394973 32 145 140
-0.410393 0.289265 -0.098489 61 75 137
0.143325 0.032776 -0.228624 68 1 84
0.559902 -0.313596 0.054074 67 59 131
0.518972 0.038366 -0.007609 72 30 112
0.174224 -0.161108 -0.229728 68 1 84
0.117991 0.650930 -0.114074 68 1 84
-0.022194 -0.205500 -0.419605 68 2 85
0.585186 -0.127519 0.072991 69 53 128
-0.505178 0.378639 0.230725 31 149 139
0.562667 0.272399 0.493513 40 174 127
0.278415 -0.045647 -0.203739 68 1 84
-0.567327 -0.055606 0.131742 35 135 141
-0.295511 0.071347 -0.198221 68 2 85
0.050106 -0.355508 -0.327171 69 8 91
-0.305886 0.258664 -0.184459 68 1 84
0.345266 -0.005842 -0.175359 68 1 84
-0.077706 0.479600 -0.238506 68 1 84
0.530605 0.362643 0.329484 37 130 142
-0.170942 0.014480 -0.218106 68 1 84
-0.196956 0.339576 -0.203762 68 1 84
0.127397 -0.410866 -0.261280 68 1 84
0.514280 0.383167 0.466477 42 117 142
-0.603390 0.126357 0.492814 243 229 30
-0.614066 0.089283 0.451252 170 219 50
0.374739 0.529580 0.108658 68 1 84
0.165903 0.641221 -0.067515 68 1 84
-0.286380 0.415061 -0.127249 68 1 84
0.104494 -0.028620 -0.363808 68 1 84
0.334521 0.184653 -0.157579 68 1 84
0.572665 -0.344763 0.075359 64 67 135
0.128660 -0.226918 -0.271994 68 1 84
0.153701 0.279457 -0.207651 68 1 84
-0.625492 -0.541281 0.416471 35 169 130
0.551825 0.217278 0.139214 56 86 139
0.628893 -0.060507 0.537627 35 169 130
0.436053 -0.397548 -0.153274 71 38 118
-0.514621 -0.565932 0.086467 55 89 140
-0.091277 -0.037778 -0.383912 68 1 84
0.335527 -0.200959 -0.142082 68 1 84
-0.566289 0.128205 0.192731 31 161 135
0.432447 0.517748 0.263222 70 47 124
-0.111939 -0.492853 -0.347704 71 37 117
0.481221 0.082027 -0.048311 69 6 90
0.289636 0.098850 -0.191906 68 1 84
-0.390490 0.376743 -0.078302 70 12 95
-0.128004 -0.355133 -0.137667 68 1 84
0.508027 -0.090002 -0.047199 72 30 112
0.530712 0.344460 0.219797 44 113 142
-0.510874 0.245405 0.047296 39 125 142
0.469844 0.196522 -0.041715 68 1 84
0.609912 -0.320498 0.134309 59 81 138
-0.221362 -0.262393 -0.158124 68 1 84
-0.600584 0.131764 0.367543 116 208 84
-0.105737 -0.495978 -0.348184 66 61 132
-0.148272 0.539258 -0.208544 68 1 84
-0.157843 0.111026 -0.259449 68 1 84
-0.412283 0.339461 -0.074466 62 73 137
0.080065 0.385116 -0.241537 68 1 84
-0.317919 -0.549832 -0.257350 58 82 139
0.588344 -0.236000 0.080478 64 67 135
-0.629798 -0.279172 0.421966 83 197 103
-0.217845 -0.516277 -0.316112 64 68 135
0.408857 0.433363 0.019909 68 1 84
0.384050 -0.372514 -0.179618 71 21 103
-0.618124 -0.004273 0.315269 47 179 123
-0.576029 0.138979 0.234257 39 173 128
-0.012577 -0.010160 -0.360565 68 1 84
0.659456 -0.324812 0.482672 51 182 121
-0.573070 -0.521527 0.220422 33 141 140
-0.570516 0.223094 0.304874 81 196 104
-0.547382 -0.569900 0.157193 45 110 142
-0.235393 0.629119 -0.049242 68 1 84
0.056260 -0.037147 -0.353427 68 1 84
0.472534 -0.042554 -0.077690 68 1 84
-0.479668 0.429071 0.234899 34 138 141
-0.500249 -0.046582 -0.028589 55 89 140
-0.142698 -0.158162 -0.245754 68 1 84
-0.165376 -0.258854 -0.176373 68 1 84
0.190282 -0.187654 -0.205491 68 1 84
0.148193 0.246077 -0.214290 68 1 84
0.447368 -0.363534 -0.084351 69 8 91
0.154552 0.648930 -0.063685 68 1 84
0.550949 0.255545 0.170894 50 98 141
0.516794 -0.509750 -0.084742 71 43 122
-0.412139 -0.144260 -0.123379 69 53 128
-0.505813 0.375959 0.218798 32 143 140
-0.110866 0.184657 -0.279876 68 1 84
0.395572 -0.003840 -0.143080 68 1 84
-0.336079 0.132635 -0.174738 72 30 112
0.023872 -0.428955 -0.331618 68 1 84
0.217801 0.112638 -0.223024 68 1 84
0.506093 0.396713 0.240834 45 111 142
-0.519620 0.190189 0.040182 36 134 141
-0.523535 0.301980 0.146664 32 143 140
0.015976 -0.317071 -0.351517 71 20 102
0.164827 0.516501 -0.153499 68 1 84
0.540464 -0.407993 0.009819 66 64 133
0.222190 -0.095031 -0.213718 68 1 84
-0.604522 -0.058063 0.240193 30 158 136
-0.230893 0.122802 -0.227464 68 1 84
-0.630671 -0.300990 0.320969 56 185 118
0.658651 -0.319249 0.472780 42 176 126
0.110886 -0.070881 -0.385325 68 1 84
-0.370148 -0.126192 -0.155224 67 60 132
0.381373 0.495358 0.053685 68 1 84
-0.389622 0.217944 -0.131059 68 57 130
0.180723 0.536548 -0.138652 68 1 84
-0.528431 0.082449 0.032084 54 91 140
-0.231452 -0.193889 -0.182704 68 1 84
0.164572 0.339197 -0.204638 68 1 84
-0.485688 0.418998 0.256663 31 147 139
-0.274404 0.244644 -0.203575 68 1 84
-0.441122 -0.570690 -0.084692 55 88 140
-0.499858 0.202150 0.001534 44 112 142
0.097156 -0.035073 -0.381858 68 1 84
0.279279 -0.448390 -0.269026 71 22 105
0.097389 0.308678 -0.257029 68 1 84
-0.158150 0.484430 -0.185563 68 1 84
0.589489 0.012925 0.142130 60 78 138
-0.498320 0.262480 0.028562 39 126 142
-0.194860 0.380275 -0.194662 68 1 84
-0.635243 -0.056882 0.390838 186 222 39
0.581320 0.108160 0.181140 60 78 138
0.363078 0.300409 -0.122993 68 1 84
0.050318 -0.182145 -0.419481 68 1 84
0.541064 0.328797 0.268056 42 117 142
-0.339283 0.555090 0.093958 68 1 84
0.300472 0.383196 -0.129362 68 1 84
0.539306 0.283944 0.156275 61 74 137
-0.458869 0.452824 0.180856 53 92 140
-0.042451 0.228064 -0.270248 68 1 84
-0.089379 0.409218 -0.228943 68 1 84
0.671779 -0.106301 0.350136 30 151 138
-0.281202 0.592865 -0.004138 68 1 84
0.629002 -0.070745 0.481170 39 173 128
-0.188362 0.036167 -0.218217 68 1 84
0.239779 -0.050139 -0.214041 68 1 84
-0.374397 -0.176540 -0.141176 70 47 124
-0.069787 -0.153180 -0.431413 71 20 102
-0.511004 -0.399902 0.071112 59 81 138
-0.210765 0.099647 -0.229001 68 1 84
0.163125 0.159105 -0.259302 68 1 84
-0.352322 0.021166 -0.174908 67 59 131
0.620890 0.040675 0.496798 41 175 127
-0.526609 -0.538512 0.104981 46 107 142
-0.635705 -0.566544 0.486639 69 191 111
0.531980 -0.475923 -0.049912 56 87 140
-0.108897 0.558951 -0.227808 68 1 84
0.001038 0.677138 -0.120072 68 1 84
0.564501 0.249208 0.228127 45 110 142
0.010275 -0.122482 -0.473621 70 11 94
-0.115288 -0.020037 -0.321366 68 1 84
-0.605281 -0.492280 0.326747 31 147 139
0.618267 -0.124374 0.147783 57 84 139
-0.327000 -0.514086 -0.252892 66 64 133
-0.560046 -0.520772 0.188287 36 134 141
-0.153604 -0.433377 -0.222728 68 1 84
0.141817 0.367445 -0.213297 68 1 84
0.424587 0.087139 -0.108175 68 1 84
0.668668 -0.270570 0.285678 39 126 142
0.297325 -0.348172 -0.135381 68 1 84
-0.090981 -0.116549 -0.426390 68 1 84
0.255421 0.056512 -0.204266 68 1 84
-0.486687 0.398048 0.156466 43 116 142
0.539165 -0.063144 0.002613 72 29 111
-0.590695 0.172852 0.500475 236 228 26
0.612953 -0.418862 0.155817 50 98 141
-0.002468 -0.262942 -0.378487 71 15 98
-0.575919 -0.366329 0.186067 35 135 141
-0.418926 -0.375986 -0.037612 71 37 117
-0.564842 0.006996 0.143685 40 122 142
-0.519937 0.107019 0.014865 44 113 142
0.615384 -0.136729 0.139371 57 85 139
-0.621487 -0.276269 0.454347 66 190 113
0.267366 -0.038667 -0.207656 68 1 84
-0.145513 -0.363291 -0.137034 68 1 84
0.515647 -0.277557 -0.001059 69 53 128
-0.535007 0.248762 0.128024 37 131 141
0.472937 -0.082787 -0.081252 70 12 95
0.555278 0.309186 0.443070 40 174 127
-0.471769 0.430474 0.343080 30 154 137
0.314415 -0.430696 -0.235046 68 3 87
-0.184815 -0.448401 -0.248317 70 11 94
-0.372699 -0.044371 -0.163239 69 50 127
0.061796 0.000967 -0.298828 68 1 84
0.073103 0.339935 -0.266938 68 1 84
-0.485169 0.033225 -0.044390 60 78 138
-0.200010 -0.195124 -0.195684 68 1 84
0.169900 0.224488 -0.229972 68 1 84
0.485915 -0.359613 -0.034279 66 61 132
0.694653 -0.420187 0.532055 57 185 118
0.526747 0.368021 0.358188 31 150 139
0.466706 -0.083595 -0.086859 69 6 90
-0.384429 -0.460942 -0.178081 56 86 139
0.055782 0.446501 -0.214501 68 1 84
-0.124938 -0.461156 -0.328795 72 35 116
0.586584 0.234081 0.409720 34 167 132
-0.485600 0.326308 0.046162 43 116 142
-0.009756 0.511409 -0.247452 68 1 84
0.509855 -0.260905 -0.013171 69 54 129
0.468202 0.186170 -0.046019 69 8 91
0.430519 0.500821 0.179555 71 37 117
-0.596117 -0.539359 0.279443 35 136 141
0.605173 0.173169 0.430374 56 185 118
-0.155160 -0.433692 -0.223168 68 1 84
-0.377384 0.442809 -0.036620 68 1 84
-0.548029 0.271499 0.211609 30 160 135
-0.067930 0.114270 -0.309763 68 1 84
-0.609739 -0.138457 0.551431 189 222 38
0.198122 0.483858 -0.135754 68 1 84
0.052618 0.063478 -0.312122 68 1 84
0.039449 0.020228 -0.314247 68 1 84
-0.573501 -0.477130 0.215755 36 132 141
-0.165923 0.431915 -0.184169 68 1 84
-0.130226 -0.011820 -0.305113 68 1 84
0.611031 -0.055884 0.156586 58 83 139
0.220680 -0.435696 -0.290272 71 18 101
-0.161820 -0.138690 -0.231044 68 1 84
0.041247 0.470102 -0.225184 68 1 84
-0.543046 0.218696 0.133839 36 134 141
-0.293681 0.265157 -0.187079 68 1 84
-0.288073 0.545625 -0.060014 68 1 84
-0.283188 0.133237 -0.204006 68 1 84
0.035982 0.630863 -0.196341 68 1 84
0.460836 0.117030 -0.065989 68 1 84
-0.550827 0.284219 0.310004 75 194 108
0.614544 0.024248 0.217712 55 89 140
0.438450 0.475002 0.136123 71 39 119
0.328811 -0.011261 -0.184133 68 1 84
0.134826 -0.137753 -0.285203 68 1 84
-0.474111 -0.433011 0.004077 61 75 137
0.647696 -0.184825 0.205025 55 89 140
-0.108423 -0.314487 -0.176613 68 1 84
0.294292 0.593143 0.123882 68 1 84
-0.561323 -0.050034 0.110116 39 125 142
0.612051 -0.222826 0.124484 66 62 133
-0.570792 -0.548416 0.216278 40 123 142
-0.146214 0.300956 -0.247255 68 1 84
0.066040 0.648353 -0.161081 68 1 84
0.452249 0.347669 0.009040 70 11 94
-0.644140 -0.177864 0.371444 116 208 84
0.330100 0.336043 -0.136521 68 1 84
0.173917 0.621805 -0.094912 68 1 84
-0.440207 -0.559026 -0.092691 51 97 141
0.508958 -0.023825 -0.032905 71 22 105
-0.609412 0.031350 0.503465 253 231 36
0.594711 -0.116873 0.097194 67 59 131
-0.264892 0.378248 -0.150359 68 1 84
-0.430470 -0.368379 -0.023374 71 40 120
0.002060 -0.009969 -0.376751 68 1 84
0.015457 0.634174 -0.195419 68 1 84
0.332374 -0.463097 -0.263670 72 34 115
0.607435 0.120300 0.502609 73 193 109
0.439758 0.432980 0.076671 68 1 84
0.271873 -0.193036 -0.163048 68 1 84
0.406657 -0.332490 -0.078022 70 9 92
-0.222507 0.639064 -0.054782 68 1 84
-0.174758 -0.217026 -0.196568 68 1 84
-0.291436 -0.191094 -0.167997 68 1 84
0.669959 -0.378705 0.329125 31 150 139
-0.117762 -0.250884 -0.238900 68 1 84
-0.254016 -0.195095 -0.176098 68 1 84
0.100925 -0.343143 -0.268691 68 1 84
-0.015060 -0.011530 -0.375424 68 1 84
-0.290538 0.342617 -0.153556 68 1 84
0.214996 0.348743 -0.171290 68 1 84
0.201037 -0.432563 -0.292940 69 8 91
-0.531050 -0.215971 0.031559 54 91 140
-0.509472 0.028253 -0.007241 53 93 140
-0.093054 -0.372976 -0.173726 68 1 84
0.517595 -0.462016 -0.084542 68 55 129
0.156903 -0.390527 -0.174391 68 1 84
-0.467796 0.300759 -0.008618 43 115 142
0.370437 -0.340742 -0.109080 68 1 84
-0.623200 -0.466497 0.406700 43 177 125
-0.525041 0.341743 0.372963 89 199 100
0.405135 0.535928 0.218015 71 44 123
-0.476111 0.428710 0.200375 41 120 142
-0.457221 -0.088328 -0.087178 61 75 137
-0.284193 -0.484789 -0.261334 66 64 133
0.648378 -0.174014 0.206923 53 92 140
0.542530 -0.152084 -0.007128 72 32 113
0.656529 -0.011571 0.379884 32 143 140
-0.551935 0.280075 0.285087 71 192 110
-0.523399 -0.014282 0.014255 43 116 142
0.536468 0.211770 0.086639 69 53 128
-0.201947 -0.203073 -0.191129 68 1 84
0.121810 0.419078 -0.201581 68 1 84
0.052674 -0.193848 -0.410582 71 20 102
-0.166458 0.367531 -0.220884 68 1 84
0.470294 -0.494991 -0.167978 67 59 131
-0.589708 -0.012369 0.216485 31 146 140
-0.555570 0.014176 0.096057 45 111 142
0.516104 0.235485 0.047662 71 43 122
0.231022 -0.254329 -0.153514 68 1 84
0.244188 0.510257 -0.096070 68 1 84
0.020368 0.334666 -0.281572 68 1 84
0.440988 0.506717 0.256238 70 45 124
0.130266 0.388462 -0.212116 68 1 84
0.546333 -0.435528 0.003159 54 90 140
-0.581782 -0.574135 0.249016 37 130 142
0.448820 -0.521028 -0.189480 68 57 130
0.317147 0.581643 0.134449 68 1 84
-0.350324 -0.478705 -0.219476 57 85 139
-0.066911 -0.260468 -0.323693 68 1 84
-0.110429 -0.089656 -0.395887 68 1 84
-0.426620 0.340287 -0.054510 61 76 137
0.059342 -0.435888 -0.328189 70 11 94
-0.257865 -0.501742 -0.293009 67 59 131
0.302047 -0.312691 -0.136377 68 1 84
0.675980 -0.148075 0.372754 37 130 142
0.000144 0.618752 -0.208350 68 1 84
-0.551770 0.108885 0.117305 35 135 141
-0.350748 0.011791 -0.176296 71 44 123
0.105850 0.378778 -0.231850 68 1 84
0.105847 -0.178991 -0.341358 68 1 84
-0.406201 0.497487 0.109103 68 3 87
0.627751 -0.022813 0.463916 30 157 136
-0.243601 0.058423 -0.211393 68 1 84
0.062948 0.341672 -0.270524 68 1 84
-0.609815 0.090040 0.376267 126 210 78
-0.545405 -0.176186 0.054349 48 103 141
0.526011 0.222688 0.064992 72 30 112
-0.295671 0.058366 -0.199133 69 5 88
-0.031128 -0.001764 -0.327032 68 1 84
-0.004392 -0.284836 -0.365829 71 22 105
-0.547862 -0.585129 0.159073 46 109 142
0.334808 -0.258907 -0.128604 68 1 84
-0.611231 -0.405834 0.314394 31 161 135
0.492582 -0.070145 -0.061012 70 48 125
0.332479 0.260802 -0.154508 68 1 84
-0.509039 -0.226260 -0.002239 59 80 138
-0.615440 -0.502565 0.369144 39 173 128
0.568151 0.083098 0.115709 66 61 132
0.330575 0.264190 -0.155424 68 1 84
0.426763 0.444625 0.066729 68 1 84
0.411976 -0.436792 -0.218032 65 66 134
-0.506248 0.021902 -0.013018 54 90 140
-0.102033 -0.175084 -0.310303 68 1 84
0.506788 -0.332400 0.002649 67 59 131
-0.270607 -0.108083 -0.203591 68 1 84
0.178465 -0.144517 -0.228056 68 1 84
0.395883 -0.355229 -0.124719 68 2 85
0.361087 -0.259398 -0.115589 68 1 84
-0.120677 0.647091 -0.155272 68 1 84
-0.147547 -0.047608 -0.272448 68 1 84
-0.443202 0.451354 0.105095 69 50 127
-0.163016 0.168316 -0.258065 68 1 84
0.551395 0.301035 0.267538 46 107 142
-0.217391 0.092984 -0.223976 68 1 84
-0.619138 -0.068965 0.282630 31 161 135
-0.481348 0.059287 -0.047743 59 81 138
-0.554029 0.279388 0.342413 85 198 102
0.338174 0.268279 -0.149635 68 1 84
-0.598917 0.075412 0.290164 81 196 104
0.386091 0.219414 -0.118801 68 1 84
-0.154214 0.095834 -0.256355 68 1 84
0.566750 0.195168 0.184267 47 105 141
-0.581807 -0.303488 0.175765 31 146 140
-0.217491 0.574681 -0.135677 68 1 84
0.067932 0.649264 -0.158044 68 1 84
0.189317 0.644139 0.008304 68 1 84
0.087813 -0.134896 -0.403236 68 1 84
-0.029307 -0.018474 -0.369560 68 1 84
-0.382064 -0.231205 -0.114663 70 45 124
0.062712 0.154622 -0.304257 68 1 84
-0.191029 -0.249941 -0.169317 68 1 84
-0.013490 0.336979 -0.280576 68 1 84
0.545428 0.320067 0.283396 40 122 142
0.675248 -0.138581 0.345942 33 140 141
0.337828 -0.427198 -0.230471 72 28 110
0.584536 0.161448 0.231723 42 118 142
-0.589030 -0.255011 0.177579 31 162 134
-0.533909 0.325150 0.372395 87 198 101
0.525717 0.000529 -0.003747 71 15 98
-0.471542 0.441764 0.283301 30 157 136
-0.500714 -0.446857 0.055630 60 77 138
-0.535745 0.283157 0.170736 30 153 138
0.273630 -0.189048 -0.164221 68 1 84
0.171182 0.547054 -0.145969 68 1 84
0.520314 -0.108609 -0.035091 72 25 107
-0.094072 -0.102329 -0.426398 68 1 84
-0.196268 -0.218682 -0.184629 68 1 84
0.105993 -0.238532 -0.304908 68 1 84
-0.167205 -0.362597 -0.143926 68 1 84
0.508716 -0.024437 -0.033359 71 18 101
0.261208 0.016501 -0.206413 68 1 84
-0.382832 0.120196 -0.145406 69 53 128
-0.245570 0.618854 -0.054261 68 1 84
-0.641853 -0.182284 0.329375 75 194 108
0.101033 0.143813 -0.287669 68 1 84
0.475881 -0.031069 -0.072965 71 22 105
-0.144388 0.168252 -0.267617 68 1 84
0.469678 0.069320 -0.063499 68 1 84
-0.178752 -0.472912 -0.319895 64 68 135
-0.284612 0.595673 0.044218 68 1 84
0.374565 -0.017742 -0.157709 68 1 84
-0.634942 -0.098782 0.332072 112 206 86
-0.466058 0.428297 0.138370 55 89 140
0.468910 0.457801 0.207109 53 93 140
-0.641259 -0.491108 0.526973 107 205 89
0.203572 0.498408 -0.127378 68 1 84
-0.397805 -0.255141 -0.091758 71 44 123
-0.435882 0.336348 -0.043248 61 76 137
-0.518868 -0.303214 0.046364 56 87 140
-0.182760 0.369112 -0.207303 68 1 84
-0.201509 0.302866 -0.201949 68 1 84
-0.475678 -0.072410 -0.064884 59 81 138
0.467755 0.466010 0.235659 57 85 139
-0.559208 0.006034 0.112495 40 122 142
-0.049707 -0.207281 -0.400110 71 24 106
-0.587398 0.191213 0.393228 116 208 84
-0.606945 0.009858 0.274773 33 167 132
-0.147529 -0.200698 -0.229219 68 1 84
0.664303 -0.239159 0.455214 38 172 129
-0.618373 -0.355137 0.432352 94 201 97
0.094024 0.270872 -0.246201 68 1 84
0.474382 -0.200451 -0.070992 71 24 106
-0.520655 -0.565938 0.098584 56 87 140
-0.584664 0.202008 0.422782 159 217 56
-0.632161 -0.452429 0.537700 146 215 65
0.093792 0.279678 -0.250992 68 1 84
-0.163678 0.303550 -0.233333 68 1 84
0.616781 0.071236 0.487963 51 182 121
0.044213 0.372454 -0.258878 68 1 84
0.229567 -0.365902 -0.145162 68 1 84
0.549689 -0.168138 0.004118 71 18 101
0.143947 0.651774 -0.079435 68 1 84
-0.444604 0.250917 -0.065417 59 80 138
-0.625687 -0.014158 0.349859 83 197 103
-0.211206 -0.402656 -0.209363 71 17 99
0.605527 0.039710 0.204775 58 83 139
0.538902 -0.467936 -0.030223 61 74 137
0.116175 -0.266279 -0.277049 68 1 84
-0.398878 -0.045662 -0.143542 65 65 134
0.411394 0.529098 0.208108 71 24 106
0.102575 0.107038 -0.284948 68 1 84
-0.184788 0.642145 -0.114597 68 1 84
0.568027 -0.522578 0.035841 52 95 141
-0.218505 0.563650 -0.139508 68 1 84
-0.371938 0.442105 -0.045406 68 3 87
0.009225 -0.249343 -0.390016 70 14 97
-0.614015 -0.412383 0.333954 32 164 133
-0.024193 -0.239816 -0.389264 72 30 112
-0.536442 0.105392 0.057042 40 123 142
-0.490198 0.141584 -0.031294 49 101 141
0.257226 0.532941 -0.069865 68 1 84
0.577705 0.061447 0.134800 60 77 138
-0.087138 0.574561 -0.231107 68 1 84
-0.591242 -0.022852 0.216744 34 138 141
-0.134246 0.112046 -0.273426 68 1 84
0.645841 -0.129907 0.513559 54 184 119
0.584521 -0.040227 0.098450 67 58 131
0.298711 0.122862 -0.185078 68 1 84
-0.537149 -0.076598 0.036317 49 102 141
-0.272824 0.545367 -0.083516 68 1 84
-0.346855 0.456872 -0.063411 68 1 84
0.484359 0.106882 -0.041757 70 9 92
-0.564067 -0.403023 0.173097 38 129 142
0.682308 -0.482732 0.365126 30 154 137
0.237123 -0.047021 -0.214410 68 1 84
-0.098183 -0.311917 -0.206162 68 1 84
-0.107377 -0.402684 -0.185375 68 1 84
-0.511523 0.318624 0.120905 39 124 142
-0.597215 -0.009049 0.236664 32 144 140
-0.404826 0.106732 -0.129800 69 54 129
0.079408 -0.052167 -0.421145 68 1 84
-0.615854 -0.291674 0.469741 59 186 117
-0.370128 -0.203247 -0.134578 72 33 114
0.597798 -0.026570 0.138930 59 80 138
0.456537 -0.333303 -0.037142 71 20 102
-0.638836 -0.529098 0.477153 129 211 76
0.665187 -0.271779 0.269636 38 127 142
0.618879 -0.333291 0.156298 54 90 140
0.521850 0.209407 0.045928 71 38 118
0.379906 0.011508 -0.152515 68 1 84
-0.483448 0.296285 0.018630 48 104 141
0.666122 -0.334135 0.532055 73 193 109
-0.532318 0.288052 0.163302 30 152 138
0.022130 0.632676 -0.196535 68 1 84
0.533156 0.269160 0.115948 60 78 138
-0.613513 -0.336583 0.454475 64 189 114
-0.480199 0.005139 -0.054416 56 86 139
0.641866 -0.322794 0.214087 46 109 142
0.597608 -0.013887 0.145156 64 68 135
-0.589720 -0.248816 0.177091 30 158 136
0.409050 0.521028 0.167172 71 17 99
0.626538 0.106862 0.379537 30 157 136
0.075206 0.657054 -0.136810 68 1 84
-0.555666 0.065059 0.118038 38 127 142
-0.564410 0.257052 0.357390 131 211 75
0.396489 -0.358332 -0.139414 68 1 84
-0.422171 0.290812 -0.082815 61 75 137
0.194488 0.604504 -0.087847 68 1 84
-0.123591 0.648698 -0.151180 68 1 84
0.502620 0.338019 0.099595 70 47 124
-0.598098 0.009615 0.246454 30 157 136
-0.409803 -0.029757 -0.134488 62 73 137
0.324471 -0.292316 -0.132523 68 1 84
0.686751 -0.408194 0.491191 43 177 125
0.544671 0.260239 0.149025 58 83 139
0.230994 -0.432024 -0.265208 68 1 84
0.349583 0.039042 -0.169784 68 1 84
0.545312 0.134804 0.065969 70 47 124
-0.187549 0.625920 -0.130010 68 1 84
0.652879 -0.196023 0.545494 35 169 130
0.667040 -0.169697 0.267208 41 120 142
-0.284886 0.392990 -0.136313 68 1 84
-0.592408 -0.543651 0.269915 33 140 141
0.525846 0.016625 -0.000856 71 40 120
-0.635649 -0.464281 0.512365 131 211 75
0.301282 0.080976 -0.189226 68 1 84
0.151010 0.656815 -0.030134 68 1 84
0.624001 -0.050688 0.488121 41 175 127
-0.429513 0.356837 -0.039133 65 65 134
-0.142266 -0.047779 -0.324260 68 1 84
-0.076879 0.293315 -0.279607 68 1 84
-0.471039 0.153262 -0.055351 60 77 138
0.048211 -0.224424 -0.393055 68 1 84
0.446958 -0.493017 -0.194056 64 67 135
-0.061001 0.416953 -0.232728 68 1 84
-0.196274 -0.360540 -0.146426 68 3 87
0.044670 0.586366 -0.222942 68 1 84
-0.257562 -0.066241 -0.213937 68 2 85
0.559010 -0.069925 0.034811 70 45 124
-0.462673 -0.426940 -0.015473 67 60 132
0.269748 0.543344 -0.044214 68 1 84
-0.238009 0.020778 -0.214065 68 1 84
0.305602 0.356244 -0.141267 68 1 84
-0.330184 0.374034 -0.124325 68 1 84
0.558754 0.279958 0.496221 46 178 124
-0.549326 0.193754 0.145467 30 151 138
-0.355696 0.481806 -0.027413 68 1 84
0.467614 0.383474 0.076007 68 1 84
-0.385022 -0.209480 -0.124227 67 58 131
-0.463448 -0.453018 -0.039765 53 93 140
-0.416763 -0.103197 -0.124913 68 55 129
-0.502175 0.387968 0.291582 37 171 129
-0.598532 -0.431292 0.268971 30 156 137
0.407451 0.207672 -0.103182 68 1 84
-0.474760 0.083554 -0.055485 51 96 141
0.413357 -0.408355 -0.185011 69 53 128
0.503579 0.405460 0.430149 34 137 141
-0.475253 0.044330 -0.057353 58 83 139
0.592773 -0.144695 0.086865 62 72 136
0.243108 0.588120 -0.023445 68 1 84
0.204515 0.361346 -0.173649 68 1 84
-0.261404 -0.237220 -0.156507 68 1 84
-0.600803 0.080913 0.304063 79 195 105
-0.420760 -0.113686 -0.120244 69 54 129
0.659697 -0.073383 0.291786 41 121 142
0.147463 0.240702 -0.219257 68 1 84
0.143310 -0.428776 -0.297578 68 1 84
-0.531380 -0.098275 0.022151 45 110 142
0.430728 0.138967 -0.092108 68 1 84
-0.103255 0.412939 -0.222707 68 1 84
0.706709 -0.512772 0.487468 33 141 140
-0.370371 0.500592 0.032504 68 1 84
0.547944 0.210683 0.122222 57 84 139
0.130849 -0.358542 -0.171780 68 1 84
-0.074679 0.215832 -0.266774 68 1 84
-0.396426 -0.317647 -0.058207 69 52 127
0.512236 0.396322 0.403072 30 151 138
-0.423111 -0.014606 -0.122630 64 67 135
0.479110 0.056282 -0.054957 71 15 98
0.613308 0.133743 0.316398 32 143 140
0.503281 0.398010 0.225213 46 109 142
-0.348834 0.469254 -0.049356 68 1 84
0.017233 -0.306752 -0.357106 71 21 103
-0.485655 -0.471534 0.019351 57 84 139
0.558417 0.304132 0.413003 30 153 138
-0.120600 0.494752 -0.218025 68 1 84
-0.531738 0.325156 0.450456 124 210 79
-0.364142 -0.420225 -0.154348 72 33 114
0.402515 -0.059269 -0.138468 68 1 84
-0.554722 -0.245071 0.088710 48 104 141
0.164889 0.239264 -0.216784 68 1 84
0.440429 0.421769 0.063820 68 1 84
0.108178 0.507954 -0.193802 68 1 84
0.356694 0.564216 0.172044 68 1 84
0.132556 0.577237 -0.170157 68 1 84
0.630043 0.029848 0.462106 30 154 137
-0.520759 0.299855 0.130811 42 119 142
0.045560 -0.248502 -0.376257 70 11 94
0.449799 0.451898 0.124968 71 39 119
0.653194 -0.321146 0.244919 40 122 142
0.301071 0.270098 -0.174927 68 1 84
0.337604 0.085191 -0.171781 68 1 84
0.597984 -0.310839 0.109320 62 73 137
-0.638056 -0.559426 0.516475 79 195 105
-0.176014 -0.218867 -0.194651 68 1 84
-0.007389 -0.276605 -0.368848 71 24 106
-0.385116 0.452904 -0.014944 68 1 84
-0.531380 -0.074588 0.025484 49 102 141
-0.610727 0.099211 0.404796 165 218 53
-0.619273 -0.554541 0.396562 42 176 126
0.459372 -0.389018 -0.117384 67 59 131
-0.563603 0.196641 0.218026 43 177 125
0.580049 0.147367 0.203594 55 89 140
0.332297 0.201083 -0.157933 68 1 84
-0.544056 0.304519 0.356138 94 201 97
-0.267315 0.319735 -0.165570 68 1 84
-0.420326 0.446057 0.038823 68 1 84
0.057916 0.668998 -0.122933 68 1 84
-0.044464 0.308948 -0.284521 68 1 84
-0.014532 0.507270 -0.247495 68 1 84
0.175584 0.124993 -0.249410 68 1 84
0.043680 0.669288 -0.131979 68 1 84
-0.026937 -0.099082 -0.484497 68 1 84
-0.474105 0.402275 0.111353 51 96 141
-0.518675 -0.158937 -0.001221 59 80 138
-0.593264 -0.461368 0.259766 36 132 141
-0.478714 -0.264920 -0.021162 61 74 137
0.337620 0.275844 -0.148943 68 1 84
0.676565 -0.189473 0.389782 30 152 138
0.492821 0.431843 0.366134 53 93 140
0.707364 -0.467449 0.495835 30 152 138
-0.514215 0.241450 0.053793 40 123 142
0.144593 -0.257635 -0.224429 68 1 84
0.004833 0.107259 -0.321468 68 1 84
0.118567 -0.434489 -0.311468 68 2 85
0.622884 0.071101 0.286127 42 117 142
-0.476928 0.129193 -0.050072 56 86 139
-0.477559 -0.511398 -0.006222 60 78 138
-0.576996 -0.551712 0.230998 38 129 142
-0.110788 -0.072640 -0.396485 68 1 84
0.329758 0.508094 -0.007450 68 1 84
-0.125474 -0.506085 -0.345876 70 48 125
0.264795 0.596440 0.042135 68 1 84
0.627321 0.074033 0.307068 41 120 142
-0.391192 0.098855 -0.141548 67 58 131
-0.094910 -0.311203 -0.217896 68 1 84
0.563882 0.288888 0.438455 34 167 132
0.674935 -0.495550 0.336179 32 143 140
-0.260058 -0.261232 -0.150542 68 1 84
-0.240368 0.256654 -0.194682 68 1 84
0.353964 -0.120567 -0.158386 68 1 84
-0.032353 -0.239926 -0.384030 72 33 114
0.334562 -0.144041 -0.160326 68 1 84
-0.640748 -0.236626 0.339841 53 183 120
-0.582651 0.210952 0.455289 186 222 39
0.126278 -0.002510 -0.275146 68 1 84
0.447930 -0.324358 -0.041418 71 37 117
0.568226 -0.014152 0.069504 63 69 135
-0.041609 -0.418518 -0.306990 71 17 99
0.286551 0.591151 0.087769 68 1 84
-0.058336 0.658019 -0.164632 68 1 84
-0.152878 0.664043 -0.095964 68 1 84
-0.559258 -0.406417 0.163003 37 130 142
-0.168327 0.094455 -0.247342 68 1 84
0.655926 -0.246204 0.495302 38 172 129
-0.427374 0.352822 -0.045294 58 82 139
0.467422 0.289187 -0.006925 70 12 95
-0.638717 -0.269201 0.359882 94 201 97
0.460502 0.472359 0.377078 45 111 142
-0.067978 -0.340147 -0.269016 68 1 84
0.656371 -0.059875 0.426741 30 151 138
-0.615066 -0.222423 0.506480 79 195 105
-0.431396 0.286740 -0.071454 56 87 140
0.600426 0.154056 0.499694 87 198 101
0.314601 0.058247 -0.186756 68 1 84
0.668770 -0.329441 0.313983 33 140 141
-0.007513 0.018217 -0.327871 68 1 84
0.704778 -0.504704 0.474704 30 157 136
0.635260 0.014661 0.267635 42 118 142
0.642947 -0.170758 0.193287 49 100 141
-0.503934 0.378302 0.384166 44 177 125
0.108025 0.066275 -0.266980 68 1 84
0.617292 -0.205685 0.134055 63 69 135
0.672583 -0.331211 0.384922 30 153 138
-0.087116 -0.144515 -0.408878 72 32 113
-0.140514 -0.499291 -0.342367 69 52 127
0.428283 -0.355262 -0.086430 69 8 91
0.614078 -0.199892 0.127640 62 72 136
0.134531 -0.013981 -0.263528 68 1 84
-0.487191 -0.234350 -0.027216 63 69 135
-0.215319 0.200541 -0.231304 68 1 84
0.220545 0.421839 -0.147451 68 1 84
-0.141401 0.097773 -0.264727 68 1 84
-0.228212 0.632342 -0.068446 68 1 84
0.222603 0.407573 -0.151707 68 1 84
0.098223 -0.074741 -0.406011 68 1 84
0.118688 0.482678 -0.184200 68 1 84
-0.265635 0.595276 -0.054500 68 1 84
-0.499141 -0.049782 -0.030723 56 86 139
0.522992 0.324498 0.149662 60 77 138
-0.492669 0.379689 0.140447 38 127 142
-0.617513 -0.238484 0.477134 61 187 116
-0.201569 -0.311454 -0.151140 68 1 84
0.671747 -0.265607 0.370211 30 152 138
0.657242 -0.121600 0.248413 45 111 142
0.564566 -0.411670 0.053383 67 60 132
0.567923 0.275636 0.334190 34 137 141
-0.235727 0.482422 -0.130890 68 1 84
-0.204981 0.556467 -0.155470 68 1 84
-0.339760 0.554143 0.088646 68 1 84
-0.136329 0.582646 -0.207259 68 1 84
-0.437207 -0.433180 -0.080255 61 76 137
-0.347725 -0.438908 -0.182762 71 15 98
-0.601734 -0.198073 0.198585 31 150 139
0.630070 -0.040551 0.212096 54 91 140
0.607496 -0.354831 0.134932 57 85 139
-0.625749 -0.038814 0.326139 47 179 123
-0.442645 0.479329 0.222891 54 90 140
0.675097 -0.228519 0.370896 31 149 139
0.477147 0.419691 0.152875 60 77 138
0.298854 -0.373980 -0.194034 68 1 84
-0.288271 -0.145340 -0.187070 68 1 84
0.659652 -0.080074 0.286592 38 128 142
-0.142452 -0.144107 -0.246518 68 1 84
-0.548764 0.298294 0.436924 136 213 71
-0.588687 -0.011371 0.214397 33 142 140
-0.534597 0.304903 0.200022 31 149 139
-0.511177 0.347838 0.166491 34 138 141
-0.101332 -0.120946 -0.398620 69 6 90
0.142987 0.481353 -0.170607 68 1 84
-0.321023 -0.453491 -0.211442 67 59 131
-0.483222 0.367147 0.086017 48 104 141
-0.256748 0.081604 -0.209558 68 1 84
-0.101586 -0.374904 -0.161386 68 1 84
-0.321650 -0.422086 -0.182787 71 22 105
-0.132514 -0.486073 -0.344626 71 44 123
-0.087953 -0.094241 -0.439434 68 1 84
0.365074 -0.282387 -0.112896 68 1 84
0.576379 0.261480 0.399221 30 152 138
0.333191 0.551746 0.075433 68 1 84
0.012036 0.072399 -0.325989 68 1 84
0.299646 0.525035 -0.024194 68 1 84
