ply
format ascii 1.0
element vertex 1289
property float x
property float y
property float z
property uchar red
property uchar green
property uchar blue
end_header
0.137926 0.300299 -0.238177 32 164 133
-0.126944 -0.384179 -0.170520 71 38 118
-0.112419 0.637736 -0.168033 68 1 84
-0.293174 0.539647 -0.030226 68 1 84
-0.169113 0.360374 -0.246846 68 1 84
-0.545645 -0.453400 0.009322 68 1 84
0.572963 -0.186108 0.045454 68 1 84
0.233320 -0.563292 -0.263830 68 1 84
-0.594283 -0.089751 0.078788 68 1 84
0.402889 0.239014 -0.067104 68 1 84
-0.146427 -0.415178 -0.178090 68 1 84
0.312350 0.577437 0.186549 68 1 84
-0.022381 -0.125984 -0.460535 68 1 84
-0.295226 -0.528816 -0.230325 68 1 84
-0.489688 0.306904 0.105898 68 1 84
-0.324921 0.211545 -0.173955 68 1 84
-0.512049 0.013032 -0.057547 68 1 84
-0.092870 -0.363377 -0.197422 71 40 120
0.046293 -0.358641 -0.251586 55 88 140
0.366579 0.528919 0.181410 68 1 84
-0.559802 -0.479053 0.046367 68 1 84
0.519105 -0.249013 -0.037179 68 1 84
0.066396 0.277723 -0.263337 246 230 31
-0.021313 -0.052234 -0.497993 68 1 84
-0.623971 -0.099293 0.229346 68 1 84
0.524703 0.267609 0.449491 68 1 84
0.198610 -0.414657 -0.191266 68 1 84
0.284634 0.016983 -0.214966 61 76 137
0.463689 -0.484280 -0.142506 68 1 84
-0.569826 -0.350197 0.052300 68 1 84
0.645126 -0.382574 0.500463 68 1 84
0.438327 -0.475823 -0.172485 68 1 84
-0.512863 -0.275590 -0.044566 68 1 84
0.629887 -0.173645 0.291115 68 1 84
0.310365 -0.228276 -0.161425 68 1 84
-0.304567 0.200912 -0.187961 68 1 84
-0.133078 0.335328 -0.276465 70 47 124
-0.495003 0.377876 0.430827 68 1 84
-0.270859 0.263051 -0.179521 72 26 108
0.237272 0.620773 0.096442 68 1 84
-0.519336 -0.447851 -0.045876 68 1 84
-0.347203 -0.169789 -0.151617 68 2 85
-0.611328 -0.563720 0.188854 68 1 84
-0.359443 0.202273 -0.154358 68 1 84
-0.566639 -0.556769 0.063103 68 1 84
-0.624176 -0.152889 0.169835 68 1 84
0.613577 -0.350863 0.205733 68 1 84
-0.535140 0.131356 0.101470 68 1 84
0.381006 0.471305 0.101306 68 1 84
-0.516761 0.165773 0.062155 68 1 84
-0.649029 -0.536374 0.322551 68 1 84
-0.596125 0.105738 0.349767 68 1 84
-0.677954 -0.552858 0.484485 68 1 84
0.616136 -0.213659 0.206986 68 1 84
-0.520823 -0.320921 -0.022164 68 1 84
-0.544541 -0.411821 0.011017 68 1 84
0.105700 -0.105413 -0.337289 134 212 73
0.581395 -0.130525 0.093080 68 1 84
0.550721 -0.448551 0.057828 68 1 84
-0.372694 -0.341724 -0.157343 68 1 84
0.289034 0.585431 0.107478 68 1 84
-0.484487 0.400778 0.389700 68 1 84
0.398102 0.474407 0.154759 68 1 84
-0.092079 0.684251 -0.092843 68 1 84
0.442915 0.311090 0.076041 68 1 84
-0.208773 -0.205474 -0.168616 70 48 125
0.112113 -0.506157 -0.261071 68 1 84
-0.651929 -0.127707 0.344546 68 1 84
-0.450200 -0.496656 -0.145254 68 1 84
-0.085241 0.037334 -0.306729 44 112 142
-0.051915 0.313289 -0.288430 64 67 135
0.437803 -0.297339 -0.083643 68 1 84
0.354999 0.411899 -0.016711 68 1 84
0.435352 0.058530 -0.113365 68 1 84
0.045162 0.328274 -0.293043 40 123 142
-0.517044 -0.153478 -0.079494 68 1 84
-0.597793 -0.444914 0.146986 68 1 84
-0.392623 0.245696 -0.108067 68 1 84
-0.044398 -0.482874 -0.279856 68 1 84
-0.494281 -0.338501 -0.039256 68 1 84
-0.055392 0.220089 -0.331080 53 93 140
0.615203 -0.318673 0.201606 68 1 84
0.442943 -0.275877 -0.084755 68 1 84
-0.570830 0.206797 0.510821 68 1 84
-0.660853 -0.417162 0.367263 68 1 84
0.082119 0.317005 -0.278536 47 179 123
-0.483377 0.138497 -0.043814 68 1 84
-0.307098 0.455468 -0.067679 68 1 84
0.029569 0.036870 -0.401025 56 87 140
0.376871 0.312390 -0.058261 71 38 118
-0.300184 0.573927 0.042106 68 1 84
-0.208697 0.062882 -0.218667 60 77 138
0.008768 -0.061939 -0.495884 68 1 84
-0.127754 -0.426550 -0.190031 68 1 84
0.239692 -0.496217 -0.229658 68 1 84
-0.628915 -0.054717 0.326352 68 1 84
0.640943 -0.336012 0.381222 68 1 84
-0.514678 0.051585 -0.035431 68 1 84
0.642629 -0.306427 0.372338 68 1 84
0.028341 -0.131665 -0.450847 68 1 84
-0.532543 -0.000371 -0.031225 68 1 84
0.124010 0.202995 -0.290453 38 128 142
0.645076 -0.187681 0.427724 68 1 84
0.459476 0.372888 0.206987 68 1 84
-0.159863 -0.013649 -0.281135 64 67 135
-0.444974 -0.507605 -0.153037 68 1 84
-0.612513 0.060438 0.522603 68 1 84
0.391967 0.423183 0.070666 68 1 84
0.245733 0.437617 -0.112840 67 60 132
0.400013 0.127978 -0.130798 72 26 108
-0.380520 0.515654 0.095319 68 1 84
-0.023700 -0.213094 -0.402478 68 1 84
-0.618352 -0.530325 0.212043 68 1 84
-0.669120 -0.462641 0.406899 68 1 84
0.219206 0.449678 -0.130330 60 77 138
-0.674734 -0.233117 0.383598 68 1 84
0.379203 0.520047 0.219774 68 1 84
0.640278 -0.348658 0.422649 68 1 84
0.070295 -0.457095 -0.243393 68 1 84
0.566282 -0.219235 0.031300 68 1 84
0.479489 -0.189070 -0.092428 68 1 84
0.398380 -0.341555 -0.129713 69 8 91
0.573656 -0.424379 0.106378 68 1 84
-0.667090 -0.355485 0.427325 68 1 84
0.258445 -0.489159 -0.224194 68 1 84
0.075057 0.549262 -0.215273 69 5 88
-0.654257 -0.200919 0.284139 68 1 84
-0.409223 -0.308366 -0.113751 68 1 84
-0.089055 -0.498836 -0.270345 68 1 84
0.278929 -0.250004 -0.171589 63 71 136
-0.139383 0.542134 -0.194311 70 9 92
0.596829 -0.009093 0.456956 68 1 84
0.607974 -0.075998 0.503705 68 1 84
-0.079313 0.662517 -0.157267 68 1 84
-0.131829 -0.163066 -0.254611 57 84 139
-0.147383 -0.105133 -0.244997 48 104 141
-0.505964 0.366127 0.407282 68 1 84
-0.516346 0.118569 0.012347 68 1 84
0.078157 -0.312173 -0.211417 85 198 102
0.033288 0.023507 -0.448637 68 1 84
0.231162 -0.519926 -0.245997 68 1 84
0.537948 0.233607 0.454434 68 1 84
-0.310625 0.233034 -0.177055 68 1 84
0.435892 -0.430112 -0.128141 68 1 84
-0.602049 0.103040 0.400164 68 1 84
-0.052996 -0.392659 -0.269600 68 1 84
-0.357414 -0.357964 -0.167701 68 1 84
0.597367 -0.366701 0.152238 68 1 84
0.605182 -0.381669 0.185447 68 1 84
-0.254038 0.616058 0.049437 68 1 84
-0.306117 0.357367 -0.116370 71 42 121
-0.272041 -0.380171 -0.191473 68 1 84
-0.551133 0.014201 0.017354 68 1 84
-0.660970 -0.211149 0.457545 68 1 84
0.181352 0.038725 -0.215552 30 160 135
-0.590815 -0.036031 0.144761 68 1 84
0.628391 -0.352872 0.256937 68 1 84
-0.613980 -0.205324 0.114715 68 1 84
-0.633877 -0.494913 0.269739 68 1 84
-0.362535 0.121072 -0.172386 68 1 84
0.559695 -0.011252 0.153585 68 1 84
0.527690 0.262872 0.420604 68 1 84
-0.496508 -0.185832 -0.090872 68 1 84
-0.010106 0.389556 -0.273288 36 133 141
-0.008805 -0.276164 -0.367692 68 1 84
0.430980 -0.326989 -0.087341 68 1 84
0.013606 0.517362 -0.236677 68 1 84
0.633316 -0.493468 0.297088 68 1 84
-0.497111 0.356180 0.193224 68 1 84
0.495271 0.304948 0.246951 68 1 84
0.607807 -0.050257 0.389881 68 1 84
0.015121 0.229545 -0.332158 43 116 142
0.087664 0.593863 -0.196486 68 1 84
0.478026 -0.138740 -0.102439 68 1 84
-0.119223 0.024252 -0.317354 58 82 139
0.647772 -0.418330 0.493687 68 1 84
0.305917 0.501715 -0.005604 68 1 84
0.483010 0.116566 0.000779 68 1 84
0.545031 0.193452 0.518704 68 1 84
0.332063 0.561181 0.166647 68 1 84
0.392284 -0.016840 -0.164249 70 9 92
-0.473987 0.418879 0.233784 68 1 84
0.303912 0.577878 0.129996 68 1 84
-0.503479 0.155833 0.008333 68 1 84
0.644646 -0.383175 0.484454 68 1 84
0.306798 -0.491200 -0.224701 68 1 84
0.575783 0.079320 0.367729 68 1 84
-0.072970 -0.153132 -0.398062 68 1 84
-0.063953 -0.359129 -0.265621 68 1 84
0.271932 -0.137916 -0.185978 53 93 140
0.234221 -0.520481 -0.246193 68 1 84
0.102974 -0.074292 -0.412166 68 1 84
0.432504 0.398412 0.142480 68 1 84
-0.436470 -0.066267 -0.142551 68 1 84
0.382054 -0.175469 -0.143872 68 1 84
0.611330 -0.071292 0.360902 68 1 84
-0.501914 -0.479904 -0.086563 68 1 84
0.406684 -0.282211 -0.113129 68 1 84
0.639771 -0.496187 0.324617 68 1 84
-0.100207 -0.003638 -0.417510 68 1 84
0.411607 0.034927 -0.143250 68 1 84
0.606551 -0.393319 0.194696 68 1 84
0.127629 0.155698 -0.274941 38 128 142
-0.383616 -0.570673 -0.194019 68 1 84
0.445815 0.290115 0.064482 68 1 84
0.491143 0.323622 0.262325 68 1 84
0.423613 0.133644 -0.099995 68 1 84
0.009073 0.117542 -0.324380 32 144 140
-0.206149 0.142694 -0.234880 68 1 84
0.285763 -0.102220 -0.195608 70 49 126
-0.601140 0.093955 0.371530 68 1 84
-0.640678 -0.222798 0.215734 68 1 84
-0.634854 -0.031326 0.412609 68 1 84
0.595513 -0.003565 0.400449 68 1 84
-0.579829 0.183084 0.364747 68 1 84
-0.076426 -0.466950 -0.260244 68 1 84
0.070562 0.484844 -0.210982 65 65 134
-0.590361 0.114230 0.320778 68 1 84
-0.568182 0.141119 0.239063 68 1 84
0.224949 -0.098477 -0.212980 50 98 141
-0.071662 0.632112 -0.190270 68 1 84
0.596206 -0.283845 0.126812 68 1 84
-0.565405 0.236569 0.471246 68 1 84
-0.675705 -0.571363 0.459179 68 1 84
0.105332 -0.442883 -0.211764 68 1 84
-0.435169 -0.512569 -0.160918 68 1 84
0.067879 -0.447804 -0.239470 68 1 84
-0.586420 0.153072 0.358081 68 1 84
-0.187554 0.311043 -0.220080 55 89 140
0.221408 0.248103 -0.217012 55 88 140
0.564167 -0.003036 0.202660 68 1 84
0.183415 0.635844 -0.038860 68 1 84
0.596574 -0.005485 0.427979 68 1 84
0.541166 -0.001259 0.059078 68 1 84
0.104054 -0.105351 -0.344074 62 188 115
0.071194 0.012631 -0.408954 64 68 135
0.033790 -0.162687 -0.425619 68 1 84
-0.628778 0.014755 0.504679 68 1 84
-0.229223 0.326907 -0.187792 68 1 84
-0.110912 0.411106 -0.234745 60 77 138
0.311674 0.559369 0.088627 68 1 84
-0.501926 0.242946 0.087194 68 1 84
-0.582300 0.187241 0.480163 68 1 84
0.343685 0.402624 -0.040719 68 1 84
0.003300 0.546138 -0.233128 68 1 84
-0.662483 -0.411070 0.378274 68 1 84
0.570118 0.124895 0.416986 68 1 84
-0.562730 0.246642 0.399992 68 1 84
-0.288730 0.590970 0.066705 68 1 84
0.545076 0.013149 0.108172 68 1 84
0.242962 -0.450115 -0.205924 68 1 84
-0.152131 0.024184 -0.297899 61 76 137
-0.034011 0.367995 -0.298177 61 74 137
0.236515 -0.555514 -0.262092 68 1 84
-0.310367 0.264965 -0.161994 71 39 119
-0.317628 0.261548 -0.160027 68 1 84
-0.640006 -0.400590 0.271201 68 1 84
-0.242251 0.609053 -0.026329 68 1 84
0.461895 0.359246 0.191845 68 1 84
0.578977 -0.506844 0.125758 68 1 84
-0.133540 -0.514054 -0.261351 68 1 84
0.130866 0.438045 -0.196849 39 126 142
-0.436662 -0.360040 -0.089127 68 1 84
-0.368533 -0.575564 -0.199022 68 1 84
0.601459 -0.034483 0.448821 68 1 84
-0.515040 0.097228 -0.007508 68 1 84
0.402347 0.271748 -0.044541 68 1 84
-0.034972 0.668189 -0.160827 68 1 84
0.229347 0.207743 -0.222558 57 85 139
-0.081935 -0.383056 -0.217292 68 1 84
-0.595698 -0.121689 0.062818 68 1 84
0.107441 0.369124 -0.270546 30 155 137
-0.562172 0.246649 0.443083 68 1 84
-0.076323 0.406601 -0.240653 36 132 141
-0.568064 -0.492762 0.067030 68 1 84
-0.368355 -0.274115 -0.139394 69 5 88
-0.437875 0.480072 0.247156 68 1 84
0.189280 0.301933 -0.199864 30 158 136
-0.474806 0.156286 -0.048073 68 1 84
0.475893 -0.073131 -0.102905 68 1 84
-0.217968 -0.242331 -0.162089 69 6 90
-0.425457 0.352249 0.004881 68 1 84
0.250960 0.437429 -0.107844 68 1 84
0.601323 -0.027185 0.427848 68 1 84
-0.099873 -0.062940 -0.443323 68 1 84
0.093882 -0.044391 -0.444795 68 1 84
-0.625533 0.025848 0.486376 68 1 84
0.062135 -0.175857 -0.384036 68 1 84
-0.666073 -0.195551 0.347602 68 1 84
0.250291 0.048582 -0.216528 63 69 135
0.193432 0.571120 -0.109255 68 3 87
-0.106349 -0.410866 -0.193158 68 1 84
-0.638238 -0.122372 0.273670 68 1 84
0.486659 -0.459502 -0.096815 68 1 84
0.543345 -0.082744 -0.010063 68 1 84
-0.602184 -0.560395 0.158975 68 1 84
-0.234460 0.265725 -0.192992 61 76 137
0.287250 0.437253 -0.067223 68 1 84
-0.475219 -0.474067 -0.112611 68 1 84
-0.287735 -0.107181 -0.187498 68 1 84
-0.141420 -0.068464 -0.311235 71 15 98
-0.473663 -0.462595 -0.106718 68 1 84
-0.339179 0.164267 -0.177899 68 1 84
0.580642 -0.460682 0.129137 68 1 84
-0.468184 0.330928 0.074039 68 1 84
-0.199382 0.621884 -0.090657 68 1 84
-0.586007 -0.435810 0.113465 68 1 84
0.010471 -0.556556 -0.290429 68 1 84
0.214015 0.005752 -0.218771 32 143 140
-0.557797 -0.052205 -0.007617 68 1 84
0.378022 -0.118557 -0.159859 67 60 132
-0.530730 -0.103662 -0.063824 68 1 84
0.262399 0.410817 -0.107730 68 1 84
-0.048210 0.256772 -0.293539 34 137 141
-0.596778 0.133353 0.444358 68 1 84
0.213467 0.518919 -0.105765 68 1 84
0.345148 -0.461462 -0.199369 68 1 84
-0.407557 0.147992 -0.133467 68 1 84
-0.085886 -0.550986 -0.285826 68 1 84
0.570621 -0.077555 0.091874 68 1 84
-0.597292 -0.214347 0.065837 68 1 84
-0.156346 -0.248967 -0.176290 49 101 141
0.580924 -0.379516 0.111487 68 1 84
0.422542 0.153648 -0.091241 68 1 84
0.264287 0.404521 -0.108469 68 1 84
0.028744 0.341895 -0.298801 38 127 142
0.360676 0.201279 -0.136622 61 75 137
0.574937 0.062214 0.533920 68 1 84
-0.308855 0.196241 -0.186568 68 1 84
0.302622 -0.515929 -0.238943 68 1 84
-0.610289 -0.007250 0.288574 68 1 84
0.530400 -0.039898 -0.012853 68 1 84
0.604467 -0.060311 0.492492 68 1 84
-0.655513 -0.200346 0.290523 68 1 84
-0.015482 0.071961 -0.347015 31 162 134
0.276701 -0.237652 -0.168847 66 61 132
0.558769 0.132163 0.524496 68 1 84
0.106018 0.072649 -0.271005 91 200 98
-0.542971 0.273638 0.275476 68 1 84
0.074234 0.536291 -0.216620 70 14 97
0.375748 0.464138 0.080002 68 1 84
0.404981 0.414977 0.091369 68 1 84
0.353414 -0.567982 -0.226871 68 1 84
-0.551038 0.058265 0.076500 68 1 84
-0.603254 0.099793 0.406452 68 1 84
0.198851 0.631539 0.006123 68 1 84
0.647119 -0.425848 0.439369 68 1 84
0.537022 0.074727 0.177459 68 1 84
0.129483 0.447918 -0.191572 41 121 142
-0.444028 -0.384783 -0.091947 68 1 84
-0.229263 -0.149942 -0.185315 54 90 140
-0.127303 -0.249607 -0.208644 61 75 137
-0.677438 -0.555344 0.475711 68 1 84
-0.495554 0.380117 0.418893 68 1 84
-0.654908 -0.215306 0.283376 68 1 84
0.128262 -0.556984 -0.276906 68 1 84
0.272254 0.102387 -0.207058 72 28 110
0.251797 0.175791 -0.209767 59 81 138
-0.646666 -0.238271 0.242775 68 1 84
0.533881 -0.009145 0.021757 68 1 84
-0.162344 0.499472 -0.178258 70 45 124
-0.654106 -0.431551 0.334768 68 1 84
-0.603013 0.008456 0.270967 68 1 84
0.271789 0.329060 -0.132255 31 148 139
0.484140 0.236942 0.123052 68 1 84
0.608017 -0.408076 0.204613 68 1 84
-0.304653 -0.540558 -0.225143 68 1 84
-0.453485 0.080516 -0.107415 68 1 84
-0.354585 0.287889 -0.124447 71 44 123
0.258982 0.325200 -0.141049 37 131 141
0.515733 0.288163 0.332418 68 1 84
0.551661 -0.014706 0.089810 68 1 84
-0.285039 -0.050709 -0.203142 68 1 84
-0.330083 -0.265778 -0.161160 68 1 84
0.258239 0.593222 0.042986 68 1 84
-0.576617 0.046256 0.199044 68 1 84
0.116574 0.174732 -0.287684 31 148 139
-0.660259 -0.409703 0.363319 68 1 84
0.540760 0.207854 0.323292 68 1 84
0.295303 -0.186922 -0.165852 65 66 134
-0.067176 -0.376722 -0.251778 68 1 84
-0.005590 0.542900 -0.234425 68 1 84
0.066721 0.466714 -0.210444 60 77 138
0.654866 -0.563572 0.426855 68 1 84
0.643490 -0.277856 0.401222 68 1 84
-0.303953 -0.019471 -0.202684 68 1 84
-0.162010 0.592764 -0.159892 68 1 84
-0.156365 -0.004085 -0.334930 70 47 124
0.485549 0.346905 0.436705 68 1 84
-0.589866 -0.261767 0.064238 68 1 84
0.652527 -0.449508 0.497177 68 1 84
0.567208 -0.477620 0.096945 68 1 84
0.412160 0.023065 -0.145173 68 1 84
-0.649777 -0.158609 0.290814 68 1 84
-0.551147 0.257627 0.297215 68 1 84
-0.368535 -0.341897 -0.160564 68 1 84
-0.546923 0.279233 0.318826 68 1 84
0.390037 0.506240 0.227032 68 1 84
-0.581487 0.140486 0.300305 68 1 84
-0.536537 0.310289 0.393019 68 1 84
0.281790 -0.553033 -0.252960 68 1 84
0.255555 0.116596 -0.208028 68 57 130
0.046684 -0.031597 -0.488821 68 1 84
-0.548294 0.214247 0.219026 68 1 84
0.412086 0.462163 0.354506 68 1 84
-0.442841 0.267579 -0.023131 68 1 84
0.262708 0.342505 -0.133877 46 108 142
-0.383647 0.500291 0.074891 68 1 84
0.535052 -0.254717 -0.015311 68 1 84
0.641151 -0.332836 0.335548 68 1 84
0.411125 0.140195 -0.113401 68 1 84
0.053607 -0.310238 -0.274334 30 157 136
-0.086686 -0.241815 -0.310661 68 1 84
0.122151 -0.265350 -0.190896 75 194 108
-0.664791 -0.508713 0.376934 68 1 84
0.396409 0.472364 0.144948 68 1 84
0.041991 0.525802 -0.230431 71 39 119
-0.601962 -0.205698 0.076787 68 1 84
0.580005 -0.265501 0.082455 68 1 84
-0.670806 -0.348993 0.517814 68 1 84
-0.159662 -0.008288 -0.281398 52 94 141
-0.309554 -0.097953 -0.185935 68 1 84
0.630015 -0.436473 0.290988 68 1 84
0.519157 -0.009447 -0.015543 68 1 84
-0.643243 -0.146505 0.268666 68 1 84
0.537321 0.021436 0.079082 68 1 84
0.538917 0.200598 0.302261 68 1 84
0.386663 -0.527965 -0.214771 68 1 84
-0.312228 0.472314 -0.052549 68 1 84
-0.592019 0.149632 0.504352 68 1 84
-0.084373 -0.064629 -0.466285 68 1 84
-0.217986 -0.198896 -0.167516 72 30 112
0.607960 -0.079935 0.467111 68 1 84
-0.023329 -0.156694 -0.437204 68 1 84
0.642376 -0.280694 0.296293 68 1 84
-0.095014 0.667221 -0.140040 68 1 84
0.552982 0.171270 0.515666 68 1 84
-0.378187 0.037152 -0.172633 68 1 84
0.029189 -0.153464 -0.434099 68 1 84
0.498784 0.152887 0.093527 68 1 84
0.192808 -0.143565 -0.212824 51 97 141
0.625696 -0.396847 0.259240 68 1 84
0.533331 0.116973 0.201556 68 1 84
-0.154359 0.149179 -0.263968 68 1 84
0.276676 0.590843 0.086338 68 1 84
-0.615504 -0.084066 0.209229 68 1 84
0.346320 -0.465814 -0.204185 68 1 84
-0.021160 0.597753 -0.213589 68 1 84
0.071176 -0.443695 -0.234633 68 1 84
-0.619339 -0.299310 0.161582 68 1 84
-0.563406 0.107783 0.196034 68 1 84
0.519038 0.273644 0.487906 68 1 84
-0.544366 0.077534 0.071546 68 1 84
0.365714 -0.539075 -0.222660 68 1 84
0.274459 0.463865 -0.067039 68 1 84
-0.426808 -0.029210 -0.148740 68 1 84
-0.096359 -0.342151 -0.196256 54 90 140
0.565735 -0.004364 0.209450 68 1 84
0.367294 0.005381 -0.178136 68 1 84
-0.266818 0.501551 -0.084897 72 32 113
-0.591615 0.093789 0.302833 68 1 84
-0.006041 0.043664 -0.429638 68 1 84
-0.562294 -0.480072 0.052729 68 1 84
-0.619383 -0.288151 0.156613 68 1 84
0.441172 -0.470687 -0.166713 68 1 84
-0.099212 -0.225258 -0.282619 68 1 84
0.045655 -0.175929 -0.405883 68 1 84
-0.096880 0.421274 -0.224704 37 130 142
0.420759 0.220742 -0.052523 68 1 84
-0.521900 -0.358070 -0.015868 68 1 84
-0.578942 -0.368973 0.079284 68 1 84
-0.660324 -0.443419 0.361181 68 1 84
-0.578557 0.073131 0.230340 68 1 84
0.191903 0.304242 -0.198547 31 150 139
-0.506729 0.315243 0.170036 68 1 84
0.388493 -0.530095 -0.213292 68 1 84
0.252304 0.195833 -0.209599 46 107 142
0.401543 -0.128425 -0.148942 72 29 111
0.406649 0.089354 -0.135250 68 1 84
0.558703 0.006154 0.187511 68 1 84
-0.617634 -0.438001 0.206284 68 1 84
-0.520878 0.338738 0.300289 68 1 84
-0.211859 0.372020 -0.202837 72 33 114
0.047643 0.030896 -0.346934 30 154 137
0.097550 -0.281062 -0.203802 144 214 67
0.234314 0.006352 -0.220052 35 135 141
-0.285639 -0.238696 -0.156651 71 43 122
-0.565334 -0.468721 0.061172 68 1 84
0.340489 -0.203094 -0.152998 68 1 84
-0.644063 -0.543192 0.306218 68 1 84
0.644522 -0.494459 0.353785 68 1 84
0.215798 0.458105 -0.128307 61 75 137
0.011622 0.151444 -0.319610 34 137 141
0.409030 -0.420971 -0.132980 72 25 107
-0.637487 -0.543207 0.283819 68 1 84
-0.272882 0.287600 -0.158547 58 82 139
0.527992 0.252906 0.490988 68 1 84
-0.018876 -0.267616 -0.371571 68 1 84
-0.543786 -0.236218 -0.030735 68 1 84
-0.460369 0.312780 0.042979 68 1 84
-0.476909 0.085213 -0.078658 68 1 84
0.098072 -0.113108 -0.356881 66 190 113
-0.021911 0.526959 -0.237654 68 1 84
0.187346 -0.350825 -0.185146 50 99 141
-0.278131 0.604078 0.100462 68 1 84
0.103613 -0.135121 -0.305395 170 219 50
-0.163898 0.047005 -0.227000 53 93 140
0.417868 0.456838 0.197667 68 1 84
0.138919 -0.062319 -0.288711 31 147 139
-0.071347 -0.526289 -0.287429 68 1 84
-0.381186 0.185655 -0.143767 68 1 84
0.486652 0.147049 0.041774 68 1 84
-0.472925 -0.329223 -0.056542 68 1 84
-0.580730 -0.434620 0.099635 68 1 84
0.221753 0.600867 -0.031942 68 1 84
-0.276268 0.588229 0.013258 68 1 84
0.453507 -0.367091 -0.072622 68 1 84
-0.170146 0.153425 -0.256141 68 1 84
0.180382 -0.404112 -0.181842 58 82 139
0.530433 -0.383380 0.010085 68 1 84
-0.402309 0.389836 -0.007603 68 1 84
-0.626957 -0.533258 0.243942 68 1 84
-0.324541 -0.515636 -0.216439 68 1 84
-0.334868 0.569146 0.139062 68 1 84
-0.659796 -0.159720 0.366763 68 1 84
-0.480091 -0.412867 -0.071415 68 1 84
-0.115890 0.271991 -0.256309 69 50 127
0.508737 -0.104031 -0.072658 68 1 84
0.434932 0.081452 -0.105448 68 1 84
0.014061 0.300803 -0.282701 30 158 136
-0.196453 0.117708 -0.234276 72 35 116
0.230323 0.215213 -0.220961 47 106 141
0.453759 -0.408711 -0.095253 68 1 84
-0.498610 -0.053445 -0.091650 68 1 84
0.080683 0.007390 -0.397745 42 119 142
0.616989 -0.164131 0.241742 68 1 84
-0.495959 0.383838 0.391337 68 1 84
-0.103224 -0.427045 -0.206798 68 1 84
0.636228 -0.533939 0.295705 68 1 84
0.437464 0.239804 -0.002619 68 1 84
0.469427 0.231753 0.072822 68 1 84
-0.313678 -0.337688 -0.190427 68 1 84
-0.234320 -0.427417 -0.201275 68 1 84
0.216350 0.375381 -0.178714 34 137 141
-0.135824 -0.165402 -0.247720 71 43 122
0.165614 0.242676 -0.260453 48 104 141
0.509688 0.214428 0.192619 68 1 84
-0.422478 0.497494 0.252061 68 1 84
0.007415 -0.035196 -0.499415 68 1 84
0.433477 0.011125 -0.128658 68 1 84
0.268704 0.160528 -0.201577 49 100 141
-0.300986 0.130309 -0.200090 68 1 84
-0.077291 -0.223932 -0.341953 68 1 84
-0.560578 0.071075 0.147272 68 1 84
0.164982 0.330121 -0.233453 33 140 141
0.223498 0.111432 -0.215670 54 91 140
-0.350056 -0.375034 -0.177107 68 1 84
0.400018 0.319226 -0.013218 68 1 84
-0.573541 0.211419 0.383250 68 1 84
-0.069229 0.324130 -0.292746 60 77 138
0.442407 0.172193 -0.046423 68 1 84
-0.189687 0.452168 -0.172632 38 127 142
0.589322 0.028089 0.425376 68 1 84
0.590818 -0.164792 0.116712 68 1 84
-0.675179 -0.237355 0.364985 68 1 84
0.205414 0.632037 0.032620 68 1 84
-0.133846 0.399269 -0.242323 55 89 140
-0.566277 0.101350 0.201548 68 1 84
-0.629237 0.009890 0.569209 68 1 84
-0.182679 0.395434 -0.215867 72 28 110
-0.221876 -0.457474 -0.218750 68 1 84
0.470039 0.102818 -0.040131 68 1 84
-0.458343 -0.252946 -0.086203 68 1 84
-0.412953 0.508900 0.241939 68 1 84
0.630147 -0.151225 0.322817 68 1 84
0.084886 -0.469494 -0.243818 68 1 84
0.210630 -0.438420 -0.200843 68 1 84
0.215757 -0.126645 -0.209549 48 103 141
-0.104515 0.090499 -0.280083 56 87 140
0.481457 0.264411 0.140164 68 1 84
-0.004903 -0.183760 -0.423563 68 1 84
-0.034481 0.270012 -0.280839 54 184 119
-0.282441 0.286491 -0.157320 60 78 138
-0.001011 -0.115180 -0.469219 68 1 84
0.117070 -0.270781 -0.191450 112 206 86
-0.131675 -0.117423 -0.267522 32 144 140
-0.528648 -0.542461 -0.040531 68 1 84
0.639873 -0.295877 0.516584 68 1 84
-0.151721 0.608419 -0.159520 68 1 84
0.399636 0.429734 0.094847 68 1 84
-0.431818 0.482482 0.181056 68 1 84
0.564066 0.147325 0.409826 68 1 84
0.624140 -0.458897 0.269507 68 1 84
-0.674247 -0.492278 0.428880 68 1 84
0.367243 0.526385 0.174663 68 1 84
0.527991 0.196801 0.248263 68 1 84
0.008745 -0.273464 -0.366373 68 1 84
0.633700 -0.455259 0.314751 68 1 84
-0.050008 -0.132643 -0.443608 68 1 84
0.558235 -0.014836 0.132644 68 1 84
-0.526887 0.094987 0.022187 68 1 84
-0.105701 0.384032 -0.269807 53 92 140
0.628843 -0.140432 0.450805 68 1 84
0.310356 0.443251 -0.041042 72 28 110
-0.277451 0.523186 -0.061931 68 1 84
-0.103362 0.386454 -0.267767 56 86 139
-0.509479 -0.535290 -0.084436 68 1 84
-0.364925 -0.464776 -0.193737 68 1 84
0.651161 -0.470832 0.426591 68 1 84
0.306853 0.424797 -0.056861 67 60 132
-0.521960 0.334934 0.292848 68 1 84
0.499479 -0.408436 -0.049041 68 1 84
-0.569903 0.063671 0.185541 68 1 84
-0.570646 -0.482709 0.074561 68 1 84
-0.577431 -0.483317 0.092681 68 1 84
0.032022 0.244064 -0.315600 31 147 139
0.103024 -0.465774 -0.231779 68 1 84
0.214129 0.324985 -0.186409 39 126 142
0.434847 -0.173895 -0.122367 68 1 84
-0.496784 -0.377805 -0.041359 68 1 84
0.030727 -0.309431 -0.324941 68 1 84
0.449426 0.209921 -0.000508 68 1 84
0.456344 0.171780 -0.016945 68 1 84
0.470718 -0.115621 -0.109749 68 1 84
-0.112531 0.387378 -0.262987 59 80 138
0.413527 0.301300 -0.000560 68 1 84
-0.459729 0.442118 0.310020 68 1 84
0.408032 0.058837 -0.141688 68 1 84
-0.632158 -0.386662 0.238680 68 1 84
0.176211 -0.280829 -0.180590 36 132 141
0.276424 0.591416 0.087720 68 1 84
-0.077576 -0.522441 -0.284762 68 1 84
-0.617427 -0.111481 0.180501 68 1 84
-0.069088 -0.512224 -0.283714 68 1 84
0.147648 0.021750 -0.281104 50 181 122
0.461087 0.395618 0.277219 68 1 84
-0.557829 0.134453 0.195541 68 1 84
0.539205 -0.557885 0.018937 68 1 84
-0.414844 -0.232866 -0.112945 70 9 92
-0.065047 -0.191046 -0.380172 68 1 84
-0.637128 -0.383199 0.255311 68 1 84
-0.588581 0.060634 0.258992 68 1 84
-0.224081 -0.002423 -0.218016 39 124 142
0.639388 -0.309481 0.288448 68 1 84
0.415870 0.445452 0.160724 68 1 84
-0.527356 0.100519 0.029070 68 1 84
0.034205 0.216149 -0.332122 72 28 110
0.188244 0.274903 -0.211891 36 132 141
0.150240 0.210029 -0.274648 33 140 141
-0.415324 -0.333091 -0.108010 68 1 84
-0.125433 -0.282394 -0.184769 53 93 140
-0.378755 0.362582 -0.061777 68 1 84
0.530346 0.251525 0.347280 68 1 84
0.506971 0.219669 0.187359 68 1 84
-0.605251 -0.493525 0.168871 68 1 84
0.249003 -0.358605 -0.204209 71 18 101
-0.460495 0.243448 -0.008721 68 1 84
-0.077341 0.645741 -0.177920 68 1 84
0.448143 -0.529502 -0.164135 68 1 84
0.581943 0.052055 0.506127 68 1 84
0.594259 -0.275723 0.120575 68 1 84
-0.577754 -0.000096 0.135784 68 1 84
-0.664180 -0.217017 0.319598 68 1 84
0.106303 0.090346 -0.270446 30 154 137
-0.535805 0.308220 0.443454 68 1 84
0.137877 0.000968 -0.348241 57 85 139
0.446165 -0.154526 -0.121596 68 1 84
-0.543580 -0.179262 -0.046727 68 1 84
0.608316 -0.081603 0.486896 68 1 84
0.397113 -0.154741 -0.143873 68 1 84
-0.034317 0.029447 -0.438658 68 1 84
0.559886 -0.266188 0.032732 68 1 84
-0.022940 0.541333 -0.234641 68 1 84
0.543014 -0.304631 0.014992 68 1 84
0.634858 -0.184898 0.304706 68 1 84
0.585602 -0.417863 0.134526 68 1 84
0.277393 0.330983 -0.128221 31 147 139
0.379174 -0.148279 -0.151924 68 1 84
0.276763 0.573255 0.036884 68 1 84
-0.373531 0.132158 -0.162957 68 1 84
0.162485 -0.334096 -0.175971 30 158 136
0.023187 -0.444816 -0.266173 68 1 84
0.602128 -0.313722 0.149029 68 1 84
0.074598 -0.408887 -0.212086 38 127 142
0.575772 -0.082010 0.115080 68 1 84
-0.210465 -0.171059 -0.183997 68 55 129
0.010913 0.353127 -0.299353 55 88 140
-0.506542 0.262920 0.120175 68 1 84
-0.365444 0.509697 0.052858 68 1 84
0.198074 -0.551266 -0.266479 68 1 84
0.463398 0.096634 -0.055974 68 1 84
0.448521 0.419295 0.284354 68 1 84
-0.345491 0.113682 -0.182730 68 1 84
0.364828 0.409245 -0.002639 68 1 84
-0.242532 -0.515265 -0.242619 68 1 84
-0.657512 -0.159510 0.331894 68 1 84
-0.283352 -0.387541 -0.190543 68 1 84
-0.457494 0.360269 0.074610 68 1 84
-0.409187 0.514489 0.198327 68 1 84
0.358900 0.471254 0.051999 68 1 84
0.484160 0.080676 -0.027338 68 1 84
0.167005 0.436397 -0.177788 39 124 142
-0.348636 0.349174 -0.096572 71 22 105
-0.518097 -0.067994 -0.073033 68 1 84
-0.631583 -0.015448 0.415345 68 1 84
0.285339 0.492205 -0.039165 68 1 84
-0.441599 0.464155 0.315789 68 1 84
0.328504 0.565540 0.195363 68 1 84
0.375271 0.517960 0.181429 68 1 84
-0.174071 0.602723 -0.142231 68 1 84
0.059450 -0.521572 -0.280454 68 1 84
0.130337 0.510209 -0.175962 71 43 122
-0.049340 0.018727 -0.353890 69 50 127
0.559703 -0.051626 0.072225 68 1 84
0.255838 0.296042 -0.155191 40 122 142
0.386171 -0.357078 -0.142853 68 1 84
0.640124 -0.364833 0.354201 68 1 84
-0.075154 0.360726 -0.296488 62 72 136
-0.574678 0.209093 0.483341 68 1 84
0.224138 0.474651 -0.112694 68 1 84
0.091328 0.290119 -0.258307 253 231 36
0.487998 -0.474339 -0.101867 68 1 84
-0.575978 0.205207 0.410672 68 1 84
-0.513321 -0.062788 -0.077567 68 1 84
-0.581143 -0.461884 0.102828 68 1 84
0.381489 -0.389744 -0.141427 70 14 97
0.134332 -0.338868 -0.169597 51 182 121
0.421572 -0.161909 -0.132082 68 1 84
-0.585081 -0.228380 0.037435 68 1 84
0.069416 0.008531 -0.372673 38 129 142
-0.052185 0.584311 -0.218771 68 1 84
-0.381864 0.501073 0.072369 68 1 84
0.444093 0.084368 -0.092702 68 1 84
0.061484 -0.352570 -0.221634 30 153 138
0.086352 0.634948 -0.171052 68 1 84
0.524928 0.029282 0.037252 68 1 84
0.556571 -0.000330 0.156892 68 1 84
-0.385746 -0.103382 -0.161767 68 1 84
0.272445 0.521132 -0.036629 68 1 84
0.487568 -0.232767 -0.071550 68 1 84
-0.617055 -0.542187 0.206156 68 1 84
-0.570814 0.202530 0.324736 68 1 84
0.500781 -0.410211 -0.048141 68 1 84
-0.101158 -0.296783 -0.212989 70 49 126
-0.459045 -0.411466 -0.089228 68 1 84
-0.565207 -0.027077 0.025673 68 1 84
-0.500448 -0.113107 -0.095293 68 1 84
0.627367 -0.518726 0.271960 68 1 84
-0.387228 -0.252604 -0.121463 72 30 112
0.185809 0.579075 -0.115254 70 9 92
-0.205749 0.460502 -0.156903 64 68 135
-0.665896 -0.462442 0.389134 68 1 84
0.208737 0.613898 -0.033886 68 1 84
0.568931 -0.086550 0.072245 68 1 84
-0.171322 0.371754 -0.240455 71 24 106
-0.615159 -0.533756 0.200454 68 1 84
0.638340 -0.314602 0.285348 68 1 84
-0.368271 0.182988 -0.154647 68 1 84
-0.221428 0.312962 -0.190118 71 39 119
0.281749 0.594195 0.125800 68 1 84
0.605329 -0.056216 0.445616 68 1 84
0.272407 0.139503 -0.201761 70 48 125
-0.124350 -0.207102 -0.243680 54 90 140
0.611870 -0.072705 0.362039 68 1 84
-0.658470 -0.178680 0.455738 68 1 84
0.646397 -0.257115 0.422796 68 1 84
-0.657456 -0.446800 0.347851 68 1 84
0.561679 -0.573097 0.074736 68 1 84
0.618236 -0.484754 0.251219 68 1 84
-0.122190 0.300381 -0.263298 53 92 140
0.510359 0.211971 0.192923 68 1 84
-0.660853 -0.182068 0.401391 68 1 84
-0.599531 0.010499 0.258235 68 1 84
-0.134552 -0.483969 -0.234103 68 1 84
-0.657432 -0.395201 0.341456 68 1 84
0.129451 0.202344 -0.286860 36 133 141
-0.578801 0.137840 0.281499 68 1 84
-0.668124 -0.420233 0.414930 68 1 84
0.283358 0.397420 -0.092868 71 18 101
0.512284 0.295059 0.452137 68 1 84
-0.092397 -0.249910 -0.284144 68 1 84
0.418168 0.455551 0.351514 68 1 84
-0.535123 -0.475407 -0.020592 68 1 84
-0.481125 0.399785 0.414340 68 1 84
-0.624497 -0.459855 0.233826 68 1 84
0.614143 -0.532691 0.232916 68 1 84
0.330588 -0.261067 -0.161662 68 1 84
0.038463 -0.108599 -0.464285 68 1 84
0.559759 0.161280 0.387124 68 1 84
-0.187503 0.391192 -0.215300 68 1 84
-0.390778 -0.540586 -0.191383 68 1 84
0.295604 -0.260984 -0.173877 71 42 121
0.237875 -0.317554 -0.203451 72 29 111
-0.573267 0.214655 0.426236 68 1 84
0.643719 -0.379362 0.462770 68 1 84
-0.109934 -0.195580 -0.277716 70 9 92
0.036760 -0.019169 -0.489014 68 1 84
-0.179364 0.414093 -0.204962 53 93 140
0.193158 0.216299 -0.244658 41 121 142
-0.415866 0.469597 0.099727 68 1 84
0.013820 0.518361 -0.236567 68 1 84
-0.560327 0.253399 0.378207 68 1 84
0.645391 -0.541826 0.332756 68 1 84
0.543588 0.188097 0.310031 68 1 84
-0.435925 -0.233001 -0.103558 68 1 84
0.639068 -0.215785 0.299666 68 1 84
0.377787 0.427822 0.043714 68 1 84
0.643284 -0.234635 0.314274 68 1 84
0.182516 -0.428112 -0.190936 68 1 84
0.596183 -0.529094 0.172133 68 1 84
-0.209901 -0.262327 -0.165456 70 49 126
0.287337 0.180751 -0.190918 66 61 132
-0.227382 -0.325762 -0.196576 68 1 84
-0.528908 -0.535860 -0.040857 68 1 84
0.442176 0.243650 0.012087 68 1 84
-0.093773 0.123242 -0.297479 71 43 122
-0.196276 0.250721 -0.237116 68 1 84
-0.630987 -0.257605 0.184133 68 1 84
0.543447 0.209171 0.503077 68 1 84
0.337324 0.551404 0.143590 68 1 84
0.534275 0.245169 0.423355 68 1 84
-0.575816 0.204427 0.395449 68 1 84
-0.186643 0.649941 -0.039393 68 1 84
-0.344666 0.357858 -0.093890 70 14 97
0.446165 0.213635 -0.005197 68 1 84
-0.665790 -0.353176 0.410827 68 1 84
-0.005274 0.346539 -0.301769 61 74 137
-0.538789 0.296029 0.480440 68 1 84
0.528020 -0.426526 0.001475 68 1 84
-0.527436 0.187399 0.126475 68 1 84
-0.016950 0.363185 -0.301273 62 72 136
0.532315 -0.046954 -0.013705 68 1 84
0.563023 -0.040568 0.108068 68 1 84
-0.228771 -0.381789 -0.192125 68 1 84
0.581676 -0.028062 0.259050 68 1 84
-0.330115 0.371751 -0.094848 72 26 108
-0.657702 -0.183989 0.309202 68 1 84
-0.385923 0.152103 -0.149639 68 1 84
0.453519 0.389872 0.213295 68 1 84
0.628762 -0.214421 0.256933 68 1 84
0.440023 0.243840 0.007076 68 1 84
-0.567472 0.204020 0.305750 68 1 84
0.133281 -0.246872 -0.192253 151 216 62
0.605267 -0.083314 0.293773 68 1 84
0.159081 0.611688 -0.124205 68 1 84
-0.644672 -0.065368 0.462191 68 1 84
-0.004593 -0.461350 -0.277032 68 1 84
-0.055952 -0.116589 -0.455668 68 1 84
-0.485456 -0.220172 -0.085604 68 1 84
-0.263687 -0.417201 -0.194688 68 1 84
-0.394252 -0.566172 -0.191947 68 1 84
-0.636852 -0.039241 0.420406 68 1 84
-0.577719 -0.523035 0.090633 68 1 84
0.236542 -0.557496 -0.262362 68 1 84
-0.406818 0.363570 -0.020446 68 1 84
-0.251907 -0.160027 -0.172058 66 61 132
-0.630617 -0.309573 0.204317 68 1 84
-0.640976 -0.146167 0.256574 68 1 84
-0.403250 0.320445 -0.054084 68 1 84
-0.065777 0.016338 -0.411079 68 1 84
0.600478 -0.034348 0.532667 68 1 84
0.654592 -0.507772 0.428109 68 1 84
0.286722 0.511153 -0.024634 68 1 84
0.124315 -0.465256 -0.222503 68 1 84
0.256014 0.377803 -0.130317 53 92 140
0.549164 0.200021 0.394305 68 1 84
0.534655 -0.452698 0.016996 68 1 84
-0.220970 -0.169314 -0.179455 60 78 138
0.601928 -0.044816 0.472421 68 1 84
-0.510229 -0.240076 -0.061348 68 1 84
-0.667630 -0.327627 0.472482 68 1 84
0.251751 -0.027393 -0.219584 53 92 140
0.087377 0.120155 -0.293369 41 120 142
0.579590 0.017131 0.311235 68 1 84
-0.005454 0.174900 -0.322973 48 104 141
0.061718 -0.010793 -0.468750 68 1 84
-0.581687 0.186338 0.426220 68 1 84
-0.511650 0.143022 0.019401 68 1 84
-0.451067 0.458357 0.275689 68 1 84
0.256902 -0.058807 -0.214938 43 116 142
0.458984 0.212095 0.025459 68 1 84
0.608724 -0.053690 0.402044 68 1 84
0.550765 -0.006760 0.100778 68 1 84
0.601290 -0.496912 0.194561 68 1 84
-0.616144 0.001377 0.333407 68 1 84
-0.369572 0.460598 0.004586 68 1 84
-0.324563 0.142964 -0.189145 68 1 84
-0.390062 0.080929 -0.160309 68 1 84
0.485016 -0.202553 -0.084347 68 1 84
-0.224935 0.579876 -0.096909 68 1 84
-0.510679 0.003537 -0.063282 68 1 84
-0.080251 0.610680 -0.203041 68 1 84
-0.157986 -0.214935 -0.198354 59 80 138
0.271101 -0.513834 -0.240103 68 1 84
0.650478 -0.511552 0.385979 68 1 84
0.042606 0.409899 -0.237334 96 201 96
0.627347 -0.373102 0.258429 68 1 84
-0.647415 -0.528524 0.315656 68 1 84
0.080284 0.666887 -0.133576 68 1 84
-0.300396 -0.199021 -0.152901 68 1 84
-0.464567 -0.401506 -0.080033 68 1 84
0.536076 -0.203088 -0.032411 68 1 84
0.461968 0.057769 -0.078601 68 1 84
-0.546962 -0.020029 -0.013604 68 1 84
-0.023156 0.102151 -0.326819 62 72 136
-0.000999 0.405774 -0.241233 105 204 91
0.489346 0.057100 -0.031452 68 1 84
-0.045514 0.208243 -0.333677 60 77 138
0.460542 -0.063669 -0.115853 68 1 84
-0.535198 0.307240 0.310353 68 1 84
0.233709 0.511446 -0.087902 68 1 84
0.080061 0.019379 -0.320961 33 141 140
0.414908 0.470369 0.309951 68 1 84
-0.641219 -0.041262 0.464726 68 1 84
-0.572463 -0.277793 0.029206 68 1 84
0.576529 0.086777 0.386784 68 1 84
-0.674032 -0.418251 0.499384 68 1 84
0.448485 0.405524 0.410566 68 1 84
0.082004 0.679605 -0.099306 68 1 84
0.613677 -0.127669 0.267045 68 1 84
0.554242 0.182985 0.405065 68 1 84
-0.602060 -0.022122 0.234200 68 1 84
0.444716 -0.244169 -0.093663 68 1 84
-0.665002 -0.341419 0.399984 68 1 84
0.490693 0.205381 0.116200 68 1 84
-0.023361 -0.353996 -0.308816 68 1 84
0.518278 0.108958 0.127676 68 1 84
-0.514143 0.292732 0.169734 68 1 84
0.607306 -0.173098 0.189366 68 1 84
0.415958 -0.281660 -0.105131 68 1 84
-0.306569 0.155271 -0.194652 68 1 84
-0.591519 -0.569740 0.126234 68 1 84
-0.610415 -0.106902 0.146141 68 1 84
0.055613 -0.329494 -0.247374 44 177 125
-0.266202 0.099684 -0.210920 68 1 84
-0.205761 -0.495449 -0.233058 68 1 84
-0.153099 -0.046576 -0.298247 54 91 140
0.125147 -0.409597 -0.179448 61 75 137
-0.255702 0.601055 -0.010834 68 1 84
-0.174861 0.079338 -0.232956 59 81 138
-0.544261 -0.490866 0.003362 68 1 84
0.199338 0.274628 -0.204470 35 135 141
0.190290 0.459066 -0.147532 63 71 136
-0.061747 -0.059191 -0.485149 68 1 84
-0.627931 -0.190650 0.168290 68 1 84
-0.330125 -0.113532 -0.174505 68 1 84
0.612218 -0.185766 0.203645 68 1 84
0.498854 0.330581 0.371376 68 1 84
-0.588365 -0.551604 0.118575 68 1 84
0.237169 0.429890 -0.126108 61 75 137
0.114573 0.024190 -0.313882 91 200 98
-0.095187 0.170032 -0.310063 72 34 115
-0.269540 0.404336 -0.132801 65 65 134
-0.125558 -0.078253 -0.348580 68 1 84
0.164581 0.306275 -0.221555 46 107 142
0.065861 -0.380990 -0.213706 47 106 141
-0.140505 -0.131310 -0.251430 38 127 142
0.503273 -0.100888 -0.078406 68 1 84
0.275261 0.022041 -0.216809 68 1 84
0.245398 -0.257551 -0.177538 55 89 140
-0.183501 0.158457 -0.249724 68 1 84
-0.494612 0.337364 0.154073 68 1 84
-0.195195 -0.131934 -0.208002 65 65 134
-0.409838 -0.121895 -0.148229 68 1 84
0.503699 -0.154574 -0.079138 68 1 84
0.534453 0.012665 0.051027 68 1 84
0.314497 0.573928 0.155059 68 1 84
0.633230 -0.475525 0.304463 68 1 84
0.130522 -0.105504 -0.260844 109 206 88
0.323824 -0.430231 -0.187207 68 1 84
0.579136 0.068642 0.502362 68 1 84
-0.665675 -0.421765 0.397613 68 1 84
-0.492470 -0.268964 -0.061973 68 1 84
0.519724 -0.513895 -0.038736 68 1 84
0.192453 0.642761 0.047079 68 1 84
-0.138799 0.409306 -0.229350 45 110 142
-0.291507 -0.121795 -0.180156 68 1 84
-0.224185 -0.372948 -0.190026 68 1 84
0.374972 0.227149 -0.109212 68 1 84
-0.176491 -0.342738 -0.166687 64 68 135
0.249650 0.568169 -0.028598 68 1 84
0.009401 -0.447415 -0.271930 68 1 84
0.589967 0.025018 0.425988 68 1 84
0.338715 0.112480 -0.183244 71 21 103
0.250224 0.254184 -0.195229 72 25 107
0.589423 -0.022571 0.307449 68 1 84
-0.613591 -0.055465 0.241514 68 1 84
0.365308 -0.454622 -0.190298 68 1 84
0.542094 0.128520 0.242715 68 1 84
0.147566 -0.042128 -0.304503 54 91 140
0.479910 0.240759 0.112505 68 1 84
0.335236 -0.399937 -0.184261 68 1 84
0.154733 -0.521535 -0.259254 68 1 84
0.085307 -0.002162 -0.431526 66 64 133
-0.637532 -0.188154 0.208932 68 1 84
-0.660098 -0.227286 0.485036 68 1 84
0.391938 0.502291 0.266452 68 1 84
-0.299619 0.580049 0.059652 68 1 84
-0.144882 0.005233 -0.347604 72 30 112
-0.599252 0.124178 0.502921 68 1 84
-0.625301 0.026220 0.505848 68 1 84
-0.062955 0.669313 -0.153503 68 1 84
-0.190161 0.235989 -0.251412 68 1 84
-0.258385 -0.274879 -0.185962 68 1 84
0.602362 -0.496519 0.198535 68 1 84
0.345855 0.533820 0.118318 68 1 84
0.428165 -0.015590 -0.137742 68 1 84
0.136495 0.666387 -0.035554 68 1 84
0.381632 0.508906 0.289242 68 1 84
0.299467 0.274033 -0.151702 33 140 141
-0.181504 0.135732 -0.245623 68 1 84
-0.665319 -0.266277 0.330446 68 1 84
-0.666641 -0.310471 0.466899 68 1 84
0.380272 0.158978 -0.138636 69 50 127
0.412892 0.398969 0.092570 68 1 84
-0.092215 0.486994 -0.218969 70 47 124
-0.302127 -0.510326 -0.227462 68 1 84
-0.328134 0.571453 0.120785 68 1 84
-0.339608 0.545402 0.066616 68 1 84
-0.578857 0.176364 0.339431 68 1 84
0.299330 -0.396446 -0.196162 71 20 102
0.006339 0.567627 -0.226243 68 1 84
0.099542 -0.157552 -0.299584 167 219 51
-0.129749 -0.528460 -0.272112 68 1 84
-0.431181 0.053353 -0.134547 68 1 84
0.460580 0.228953 0.046079 68 1 84
-0.590461 -0.167863 0.038653 68 1 84
0.221046 -0.239473 -0.174572 50 99 141
0.052441 -0.073523 -0.480045 68 1 84
0.118890 -0.234299 -0.215129 181 221 43
0.392419 0.442720 0.092567 68 1 84
-0.472937 0.291339 0.052622 68 1 84
0.257099 0.167572 -0.206865 55 88 140
-0.589875 0.016245 0.225758 68 1 84
-0.238568 0.503397 -0.112425 68 1 84
0.203487 0.019645 -0.216599 35 137 141
0.450811 -0.050867 -0.122663 68 1 84
-0.187678 -0.203426 -0.180530 71 43 122
0.435888 -0.408370 -0.105550 68 1 84
-0.518638 0.262785 0.157645 68 1 84
0.077396 -0.169477 -0.353537 43 115 142
-0.647889 -0.209226 0.249539 68 1 84
-0.292599 -0.377217 -0.189732 68 1 84
0.313393 0.470011 -0.020280 68 1 84
0.603510 -0.033852 0.405346 68 1 84
-0.457245 0.210607 -0.041460 68 1 84
0.280686 -0.163097 -0.174386 47 105 141
0.236451 0.558410 -0.059771 68 1 84
0.464003 -0.174571 -0.106107 68 1 84
0.540604 0.120538 0.230344 68 1 84
-0.346922 0.331528 -0.107505 68 1 84
-0.356337 -0.296742 -0.169832 68 1 84
0.226507 0.253790 -0.210011 47 105 141
-0.598594 0.085282 0.337621 68 1 84
0.640710 -0.235441 0.295196 68 1 84
0.481353 0.352385 0.276129 68 1 84
-0.589562 -0.119495 0.043873 68 1 84
-0.306725 0.585238 0.106592 68 1 84
0.616222 -0.130765 0.275428 68 1 84
0.500110 -0.245825 -0.056637 68 1 84
-0.557459 -0.519015 0.037668 68 1 84
-0.674244 -0.261640 0.394008 68 1 84
0.526031 0.181270 0.227042 68 1 84
0.189133 0.268740 -0.219447 44 114 142
-0.637545 -0.018518 0.479153 68 1 84
0.548736 0.157655 0.537953 68 1 84
0.559806 -0.233340 0.019943 68 1 84
0.558377 -0.279138 0.035252 68 1 84
0.035963 0.664965 -0.159885 68 1 84
0.521633 -0.176462 -0.056827 68 1 84
-0.518754 -0.579026 -0.056124 68 1 84
-0.474244 -0.000003 -0.106487 68 1 84
-0.327381 0.459948 -0.043900 68 1 84
-0.218958 0.637508 0.023395 68 1 84
0.252188 0.602781 0.057874 68 1 84
0.155784 0.559614 -0.154015 70 48 125
-0.357083 0.161042 -0.168019 68 1 84
0.453800 -0.356765 -0.068720 68 1 84
-0.334242 -0.087069 -0.181771 68 1 84
-0.150176 -0.120632 -0.240941 36 133 141
0.065506 0.009389 -0.364816 35 136 141
0.616396 -0.108084 0.514370 68 1 84
0.598098 -0.022570 0.493606 68 1 84
0.136869 0.052012 -0.240486 79 195 105
0.277499 -0.152549 -0.178488 47 105 141
0.473737 -0.477312 -0.125624 68 1 84
-0.219664 -0.247532 -0.162842 68 1 84
-0.565569 0.020965 0.096648 68 1 84
-0.401653 -0.466166 -0.164394 68 1 84
0.452743 0.412526 0.306391 68 1 84
0.138911 -0.179607 -0.229923 96 201 96
0.120751 -0.126688 -0.271670 157 217 58
0.573477 -0.145088 0.052547 68 1 84
-0.650613 -0.213957 0.262866 68 1 84
0.415228 -0.383281 -0.107792 68 1 84
0.095307 -0.039459 -0.442233 68 1 84
-0.630368 -0.376916 0.229368 68 1 84
0.566114 0.128749 0.502237 68 1 84
0.627395 -0.393213 0.264388 68 1 84
0.461083 -0.036619 -0.111942 68 1 84
-0.107900 0.392713 -0.258293 44 114 142
-0.455214 -0.442926 -0.110157 68 1 84
0.205088 -0.013103 -0.219762 30 151 138
-0.006030 -0.057592 -0.497594 68 1 84
-0.161153 0.449425 -0.190812 34 137 141
-0.202654 -0.440542 -0.204668 68 1 84
0.366654 -0.127516 -0.161731 72 32 113
0.580110 -0.506387 0.128692 68 1 84
-0.611263 -0.117210 0.138005 68 1 84
0.532605 0.241732 0.490921 68 1 84
-0.073265 -0.320590 -0.275674 68 1 84
-0.279226 -0.046993 -0.205161 68 1 84
0.602969 -0.189482 0.159705 68 1 84
-0.033930 -0.150643 -0.437299 68 1 84
-0.021496 -0.319635 -0.334055 68 1 84
-0.360303 0.441114 -0.023077 68 1 84
0.083166 -0.426191 -0.213594 72 26 108
-0.229685 -0.152075 -0.183900 72 33 114
-0.513381 0.157482 0.038793 68 1 84
-0.553481 0.044758 0.066080 68 1 84
-0.168762 -0.330268 -0.165729 60 78 138
-0.438309 0.475582 0.284966 68 1 84
0.179332 0.250853 -0.245373 43 115 142
0.473651 0.017291 -0.080500 68 1 84
0.053151 -0.082589 -0.474406 68 1 84
-0.616033 0.051270 0.422456 68 1 84
-0.016776 0.067840 -0.350468 36 134 141
-0.603422 -0.373482 0.144957 68 1 84
0.304827 0.306828 -0.128253 41 121 142
-0.090071 -0.192268 -0.327134 68 1 84
-0.649217 -0.149579 0.297769 68 1 84
0.189462 0.396140 -0.190552 48 103 141
-0.297254 -0.079180 -0.194071 68 1 84
-0.408103 -0.037581 -0.160141 68 1 84
-0.656913 -0.327605 0.370277 68 1 84
0.604961 -0.490694 0.208578 68 1 84
-0.312557 0.334100 -0.122326 72 30 112
-0.624672 0.023605 0.448187 68 1 84
-0.549665 0.118935 0.151101 68 1 84
-0.368184 0.500423 0.044651 68 1 84
-0.664310 -0.282025 0.515041 68 1 84
0.233139 -0.527256 -0.250701 68 1 84
-0.173563 0.134160 -0.249306 70 11 94
0.480941 0.048964 -0.052587 68 1 84
-0.643883 -0.047780 0.555806 68 1 84
0.545868 0.146597 0.272266 68 1 84
0.116045 0.558429 -0.187755 70 11 94
-0.286909 0.180561 -0.199784 68 1 84
0.316193 -0.293751 -0.191353 68 1 84
-0.195013 0.242502 -0.243812 68 1 84
0.375908 0.396765 0.005487 68 1 84
-0.390057 0.517833 0.127013 68 1 84
-0.575910 0.155406 0.286291 68 1 84
0.159923 0.630860 -0.099901 68 1 84
-0.463801 0.353066 0.081789 68 1 84
0.190524 0.536568 -0.124076 68 1 84
-0.619523 -0.373284 0.193035 68 1 84
-0.363990 0.148185 -0.166235 68 1 84
-0.134518 -0.333396 -0.166219 64 68 135
0.653205 -0.560124 0.400963 68 1 84
0.560861 -0.383801 0.069149 68 1 84
-0.127505 0.037175 -0.298495 55 89 140
-0.522462 -0.517418 -0.057055 68 1 84
0.588497 0.017128 0.516671 68 1 84
0.608740 -0.303616 0.169934 68 1 84
0.217120 -0.480100 -0.220606 68 1 84
-0.091827 -0.461167 -0.244589 68 1 84
0.632533 -0.289254 0.259004 68 1 84
0.568608 0.048386 0.290427 68 1 84
-0.610072 -0.125783 0.122925 68 1 84
0.501202 0.176052 0.129869 68 1 84
-0.125208 -0.445734 -0.205567 68 1 84
0.272759 0.594995 0.090011 68 1 84
-0.580640 0.192687 0.466681 68 1 84
-0.436783 -0.313628 -0.086609 68 1 84
-0.455458 0.286413 0.014119 68 1 84
-0.009095 0.635589 -0.191447 68 1 84
-0.562409 -0.196793 -0.015866 68 1 84
-0.230803 0.475796 -0.130667 71 44 123
0.476405 -0.354297 -0.049130 68 1 84
0.156995 -0.053973 -0.231416 87 198 101
0.597684 -0.025279 0.355115 68 1 84
-0.618248 -0.040794 0.285578 68 1 84
-0.386935 -0.057562 -0.169401 68 1 84
-0.497589 -0.000209 -0.081215 68 1 84
-0.200266 0.326643 -0.217183 60 78 138
-0.497202 0.384784 0.341328 68 1 84
0.457420 -0.166652 -0.112063 68 1 84
0.503627 0.307994 0.294996 68 1 84
-0.021813 0.151184 -0.319164 61 74 137
0.117862 0.534511 -0.187173 68 55 129
-0.097903 -0.138440 -0.346631 68 1 84
-0.429901 0.210140 -0.084601 68 1 84
0.099387 0.527570 -0.200044 60 78 138
-0.572216 0.142927 0.254606 68 1 84
0.440582 0.031828 -0.115762 68 1 84
-0.146507 -0.033819 -0.350017 68 1 84
-0.118889 -0.074473 -0.382183 68 1 84
-0.609315 -0.071185 0.198102 68 1 84
0.074185 0.235420 -0.311642 32 164 133
0.430744 -0.023144 -0.136433 68 1 84
0.115887 -0.009277 -0.393472 70 45 124
0.431109 0.378813 0.115935 68 1 84
0.201512 0.144516 -0.232633 49 102 141
0.490205 0.294323 0.209192 68 1 84
-0.524487 0.313092 0.503628 68 1 84
0.521159 0.134005 0.171030 68 1 84
0.034361 0.161053 -0.322926 41 120 142
-0.225592 0.594530 -0.084344 68 1 84
-0.252626 0.582966 -0.051634 68 1 84
-0.101513 -0.169467 -0.310398 68 1 84
-0.569422 0.004870 0.085516 68 1 84
-0.072638 -0.255710 -0.334053 68 1 84
-0.245784 0.371039 -0.168129 68 1 84
-0.619302 0.012872 0.370181 68 1 84
-0.658877 -0.241454 0.297655 68 1 84
0.450143 -0.243357 -0.090711 68 1 84
0.038262 -0.384950 -0.256991 71 24 106
0.583817 -0.376481 0.117409 68 1 84
0.350187 -0.160611 -0.157275 71 21 103
-0.471772 -0.390076 -0.068373 68 1 84
0.179223 -0.126092 -0.221712 35 137 141
0.621623 -0.458090 0.260911 68 1 84
0.396250 -0.275637 -0.122221 64 67 135
-0.639793 -0.051657 0.430578 68 1 84
0.144641 -0.351732 -0.167328 35 168 131
-0.056627 0.037669 -0.331881 55 89 140
-0.177287 -0.476025 -0.220256 68 1 84
0.561718 -0.046143 0.090970 68 1 84
-0.422205 -0.360227 -0.103842 68 1 84
0.447245 -0.495133 -0.164647 68 1 84
0.634614 -0.313213 0.270018 68 1 84
-0.438889 -0.057007 -0.141227 68 1 84
-0.098160 0.005037 -0.387265 68 1 84
0.500731 0.158840 0.109837 68 1 84
-0.305805 0.089875 -0.202519 68 1 84
0.231330 -0.215754 -0.174913 44 112 142
-0.244794 -0.189594 -0.163146 56 86 139
-0.571210 0.207488 0.509125 68 1 84
-0.584274 0.014741 0.200235 68 1 84
-0.606182 0.102536 0.468337 68 1 84
0.577776 -0.157446 0.065724 68 1 84
-0.100476 0.450205 -0.211645 33 142 140
-0.636312 -0.549115 0.281106 68 1 84
-0.625047 0.027583 0.489935 68 1 84
0.339277 0.535634 0.103851 68 1 84
0.451273 0.393571 0.209983 68 1 84
0.542607 0.210157 0.339044 68 1 84
0.109518 0.661353 -0.115627 68 1 84
0.116216 0.603259 -0.172231 68 1 84
0.600862 -0.245228 0.139729 68 1 84
-0.122915 -0.092786 -0.321644 68 1 84
0.175538 -0.070578 -0.225780 41 175 127
-0.037142 0.030495 -0.430854 68 1 84
-0.430977 -0.093331 -0.143455 68 1 84
-0.235241 -0.123696 -0.194584 72 35 116
0.312182 -0.416320 -0.191485 68 1 84
0.021612 -0.218568 -0.396515 68 1 84
-0.052314 -0.412493 -0.266611 68 1 84
-0.559303 0.032051 0.077189 68 1 84
0.587563 0.018269 0.540733 68 1 84
-0.553116 0.217141 0.244606 68 1 84
-0.552613 0.011568 0.019328 68 1 84
-0.072666 -0.056904 -0.479614 68 1 84
0.137610 -0.558422 -0.275472 68 1 84
-0.583264 0.181824 0.439923 68 1 84
0.153763 -0.194124 -0.211710 77 194 107
-0.654781 -0.171986 0.535965 68 1 84
0.654300 -0.464040 0.488182 68 1 84
0.253840 0.243698 -0.198849 70 45 124
-0.612197 -0.403351 0.179888 68 1 84
0.428319 0.314086 0.044356 68 1 84
0.637072 -0.229287 0.525641 68 1 84
0.317631 -0.043150 -0.199052 68 55 129
0.476366 0.101751 -0.027570 68 1 84
0.003921 -0.266535 -0.371846 68 1 84
0.403957 0.481670 0.202179 68 1 84
-0.387409 0.385158 -0.035240 68 1 84
-0.598803 -0.565791 0.147601 68 1 84
0.521551 0.256447 0.294631 68 1 84
-0.586041 0.102905 0.283050 68 1 84
0.530937 -0.107337 -0.041811 68 1 84
-0.649837 -0.516115 0.321665 68 1 84
0.617103 -0.461030 0.247031 68 1 84
-0.221542 0.126727 -0.225867 71 18 101
0.011406 0.642112 -0.184108 68 1 84
-0.647607 -0.116564 0.335300 68 1 84
0.646143 -0.251432 0.366104 68 1 84
-0.672310 -0.416971 0.452467 68 1 84
