ply
format ascii 1.0
element vertex 1245
property float x
property float y
property float z
property uchar red
property uchar green
property uchar blue
end_header
0.228257 -0.308017 -0.183706 39 124 142
-0.226283 0.363487 -0.180731 68 3 87
-0.536808 -0.534756 0.021081 71 24 106
0.096616 0.032335 -0.296631 71 43 122
-0.522899 -0.101142 -0.027889 71 39 119
-0.351488 -0.057483 -0.187399 67 60 132
-0.604280 -0.263088 0.167370 69 54 129
0.545808 0.245864 0.147708 47 106 141
0.643192 -0.111401 0.472499 68 1 84
0.616109 -0.034701 0.272194 68 1 84
0.271123 0.398569 -0.123097 69 52 127
-0.144300 0.215772 -0.263011 71 39 119
0.595753 0.161189 0.329058 60 77 138
-0.489287 -0.063313 -0.069400 72 28 110
-0.429829 -0.086815 -0.128882 71 38 118
0.137360 0.075582 -0.254671 69 52 127
-0.384601 0.535493 0.136070 57 185 118
0.578211 -0.180253 0.056201 68 1 84
0.596940 -0.467749 0.089571 68 1 84
0.279436 0.075338 -0.205504 56 86 139
0.617416 0.022768 0.461192 71 22 105
0.616831 0.050053 0.379390 71 15 98
-0.010183 -0.244763 -0.347406 49 101 141
-0.635924 -0.156482 0.390926 72 32 113
-0.627945 -0.186479 0.264097 60 77 138
-0.309950 0.432680 -0.110045 70 9 92
-0.030962 0.565526 -0.217708 69 54 129
0.058371 -0.213403 -0.358823 61 75 137
-0.434698 -0.332182 -0.057802 70 9 92
-0.092293 -0.016838 -0.367476 52 94 141
-0.524988 -0.521608 -0.008526 70 14 97
-0.199973 0.129935 -0.235780 69 53 128
0.258444 0.484193 -0.105810 68 55 129
0.546918 0.176162 0.113425 70 48 125
0.224415 0.187622 -0.216638 44 114 142
0.661010 -0.490518 0.295573 68 1 84
-0.611691 0.017951 0.460732 65 66 134
0.389032 -0.444987 -0.222098 47 105 141
-0.612457 0.073047 0.302059 56 86 139
-0.068901 -0.225603 -0.276955 51 96 141
-0.061303 0.574812 -0.205673 71 38 118
0.614674 -0.453388 0.144640 68 1 84
-0.391863 0.436226 -0.029871 50 99 141
-0.292764 0.304111 -0.143502 71 43 122
0.307792 -0.177948 -0.179344 67 59 131
-0.263550 0.500821 -0.130818 68 57 130
0.168268 0.301824 -0.206867 72 25 107
-0.599032 -0.282683 0.155737 61 74 137
-0.070872 -0.082202 -0.359725 57 85 139
-0.275186 -0.363481 -0.190808 59 80 138
0.668396 -0.154578 0.427056 68 1 84
-0.614229 0.051145 0.325761 52 95 141
-0.612969 -0.116788 0.245038 55 88 140
-0.295406 0.102269 -0.202093 63 71 136
0.595581 0.162686 0.378579 51 97 141
0.364759 0.419773 -0.031624 36 134 141
0.248320 0.460214 -0.127415 72 29 111
-0.600238 0.116630 0.222347 57 84 139
0.584772 0.045692 0.187818 68 1 84
0.409255 -0.401111 -0.173381 68 57 130
0.538382 -0.278701 0.006688 68 1 84
-0.509328 0.252776 0.019214 47 106 141
-0.624153 -0.054967 0.371711 70 47 124
-0.617965 -0.043054 0.338158 71 38 118
0.620204 0.019601 0.357065 68 1 84
-0.621948 -0.576715 0.256658 68 1 84
-0.566272 -0.340920 0.092605 68 55 129
-0.443954 -0.506824 -0.197026 48 103 141
0.663165 -0.143388 0.407249 68 1 84
-0.076217 0.029568 -0.287100 66 64 133
0.119170 -0.365825 -0.229638 60 77 138
0.157863 0.482436 -0.208338 66 62 133
0.535438 0.342839 0.297587 41 121 142
-0.567380 -0.199497 0.068730 61 74 137
0.241621 0.532920 -0.084738 57 84 139
0.523909 0.046158 0.005522 68 1 84
0.498970 0.064351 -0.027541 72 25 107
-0.328447 0.251850 -0.152351 67 59 131
-0.619135 -0.052144 0.340033 70 48 125
-0.028052 0.264612 -0.299088 36 132 141
-0.433766 0.502620 0.193392 79 195 105
-0.352511 0.520285 0.012437 31 150 139
-0.625320 -0.305874 0.214775 67 60 132
-0.593814 0.205795 0.441838 31 147 139
0.037002 0.357122 -0.231517 68 55 129
-0.431508 0.435852 0.022428 33 166 133
0.563010 0.052064 0.106815 71 21 103
0.471674 0.417899 0.146227 56 185 118
-0.262148 0.485084 -0.139568 71 38 118
0.031676 -0.394711 -0.323858 39 126 142
-0.586452 0.262048 0.365390 33 142 140
0.361836 0.250989 -0.110257 68 55 129
-0.614661 -0.019113 0.505831 68 55 129
0.325797 0.339756 -0.110148 66 61 132
-0.552662 -0.110344 0.026599 65 66 134
-0.578759 0.240605 0.479428 34 167 132
-0.451993 0.481221 0.158737 57 185 118
0.619616 -0.059202 0.267775 68 1 84
0.591367 -0.372365 0.092171 68 1 84
-0.652207 -0.216654 0.478641 70 49 126
-0.195976 -0.165902 -0.208612 61 74 137
-0.140674 -0.361290 -0.194859 63 71 136
0.551721 0.297035 0.393286 33 141 140
-0.529157 0.388893 0.351179 73 193 109
-0.591016 0.244118 0.261641 39 125 142
0.473605 -0.538956 -0.209318 70 48 125
0.633819 -0.117040 0.279399 68 1 84
-0.443006 -0.009032 -0.120135 63 69 135
0.561463 -0.103047 0.025448 68 1 84
-0.476107 0.066531 -0.072566 68 57 130
0.454493 -0.060027 -0.116121 68 1 84
-0.528827 -0.508389 -0.000399 72 30 112
0.259332 0.424435 -0.125736 72 33 114
0.531553 0.011332 0.004207 68 1 84
0.301106 0.321495 -0.127847 67 58 131
-0.521136 0.406410 0.302027 109 206 88
0.565634 -0.049599 0.053549 68 1 84
-0.103255 0.007826 -0.328949 63 69 135
-0.330753 -0.254825 -0.157419 62 73 137
0.651722 -0.140553 0.481196 68 1 84
-0.027048 0.391858 -0.254598 72 33 114
0.603723 0.121645 0.338604 70 48 125
0.502562 -0.511868 -0.174278 72 26 108
-0.136935 -0.303629 -0.176792 71 44 123
0.618874 -0.276430 0.160140 68 1 84
-0.252870 -0.295442 -0.183060 60 77 138
0.595446 0.136601 0.453847 56 86 139
-0.067151 -0.015674 -0.401597 45 111 142
0.352714 0.335989 -0.093798 59 81 138
-0.610571 -0.343791 0.183964 70 48 125
-0.231216 0.276726 -0.169377 71 18 101
-0.591058 -0.534943 0.172816 68 1 84
0.411562 0.499937 0.271565 66 190 113
0.167515 0.489027 -0.198858 70 45 124
0.530571 0.263273 0.118368 35 136 141
0.432023 0.096720 -0.102751 72 25 107
0.500767 0.401091 0.302024 36 132 141
0.453039 -0.288185 -0.072384 68 1 84
-0.425941 -0.505595 -0.217641 39 125 142
0.449736 -0.407162 -0.142811 71 18 101
0.075557 0.080679 -0.300067 71 39 119
-0.172473 0.186943 -0.254537 65 66 134
-0.298455 0.523401 -0.065394 40 123 142
0.505442 -0.369060 -0.038501 68 1 84
-0.464920 0.219638 -0.052285 66 62 133
0.592176 -0.118422 0.111113 68 1 84
-0.508964 0.204133 0.004238 57 85 139
-0.169756 0.216132 -0.245131 69 52 127
0.663570 -0.132832 0.431935 68 1 84
-0.592480 0.217096 0.430399 30 151 138
-0.625487 -0.544509 0.262915 68 1 84
0.503716 -0.202817 -0.055405 68 1 84
0.071790 0.011765 -0.419144 61 74 137
-0.548742 0.343593 0.411731 50 181 122
-0.385428 0.457294 -0.018264 39 124 142
0.534892 -0.458966 -0.093645 72 29 111
0.516696 0.073713 0.004624 71 42 121
0.491845 -0.216687 -0.060275 68 1 84
-0.587975 -0.050276 0.151007 56 86 139
-0.269084 -0.181319 -0.181456 67 59 131
-0.445175 0.468809 0.096463 100 203 93
-0.599786 -0.202593 0.157689 61 75 137
0.183674 -0.109644 -0.232510 62 73 137
-0.606039 0.109849 0.455761 44 114 142
0.509508 0.381413 0.359039 30 153 138
0.384721 0.259865 -0.084962 56 86 139
0.587453 -0.037735 0.137176 68 3 87
-0.323758 -0.035630 -0.201996 60 77 138
0.562922 0.027091 0.088144 70 12 95
0.016623 0.280378 -0.292377 49 102 141
0.353108 0.481047 0.006268 56 185 118
-0.471821 0.319084 -0.011489 55 88 140
-0.488020 0.407741 0.096057 85 198 102
0.592396 -0.385199 0.093592 68 1 84
-0.147351 0.279240 -0.252890 56 87 140
-0.395662 -0.445299 -0.205564 42 119 142
-0.578526 0.224337 0.496200 30 157 136
0.596712 -0.189267 0.106241 68 1 84
0.136699 -0.454627 -0.337908 35 137 141
-0.217610 -0.202279 -0.189736 67 58 131
0.527182 0.129441 0.046910 66 61 132
-0.139055 0.132616 -0.275154 51 97 141
0.347104 -0.110237 -0.183106 68 55 129
0.229265 0.313381 -0.155541 72 35 116
-0.622747 -0.421668 0.223897 72 32 113
-0.458490 -0.024147 -0.103457 72 33 114
-0.587572 -0.403010 0.146403 72 35 116
0.415855 0.399140 0.017101 33 142 140
0.570228 0.140773 0.170754 71 21 103
0.568474 -0.221722 0.037932 68 1 84
0.241110 -0.314051 -0.183985 41 120 142
-0.514688 -0.518211 -0.033035 71 40 120
0.465068 -0.426645 -0.154420 62 73 137
-0.186967 0.042251 -0.224601 66 62 133
-0.644094 -0.455285 0.421547 68 1 84
0.537149 0.338414 0.333392 38 128 142
0.200845 -0.229414 -0.192135 69 53 128
-0.547798 -0.391724 0.061279 69 54 129
0.492400 0.348220 0.102163 31 163 134
0.516104 0.124882 0.023187 67 59 131
0.238073 0.410474 -0.146555 71 20 102
0.641057 -0.337113 0.207011 68 1 84
-0.049929 0.407700 -0.258978 72 30 112
0.005336 -0.467627 -0.347141 42 176 126
-0.335251 0.494080 -0.047363 44 112 142
0.340403 0.335245 -0.103564 60 78 138
0.083979 -0.193652 -0.336048 69 54 129
-0.465109 0.366840 0.009111 38 128 142
-0.215753 -0.117455 -0.218228 60 78 138
-0.107578 -0.084462 -0.293942 60 77 138
0.624649 -0.023800 0.498756 72 29 111
0.144933 -0.253268 -0.196682 69 50 127
-0.576998 0.052268 0.133858 67 60 132
-0.557829 -0.223293 0.053198 62 73 137
0.344536 0.151011 -0.157148 69 53 128
-0.528120 -0.113037 -0.019419 72 28 110
0.302521 -0.402924 -0.230976 42 117 142
-0.385359 0.454575 -0.021138 38 127 142
-0.587947 -0.048499 0.151672 56 86 139
0.673481 -0.294540 0.313507 68 1 84
-0.560191 -0.217019 0.056419 64 67 135
-0.250688 -0.259853 -0.182483 66 62 133
-0.589156 0.131481 0.174923 59 81 138
-0.602624 -0.159270 0.174386 53 92 140
-0.112833 -0.292038 -0.186531 61 76 137
-0.583565 0.020041 0.154017 70 48 125
0.002516 -0.202478 -0.369390 46 107 142
-0.613475 -0.097406 0.264560 64 68 135
0.577300 0.058962 0.164400 68 1 84
0.397864 -0.285364 -0.137286 68 1 84
-0.269803 0.230377 -0.173071 70 48 125
-0.103338 0.261015 -0.282931 49 102 141
0.536031 -0.058660 -0.012105 68 1 84
0.155677 -0.442229 -0.324089 38 129 142
0.128445 -0.370355 -0.225685 54 90 140
-0.537588 -0.090505 -0.003927 72 28 110
-0.295226 0.160669 -0.193559 47 106 141
-0.097177 -0.083041 -0.314933 66 62 133
-0.154136 0.174682 -0.270197 55 88 140
0.685998 -0.372182 0.427649 68 1 84
-0.124789 -0.277385 -0.188224 60 78 138
-0.420497 0.502495 0.116914 48 180 122
-0.182172 0.186816 -0.245601 69 53 128
0.677753 -0.245272 0.451165 68 1 84
-0.615667 -0.027837 0.519320 66 61 132
0.219926 -0.377693 -0.207715 49 102 141
-0.649231 -0.180790 0.516005 70 47 124
0.106446 -0.414566 -0.317267 32 143 140
-0.529327 -0.080243 -0.017396 72 30 112
0.254215 -0.429318 -0.247164 44 114 142
0.619577 0.024442 0.358563 68 1 84
0.264769 0.576156 0.041350 32 164 133
0.512158 0.377507 0.358158 31 148 139
0.320044 -0.291284 -0.189365 46 107 142
0.271771 0.470377 -0.098367 63 69 135
0.328201 -0.295332 -0.186994 53 92 140
-0.563421 0.193535 0.111101 44 112 142
0.488039 0.072755 -0.040266 71 20 102
0.484651 0.423609 0.299176 31 150 139
0.502245 0.393514 0.350548 30 153 138
-0.612043 0.111541 0.330405 47 106 141
-0.578049 0.292371 0.342520 32 145 140
0.433465 0.184510 -0.069628 66 64 133
-0.117540 -0.097544 -0.270145 62 72 136
-0.523571 -0.101240 -0.026858 71 38 118
-0.374552 0.509732 0.030984 30 159 136
-0.404064 0.180539 -0.119816 64 68 135
-0.536094 -0.370400 0.042694 69 50 127
-0.564431 0.066752 0.095844 65 65 134
-0.003459 -0.096719 -0.420778 46 109 142
-0.274547 0.488258 -0.124949 71 44 123
-0.541101 0.346603 0.168187 68 190 112
0.628985 -0.046940 0.322086 68 1 84
-0.212523 -0.289914 -0.184656 55 88 140
0.518212 -0.432796 -0.094066 72 26 108
0.242635 0.284549 -0.146590 62 73 137
-0.646975 -0.262364 0.500503 71 22 105
-0.606224 0.166101 0.279714 44 114 142
0.281842 0.455865 -0.095620 64 68 135
0.607849 0.006212 0.263021 68 1 84
0.612902 0.007228 0.287624 68 1 84
0.235968 -0.315070 -0.182605 42 117 142
0.657068 -0.408660 0.280345 68 1 84
0.532404 0.206899 0.091473 47 105 141
-0.512445 -0.503106 -0.043536 71 38 118
0.470546 -0.295890 -0.053992 68 1 84
-0.567823 -0.356517 0.098223 67 58 131
0.117560 0.030726 -0.304627 70 45 124
0.161656 -0.416194 -0.275670 41 121 142
-0.161836 0.140036 -0.260408 67 59 131
0.543601 -0.032007 0.010609 68 1 84
-0.643497 -0.426315 0.401547 68 1 84
0.616656 0.019567 0.524876 72 32 113
-0.336141 0.252270 -0.148670 66 61 132
0.267215 0.153218 -0.202027 60 77 138
-0.645136 -0.347288 0.423048 71 18 101
0.609086 0.069281 0.462212 72 29 111
0.329415 0.217590 -0.150411 61 76 137
0.675422 -0.336792 0.315304 68 1 84
0.396725 0.224180 -0.086784 64 67 135
0.093128 -0.199105 -0.314121 72 28 110
0.371503 -0.008583 -0.175908 72 25 107
-0.621212 -0.055998 0.349385 70 49 126
0.514956 0.056185 -0.005166 71 20 102
-0.643236 -0.428459 0.396154 68 1 84
0.408509 0.082172 -0.129048 71 39 119
-0.616101 -0.355221 0.197225 71 39 119
0.541493 0.315809 0.407135 39 126 142
0.544767 -0.243308 0.005383 68 1 84
-0.024221 -0.165035 -0.372090 49 100 141
0.665512 -0.521655 0.311459 68 1 84
0.644261 -0.155601 0.281109 68 1 84
0.232274 -0.295877 -0.187641 43 115 142
-0.644053 -0.412716 0.305776 66 64 133
0.614662 0.017188 0.550142 71 44 123
0.490770 0.361987 0.113960 47 179 123
-0.388684 0.289543 -0.106386 62 73 137
-0.559014 -0.546299 0.085459 71 17 99
-0.644257 -0.399963 0.407119 68 3 87
0.590075 -0.172871 0.089088 68 1 84
-0.525557 0.360345 0.135194 71 192 110
0.087756 0.347293 -0.228825 64 67 135
0.657339 -0.482052 0.278521 68 1 84
-0.095934 -0.055849 -0.343386 63 69 135
0.464476 -0.113491 -0.108322 68 1 84
0.606604 0.108036 0.390863 67 59 131
-0.347607 -0.343136 -0.149328 62 72 136
-0.208254 0.118293 -0.230753 70 49 126
-0.313664 0.251757 -0.157161 66 62 133
-0.617268 -0.308194 0.196151 65 65 134
-0.306388 0.303036 -0.141603 71 37 117
0.114723 -0.300825 -0.196925 72 26 108
-0.427504 0.236445 -0.084473 71 42 121
-0.068910 -0.033948 -0.401263 47 106 141
0.486756 -0.301492 -0.037767 68 1 84
0.454133 0.198304 -0.039881 68 55 129
0.112079 -0.295328 -0.200434 72 33 114
0.107242 -0.104599 -0.348250 72 25 107
-0.088149 -0.390209 -0.274073 52 94 141
-0.150021 0.403444 -0.224058 69 54 129
0.696406 -0.519945 0.494645 68 1 84
0.044638 0.035145 -0.356793 66 62 133
0.444600 0.264707 -0.021842 34 137 141
-0.191104 0.106718 -0.236862 62 73 137
0.093889 -0.158576 -0.338387 71 38 118
0.630543 -0.229559 0.201357 68 1 84
-0.639788 -0.452826 0.327090 70 45 124
0.589307 0.045101 0.205164 68 1 84
0.030467 0.155979 -0.321256 56 87 140
-0.621755 -0.086820 0.326633 62 73 137
-0.614247 0.056840 0.328793 62 73 137
0.204783 -0.353343 -0.180008 50 98 141
-0.392017 -0.428941 -0.195404 56 87 140
-0.560586 0.248406 0.125309 34 139 141
0.013429 -0.250141 -0.351432 51 96 141
-0.220597 -0.317162 -0.178809 69 52 127
0.497789 0.121481 -0.009288 71 17 99
0.631518 -0.103665 0.539039 69 5 88
-0.126917 0.513788 -0.242760 49 101 141
0.363637 0.539403 0.184121 57 185 118
0.556337 0.259759 0.201848 46 109 142
-0.319387 -0.360028 -0.178134 61 74 137
0.630952 -0.035963 0.360464 69 8 91
-0.483359 0.163047 -0.044516 70 47 124
0.325651 0.560232 0.135360 79 195 105
0.474687 -0.060732 -0.096197 68 1 84
0.520476 0.355795 0.400553 39 124 142
-0.628479 -0.108329 0.385926 69 50 127
0.347935 0.531602 0.077748 39 173 128
-0.578402 0.272632 0.416099 30 157 136
-0.501716 0.369066 0.079832 57 185 118
-0.067778 0.113375 -0.308150 46 109 142
0.067233 0.269953 -0.286808 69 53 128
-0.594766 0.130004 0.502667 42 118 142
0.336215 0.327386 -0.109363 53 93 140
0.623621 0.012862 0.390486 71 21 103
-0.446245 -0.261039 -0.059983 69 50 127
-0.604546 0.133488 0.248325 49 100 141
-0.352801 0.503306 -0.011900 42 118 142
0.589703 0.164850 0.440634 55 89 140
0.238265 0.556457 -0.053516 40 122 142
-0.570830 -0.474918 0.109201 72 25 107
0.556213 0.119249 0.118510 69 6 90
-0.618749 -0.011901 0.425620 60 78 138
0.424811 0.437488 0.068976 38 172 129
0.061431 0.277986 -0.286539 64 67 135
0.264995 0.432767 -0.118654 70 45 124
0.473166 -0.189180 -0.086488 68 1 84
0.371337 -0.491312 -0.265146 38 127 142
-0.649425 -0.325984 0.365084 71 39 119
-0.612161 0.016734 0.299609 67 60 132
-0.071559 0.145079 -0.315334 38 128 142
0.538508 -0.053786 -0.006552 68 1 84
0.573914 -0.376636 0.054916 68 1 84
0.084211 0.578940 -0.175411 39 126 142
0.129653 -0.370361 -0.224526 55 89 140
-0.083937 0.076791 -0.285980 62 73 137
0.350676 -0.158707 -0.169719 72 34 115
-0.255268 0.472426 -0.151006 71 20 102
-0.328718 -0.305603 -0.171492 61 75 137
0.573207 -0.292623 0.054319 68 1 84
0.036531 -0.292583 -0.328225 49 101 141
0.041481 0.019036 -0.427711 53 92 140
-0.571119 0.312654 0.327753 30 153 138
0.358823 0.128704 -0.154479 70 47 124
-0.599921 0.057891 0.223190 62 72 136
0.143423 0.532169 -0.197456 55 88 140
0.629862 -0.415986 0.174931 68 1 84
-0.583508 0.275637 0.341041 34 139 141
-0.643759 -0.458513 0.415785 68 1 84
-0.556953 0.275089 0.131947 30 152 138
0.691280 -0.395598 0.463935 68 1 84
-0.559857 0.249699 0.124015 33 140 141
0.540478 -0.481697 -0.095682 68 1 84
0.685439 -0.321504 0.485286 68 1 84
0.547532 -0.249235 0.010281 68 1 84
-0.636387 -0.398462 0.242371 71 42 121
0.382265 0.002380 -0.167554 72 28 110
-0.039732 0.584609 -0.182925 64 68 135
0.380356 0.085305 -0.151087 72 34 115
0.205636 0.190496 -0.228570 44 112 142
0.275410 0.400959 -0.119227 70 49 126
0.401955 0.474577 0.077162 53 183 120
-0.425162 0.024602 -0.136301 70 47 124
0.419626 0.473129 0.114362 61 187 116
-0.419417 0.427963 -0.003158 32 144 140
-0.579782 0.072333 0.144762 69 53 128
-0.036319 0.156420 -0.322097 40 123 142
-0.545984 0.169074 0.065668 53 93 140
-0.613495 0.092064 0.357287 53 93 140
-0.604924 -0.129118 0.193406 53 93 140
-0.490606 0.441527 0.185559 131 211 75
0.695265 -0.495658 0.463344 68 1 84
0.295631 0.093874 -0.197040 63 71 136
-0.594807 0.215085 0.239368 42 118 142
-0.538505 0.363487 0.407181 57 185 118
-0.610474 -0.109849 0.233163 61 75 137
0.590798 0.041642 0.209599 68 1 84
-0.234647 -0.380771 -0.220559 60 77 138
-0.431008 -0.074490 -0.129064 71 20 102
-0.552886 0.346139 0.364176 41 175 127
-0.313084 0.559818 0.037549 44 177 125
-0.130216 -0.056810 -0.261370 55 89 140
0.539040 -0.267732 0.004552 68 1 84
0.227999 0.524676 -0.113015 66 62 133
0.611284 0.062608 0.324274 72 25 107
0.104674 0.115573 -0.291358 71 37 117
0.568703 0.259286 0.273997 35 136 141
-0.371342 -0.462929 -0.233496 40 123 142
0.519071 0.369585 0.251438 37 131 141
0.197202 0.498129 -0.167308 72 35 116
-0.387251 0.304039 -0.104572 59 81 138
0.603417 0.098248 0.299813 69 54 129
-0.033267 0.019999 -0.358870 68 57 130
0.455218 0.070797 -0.084313 72 29 111
0.278201 -0.100913 -0.207319 61 74 137
0.604030 0.088662 0.296015 69 52 127
0.679999 -0.303688 0.335793 68 1 84
0.384660 -0.202317 -0.140109 68 1 84
0.561440 -0.402356 0.022600 68 1 84
0.513057 0.378529 0.342187 37 131 141
-0.308774 0.255113 -0.157049 65 65 134
0.459641 -0.543230 -0.224753 71 40 120
-0.406375 0.519556 0.139346 53 183 120
-0.535353 -0.059422 -0.003437 72 34 115
-0.617684 -0.368378 0.203559 71 18 101
0.144912 -0.359006 -0.197647 59 81 138
-0.564577 -0.159011 0.056046 55 89 140
-0.506324 0.320304 0.045980 32 144 140
-0.614288 0.055937 0.410175 54 90 140
-0.548896 0.215936 0.082865 56 86 139
-0.050035 0.329510 -0.239430 61 76 137
0.231567 0.572613 -0.020131 33 140 141
-0.529873 0.084091 0.013571 60 77 138
0.169311 0.379815 -0.196276 72 32 113
0.614311 -0.009045 0.282686 68 1 84
-0.342197 0.395299 -0.101167 66 64 133
-0.589011 0.134034 0.174448 61 76 137
0.235395 0.535404 -0.090331 45 110 142
-0.590696 -0.073097 0.155507 69 53 128
-0.117187 -0.428181 -0.312146 44 114 142
0.566017 0.268705 0.357283 40 122 142
0.323734 -0.533458 -0.298577 57 185 118
0.268967 0.433109 -0.115254 71 43 122
-0.486468 -0.535925 -0.111871 71 43 122
0.354660 -0.004919 -0.185440 71 44 123
0.396861 0.211162 -0.092466 65 66 134
-0.195319 0.218020 -0.215834 71 42 121
0.439465 0.415429 0.069451 31 150 139
-0.600897 0.023443 0.234004 71 42 121
-0.008971 -0.044632 -0.444029 41 120 142
0.445430 0.140858 -0.072860 71 44 123
-0.586650 -0.229587 0.117786 65 65 134
-0.501726 -0.171205 -0.046644 50 99 141
0.451399 0.461461 0.218718 79 195 105
0.678234 -0.252161 0.536604 69 6 90
0.301064 0.509120 -0.033208 30 154 137
0.158682 -0.367399 -0.202478 49 100 141
0.420227 0.493596 0.214972 96 201 96
-0.181184 0.390028 -0.208262 68 1 84
-0.383482 -0.242023 -0.118367 69 53 128
-0.117774 -0.064363 -0.296043 65 66 134
-0.515796 0.199823 0.014098 56 86 139
0.287368 -0.050655 -0.212309 49 101 141
-0.416707 0.181889 -0.109732 65 66 134
-0.646088 -0.379743 0.479849 68 1 84
-0.429650 0.214590 -0.089247 70 49 126
-0.374115 -0.295445 -0.131419 68 55 129
0.683950 -0.295254 0.541914 70 9 92
-0.563389 0.128366 0.100679 54 91 140
-0.561575 -0.424420 0.086561 71 17 99
-0.083535 -0.280524 -0.211940 60 77 138
-0.583752 0.196284 0.501562 30 153 138
0.310978 0.291668 -0.135140 52 95 141
-0.358079 0.548328 0.107064 87 198 101
-0.593203 0.154122 0.195152 51 97 141
-0.538799 -0.400365 0.043814 71 42 121
0.258132 -0.444001 -0.258930 34 138 141
0.682237 -0.481241 0.386709 68 1 84
0.437676 -0.358581 -0.102731 68 3 87
0.604269 0.110502 0.423936 69 50 127
0.167884 -0.145639 -0.234653 72 34 115
-0.592270 -0.502134 0.172767 72 26 108
-0.048089 -0.437890 -0.336657 34 138 141
0.394734 0.445668 0.029675 30 160 135
-0.051939 -0.326167 -0.265903 46 109 142
0.621300 0.020328 0.438114 69 5 88
0.010427 -0.361658 -0.315463 39 125 142
0.297098 0.318959 -0.129980 69 53 128
0.214359 -0.442439 -0.275627 49 102 141
0.584035 0.167817 0.482634 47 106 141
0.361198 0.432107 -0.026208 35 137 141
0.687548 -0.459066 0.414728 68 1 84
0.292268 0.478162 -0.071497 43 115 142
-0.249787 -0.461748 -0.282997 40 123 142
0.524885 0.358321 0.246655 30 151 138
0.315546 0.123553 -0.182475 71 40 120
-0.613815 -0.368176 0.195508 72 25 107
-0.360580 0.286257 -0.126643 65 65 134
0.136980 0.262957 -0.238032 72 34 115
0.477971 0.076058 -0.053194 68 3 87
-0.485674 0.212885 -0.028171 68 57 130
-0.083766 -0.089849 -0.330509 67 59 131
-0.404290 -0.090270 -0.148877 69 52 127
-0.471209 -0.484824 -0.155143 49 101 141
0.610495 0.088046 0.382966 72 35 116
-0.651469 -0.295101 0.303829 65 66 134
-0.247114 -0.370442 -0.207467 59 81 138
0.541699 0.025701 0.029428 68 1 84
-0.628539 -0.176079 0.290004 65 66 134
-0.246743 0.195866 -0.201644 64 68 135
0.686094 -0.331284 0.340772 68 1 84
0.031671 0.369172 -0.235125 69 54 129
0.188208 0.582390 -0.052739 35 135 141
0.059173 -0.338870 -0.299809 44 113 142
-0.206594 0.580538 -0.087793 43 115 142
0.105611 0.210155 -0.300619 67 58 131
0.579146 0.040407 0.163299 68 1 84
0.576842 0.217202 0.428038 41 120 142
0.325348 0.399526 -0.084357 44 114 142
0.089828 -0.158048 -0.346255 72 28 110
0.092117 -0.428217 -0.333041 32 144 140
-0.162446 0.200523 -0.261319 63 71 136
0.179957 -0.067329 -0.233267 62 73 137
-0.519251 0.062625 -0.009388 67 59 131
0.372570 0.240864 -0.102411 60 78 138
0.152892 0.098687 -0.257319 64 68 135
0.541846 0.296537 0.469642 30 153 138
0.245563 0.558784 -0.037307 39 125 142
-0.513851 -0.535222 -0.031995 72 35 116
0.080014 0.340856 -0.232393 64 67 135
0.155415 -0.102435 -0.249292 66 64 133
-0.200275 0.541071 -0.170681 58 83 139
-0.029888 -0.019727 -0.439907 46 109 142
-0.488506 0.173752 -0.034602 71 38 118
0.545823 -0.467183 -0.070346 68 2 85
0.008870 0.049848 -0.383407 58 82 139
0.694964 -0.412619 0.495616 68 1 84
-0.563563 0.313515 0.206611 37 171 129
0.519072 -0.096174 -0.047476 68 1 84
-0.090318 0.541960 -0.240331 52 95 141
0.340321 0.388582 -0.078040 49 102 141
-0.370515 0.008304 -0.180468 70 49 126
0.618785 -0.090980 0.234687 68 1 84
0.678194 -0.200933 0.463333 68 1 84
0.679831 -0.243308 0.460600 68 1 84
0.540083 0.306997 0.450691 30 151 138
-0.572104 0.312084 0.283582 30 160 135
-0.648294 -0.157861 0.444860 67 60 132
-0.619035 -0.328553 0.200754 66 62 133
-0.644783 -0.409398 0.432126 71 17 99
0.243965 0.042991 -0.216294 48 103 141
0.079860 0.535671 -0.232985 40 122 142
0.288608 0.251226 -0.159339 55 88 140
0.270464 -0.530004 -0.315063 33 167 132
0.585695 -0.391201 0.076834 68 1 84
0.323340 0.221866 -0.154596 58 82 139
-0.052954 -0.239092 -0.295213 50 99 141
-0.351369 -0.206892 -0.144427 67 60 132
0.359382 0.201018 -0.129165 67 59 131
0.144220 0.227454 -0.259346 68 57 130
-0.092607 0.254178 -0.286882 48 104 141
0.155839 -0.250257 -0.193323 72 30 112
0.379743 0.124296 -0.141142 70 47 124
-0.537199 -0.496209 0.019957 72 30 112
-0.475207 -0.550467 -0.131744 64 68 135
0.112031 0.474816 -0.239938 60 77 138
0.583425 -0.202403 0.068343 68 1 84
-0.399217 0.449585 -0.008286 33 140 141
0.419247 0.153605 -0.096870 72 33 114
-0.648673 -0.380465 0.327583 68 57 130
0.091343 -0.356957 -0.268347 60 77 138
-0.636939 -0.415194 0.247269 69 53 128
0.628881 -0.423824 0.173355 68 1 84
-0.542949 0.225508 0.073309 51 97 141
-0.555061 -0.547826 0.075098 72 25 107
0.561499 0.241492 0.201591 44 112 142
-0.330491 -0.021538 -0.200945 65 65 134
-0.367034 0.015449 -0.181956 70 49 126
-0.640744 -0.229108 0.348771 67 59 131
0.420733 -0.172145 -0.130800 70 9 92
0.550256 -0.530708 -0.057612 68 1 84
0.591008 0.106081 0.524821 63 69 135
-0.265801 -0.341364 -0.179291 56 86 139
-0.483383 0.244331 -0.022631 61 74 137
0.000216 0.132342 -0.315192 69 50 127
0.559321 -0.225717 0.023102 68 1 84
0.352203 0.535710 0.099625 33 166 133
0.198389 -0.017541 -0.225659 69 50 127
0.600039 -0.285319 0.109097 68 1 84
-0.116552 0.018521 -0.300642 63 71 136
0.114276 -0.010165 -0.386397 63 71 136
0.421565 0.478170 0.132665 119 208 82
-0.582540 0.268099 0.391412 32 144 140
-0.277878 0.411779 -0.140807 71 18 101
-0.614133 0.000039 0.316747 71 43 122
-0.023855 -0.294077 -0.312739 39 125 142
-0.545673 -0.524902 0.043131 71 17 99
-0.595238 0.234357 0.337579 40 122 142
0.695454 -0.445021 0.470941 68 1 84
-0.453547 0.357758 -0.014939 45 110 142
-0.644152 -0.286060 0.422254 71 37 117
0.183370 -0.143373 -0.226077 71 39 119
0.235296 0.305343 -0.150698 72 26 108
0.170290 0.350831 -0.196604 72 35 116
-0.257640 -0.294634 -0.183032 64 68 135
0.341040 0.536588 0.074814 81 196 104
-0.362199 0.196331 -0.143986 65 66 134
-0.335753 -0.464818 -0.251578 40 122 142
0.474835 0.405023 0.131214 53 183 120
0.423089 -0.026186 -0.141613 68 3 87
0.461790 0.402788 0.097200 33 142 140
0.624679 0.004471 0.437017 70 11 94
0.143271 -0.191111 -0.237500 69 54 129
-0.505355 -0.524735 -0.056635 71 38 118
-0.362138 0.371245 -0.099147 56 86 139
-0.221779 -0.367114 -0.203658 60 78 138
-0.057188 0.081527 -0.305070 61 75 137
-0.017141 0.576604 -0.196649 64 67 135
-0.418634 -0.435252 -0.178827 57 84 139
0.441393 0.247788 -0.032745 39 126 142
0.444207 -0.430879 -0.176613 69 50 127
0.580072 0.092979 0.189165 68 1 84
-0.372686 -0.244619 -0.126316 66 64 133
-0.624824 -0.147143 0.306997 68 57 130
-0.006189 0.304430 -0.260621 59 81 138
0.392425 -0.010379 -0.162698 71 18 101
0.644528 -0.148437 0.550380 68 1 84
0.208855 0.550021 -0.105425 54 91 140
0.117022 0.243446 -0.252186 72 26 108
-0.621819 -0.556055 0.249496 69 5 88
0.507070 -0.529941 -0.165719 68 3 87
-0.612174 -0.471867 0.206094 72 32 113
0.558858 0.171514 0.146481 71 44 123
0.533606 0.304360 0.170760 36 133 141
0.065706 0.022253 -0.356077 68 57 130
-0.551737 0.012937 0.047052 68 55 129
-0.538087 0.260174 0.077036 36 132 141
0.656322 -0.129524 0.380281 68 1 84
-0.492634 0.147891 -0.034655 71 43 122
-0.494235 0.040194 -0.051336 61 76 137
-0.587965 0.071398 0.173610 64 67 135
-0.556036 -0.481652 0.068608 72 35 116
-0.636488 -0.501580 0.317995 72 32 113
0.604791 -0.517744 0.115508 68 1 84
-0.011223 0.045043 -0.354828 62 73 137
-0.212110 -0.139063 -0.213638 61 75 137
-0.623555 -0.108297 0.445988 72 33 114
-0.017568 -0.299265 -0.316194 47 106 141
-0.520076 -0.503079 -0.022204 71 40 120
0.487021 -0.184544 -0.076633 68 1 84
-0.117948 0.005213 -0.324443 62 73 137
-0.207294 -0.284389 -0.184851 54 90 140
-0.031446 0.586062 -0.179224 67 60 132
-0.620200 -0.526615 0.237018 69 8 91
-0.326531 0.539765 0.005678 30 154 137
-0.642744 -0.270960 0.427737 71 44 123
0.069900 -0.142885 -0.382854 70 49 126
-0.658462 -0.189101 0.479605 68 57 130
0.362360 0.400049 -0.048455 33 142 140
-0.600737 0.055025 0.523119 69 52 127
-0.047426 -0.303067 -0.274060 45 111 142
-0.268123 0.130986 -0.208432 61 75 137
0.644806 -0.118299 0.474477 68 1 84
0.080823 -0.327056 -0.267760 66 64 133
-0.608211 0.054355 0.470828 58 82 139
-0.219631 -0.365675 -0.201696 61 74 137
-0.134121 -0.097724 -0.253003 59 80 138
-0.649501 -0.233884 0.499979 71 39 119
0.109074 0.307275 -0.245457 72 32 113
-0.501225 -0.340102 0.001784 71 39 119
-0.294025 -0.459542 -0.264054 37 131 141
0.073161 0.579727 -0.179050 43 115 142
-0.268013 0.310454 -0.151505 71 18 101
-0.357115 0.137354 -0.164058 52 95 141
0.533120 0.341952 0.361236 38 129 142
-0.591549 -0.207412 0.131822 63 71 136
-0.546665 -0.003180 0.031015 69 54 129
-0.613640 -0.262661 0.189338 62 72 136
0.608961 -0.034914 0.239783 68 1 84
-0.522383 0.251929 0.042011 49 101 141
-0.338192 0.472882 -0.062727 57 85 139
-0.490969 -0.105435 -0.068065 63 71 136
-0.643622 -0.269421 0.457418 70 48 125
0.493778 0.410290 0.312440 31 163 134
-0.248319 -0.120025 -0.207738 59 80 138
0.521691 -0.487252 -0.139979 71 44 123
0.002956 0.590219 -0.157874 69 54 129
0.556189 0.117221 0.117623 68 3 87
-0.619945 -0.005629 0.385021 70 48 125
0.094703 -0.359534 -0.264498 57 84 139
0.611800 -0.145977 0.173565 68 1 84
-0.299332 0.467192 -0.108173 69 52 127
0.320453 -0.234748 -0.169594 69 54 129
0.189137 -0.425620 -0.267277 43 115 142
-0.140039 -0.128568 -0.248234 59 81 138
0.606652 -0.027434 0.235783 68 1 84
-0.640964 -0.278073 0.270294 67 58 131
0.570288 0.088508 0.152751 68 1 84
0.456865 0.444363 0.380868 35 169 130
0.003905 -0.416985 -0.335041 33 140 141
0.172239 0.231853 -0.233749 60 77 138
-0.588343 0.168409 0.506167 35 135 141
0.229154 -0.290673 -0.188133 42 119 142
0.537785 0.057854 0.037626 72 28 110
-0.537400 -0.316873 0.041547 65 66 134
-0.360421 0.452950 -0.052619 51 97 141
-0.171229 -0.339470 -0.169343 66 64 133
-0.546575 -0.036844 0.023920 71 42 121
-0.657333 -0.182056 0.481584 68 57 130
-0.564800 0.085902 0.100532 54 91 140
-0.369506 0.425661 -0.063086 62 72 136
-0.560532 -0.215247 0.056693 63 69 135
0.302264 -0.063923 -0.207159 54 91 140
0.589894 0.141995 0.248209 71 37 117
0.604066 0.062514 0.278151 70 11 94
-0.137628 -0.312103 -0.173481 69 52 127
0.222320 0.501854 -0.137426 71 44 123
0.605119 -0.164370 0.140939 68 1 84
-0.077912 -0.010797 -0.383766 52 95 141
-0.089646 0.257375 -0.289171 45 110 142
0.438916 0.145076 -0.079038 72 33 114
-0.252816 0.423349 -0.159273 68 1 84
0.485263 0.421748 0.242755 30 154 137
0.451384 0.462444 0.283227 35 169 130
-0.534461 0.289586 0.085323 33 141 140
-0.475746 0.211083 -0.041705 70 48 125
0.613255 -0.435632 0.141026 68 1 84
0.626820 -0.274443 0.183259 68 1 84
-0.002795 -0.227699 -0.357525 47 106 141
0.183935 -0.228222 -0.195230 65 65 134
0.506996 0.351483 0.144615 31 146 140
0.551667 -0.049801 0.019816 68 1 84
0.066604 0.216595 -0.307617 57 85 139
-0.125450 -0.176948 -0.244310 45 110 142
-0.565911 0.167981 0.113261 49 102 141
0.503983 -0.245296 -0.039271 68 1 84
-0.382210 0.436007 -0.041333 44 113 142
0.623003 -0.277400 0.172189 68 1 84
0.134509 -0.033049 -0.339711 64 67 135
-0.615735 0.051854 0.366479 61 74 137
0.474966 0.436733 0.278083 35 169 130
-0.197933 -0.072878 -0.230110 58 83 139
0.445162 0.230781 -0.036098 54 90 140
-0.239724 -0.140257 -0.202966 62 72 136
0.680869 -0.247029 0.475768 68 1 84
0.605182 -0.091129 0.179296 68 1 84
-0.610510 0.073701 0.283476 62 73 137
0.163598 0.444493 -0.205193 71 42 121
0.229555 -0.050956 -0.224701 62 73 137
0.525739 0.039390 0.005604 68 1 84
0.591703 0.099276 0.530768 67 60 132
0.350060 -0.377073 -0.206693 58 83 139
-0.549718 -0.138260 0.020695 70 47 124
0.166632 -0.246655 -0.192351 69 53 128
-0.479883 -0.097415 -0.080496 69 53 128
0.605175 -0.020115 0.234844 68 1 84
0.605714 0.001374 0.250334 68 1 84
-0.487217 0.245164 -0.017278 65 66 134
-0.490872 -0.253518 -0.026030 68 57 130
0.213161 -0.177064 -0.202718 66 62 133
-0.502317 0.025827 -0.041655 63 69 135
0.374123 0.310545 -0.082125 46 109 142
-0.043352 0.088586 -0.312459 69 52 127
0.025779 0.216079 -0.323092 51 96 141
-0.652405 -0.209155 0.453529 67 59 131
-0.284156 0.448974 -0.128377 71 24 106
0.003121 0.435213 -0.265260 72 28 110
0.037618 -0.099177 -0.423476 46 108 142
-0.069341 0.551635 -0.234567 57 84 139
-0.417768 0.513974 0.167385 83 197 103
0.067065 -0.064769 -0.432435 50 99 141
0.221118 0.536747 -0.108041 62 72 136
-0.578446 0.176337 0.149711 52 95 141
0.525398 -0.135668 -0.041196 68 1 84
0.386490 -0.253526 -0.136452 68 1 84
0.419031 0.366654 -0.001561 37 131 141
0.059588 -0.355559 -0.301402 56 87 140
0.436224 -0.111610 -0.131334 70 12 95
-0.073624 0.578242 -0.199747 66 64 133
0.643114 -0.112318 0.321878 68 1 84
0.244319 0.574215 0.006653 33 142 140
0.371354 -0.375573 -0.194331 55 89 140
-0.578228 0.276795 0.403495 30 155 137
-0.213545 0.265698 -0.183798 71 21 103
0.262635 -0.082540 -0.214993 51 96 141
-0.587618 0.251056 0.238674 42 119 142
0.080812 0.586100 -0.155894 43 115 142
-0.627689 -0.107929 0.410231 71 40 120
0.358754 -0.103619 -0.179536 66 61 132
0.235963 0.206551 -0.203047 41 121 142
-0.443612 -0.114892 -0.114399 59 80 138
-0.516568 -0.555523 -0.023226 71 24 106
0.514533 -0.016030 -0.034127 68 1 84
0.682957 -0.404028 0.395812 68 1 84
-0.460526 0.451170 0.099494 83 197 103
0.530434 -0.238180 -0.014481 68 1 84
0.561249 -0.131098 0.020431 68 1 84
-0.464401 -0.353841 -0.035245 71 17 99
-0.590891 -0.387554 0.150830 71 42 121
-0.602084 0.155060 0.448803 49 101 141
-0.055213 0.461772 -0.268991 71 43 122
-0.613346 0.067571 0.314522 58 83 139
-0.207053 0.511636 -0.184674 72 26 108
0.150969 0.547337 -0.174831 39 125 142
-0.365658 -0.527100 -0.261772 30 152 138
0.567601 -0.132500 0.034674 68 1 84
-0.532747 0.354398 0.150515 81 196 104
-0.182617 -0.482500 -0.325194 30 153 138
0.396315 -0.296611 -0.140882 68 1 84
0.524014 0.324605 0.481864 30 155 137
-0.600275 0.210142 0.296384 38 129 142
-0.646098 -0.342356 0.398280 72 29 111
-0.496662 -0.211889 -0.038264 60 78 138
0.482474 0.266368 0.029771 30 154 137
-0.505625 -0.305246 0.004788 70 48 125
-0.585100 0.261520 0.385295 33 141 140
-0.402987 0.476035 0.027950 30 154 137
-0.643824 -0.163674 0.502435 71 44 123
0.542967 0.319512 0.374251 44 114 142
0.640937 -0.077543 0.353412 68 1 84
0.596255 0.091806 0.514756 66 62 133
-0.382319 -0.053626 -0.170078 71 38 118
-0.484215 0.326513 0.011315 45 110 142
-0.208716 -0.257220 -0.186353 67 58 131
0.565643 -0.469733 0.003793 68 1 84
0.033193 0.446669 -0.264637 71 43 122
0.313956 0.397538 -0.093662 58 83 139
0.245161 0.555705 -0.044363 40 122 142
0.486428 0.400663 0.424797 30 156 137
0.616312 -0.103269 0.215648 68 1 84
-0.413692 -0.105016 -0.139922 64 68 135
-0.605132 -0.230178 0.171778 64 67 135
-0.174279 -0.192003 -0.205521 49 102 141
0.307684 0.530792 0.005777 35 168 131
-0.479788 -0.283628 -0.023783 66 64 133
0.025400 -0.338357 -0.313931 40 123 142
0.262955 0.132673 -0.204822 53 92 140
0.616445 0.051178 0.420224 72 35 116
-0.549937 -0.208586 0.035388 66 61 132
-0.589473 0.074001 0.179290 68 57 130
-0.619895 -0.071167 0.443567 72 35 116
0.196377 -0.422418 -0.257829 47 106 141
0.663435 -0.302071 0.281612 68 1 84
0.457197 -0.302329 -0.067188 68 1 84
-0.299601 -0.366259 -0.191177 57 84 139
-0.492198 0.443813 0.211333 199 224 31
-0.574179 0.275170 0.197281 42 117 142
0.466828 -0.383695 -0.096566 71 15 98
0.350691 -0.280242 -0.176946 66 62 133
-0.173045 -0.020864 -0.224864 66 64 133
0.148092 0.011279 -0.313720 70 48 125
-0.197959 0.209881 -0.222676 68 55 129
0.633333 -0.112277 0.282098 68 1 84
-0.645963 -0.391327 0.344144 72 35 116
-0.416589 -0.388632 -0.120781 70 45 124
0.181943 0.296466 -0.194543 71 20 102
-0.366450 0.274734 -0.125173 67 58 131
-0.140818 0.256981 -0.256904 66 62 133
-0.330646 0.501212 -0.045978 40 122 142
-0.469914 -0.374447 -0.043467 71 40 120
0.266248 -0.493710 -0.308666 30 156 137
0.368040 -0.551268 -0.280069 30 157 136
0.079528 0.003355 -0.421329 65 65 134
-0.097948 -0.339501 -0.198898 70 47 124
0.621461 -0.429344 0.158388 68 1 84
-0.050339 -0.076030 -0.401084 59 81 138
-0.486231 -0.379521 -0.028125 71 37 117
-0.289843 0.303632 -0.144134 70 47 124
0.687881 -0.348087 0.478903 68 1 84
0.415401 -0.376039 -0.139128 68 3 87
0.545310 -0.462801 -0.067499 70 9 92
0.403651 0.101997 -0.128211 68 55 129
-0.477141 0.463281 0.233691 253 231 36
0.593477 -0.390935 0.095538 68 1 84
0.471181 0.201327 -0.016978 64 67 135
-0.458587 -0.405732 -0.100570 69 53 128
-0.208192 -0.487263 -0.318582 30 157 136
-0.315681 0.174211 -0.179761 62 72 136
0.321413 0.018584 -0.198308 54 90 140
-0.508505 0.422612 0.305548 170 219 50
0.452085 0.080535 -0.084804 72 29 111
-0.585765 -0.000129 0.161067 71 37 117
0.630066 -0.479279 0.176036 68 1 84
-0.600636 0.103301 0.222455 61 76 137
-0.635556 -0.173341 0.369235 72 30 112
-0.513550 -0.179591 -0.029809 49 102 141
-0.121101 0.136778 -0.288369 43 115 142
0.670966 -0.238706 0.346671 68 1 84
-0.372714 -0.485688 -0.247601 32 144 140
0.549701 0.068720 0.072978 71 17 99
-0.006966 -0.163581 -0.383748 54 91 140
-0.252147 0.167306 -0.209719 67 60 132
0.098445 -0.267259 -0.243584 68 1 84
-0.368216 -0.294090 -0.137415 67 60 132
0.652472 -0.168544 0.529775 68 1 84
0.502466 -0.539839 -0.169589 71 15 98
0.407376 -0.265252 -0.119173 68 1 84
-0.214524 0.577644 -0.084713 43 115 142
-0.363660 0.320766 -0.116711 59 81 138
0.107233 -0.270737 -0.221937 70 48 125
-0.189081 -0.418268 -0.252412 48 104 141
-0.604194 0.032328 0.513932 66 64 133
-0.091226 -0.333423 -0.201066 71 38 118
0.028639 -0.477784 -0.348590 39 173 128
0.424878 0.088626 -0.112413 72 33 114
0.422114 0.409903 0.035538 35 169 130
0.340877 0.392604 -0.075082 49 102 141
-0.210898 0.199882 -0.216771 66 64 133
0.252976 -0.152393 -0.199187 69 50 127
-0.587310 -0.125879 0.127382 49 100 141
0.479642 -0.023095 -0.084007 68 1 84
-0.594795 0.169932 0.484259 40 122 142
0.657838 -0.299393 0.255264 68 1 84
-0.159626 0.488460 -0.230864 55 88 140
-0.596917 -0.346621 0.155976 71 38 118
-0.092605 0.585505 -0.183092 60 78 138
-0.129249 -0.042408 -0.296493 61 74 137
-0.269074 0.494642 -0.127636 71 44 123
0.544434 -0.069636 -0.000003 68 1 84
-0.419418 0.307260 -0.075372 57 85 139
0.642734 -0.062087 0.402622 68 1 84
-0.516953 -0.549970 -0.023214 71 20 102
0.173295 -0.061241 -0.234208 60 78 138
-0.492909 -0.414099 -0.046503 71 38 118
0.101098 0.214402 -0.299010 63 69 135
0.115647 0.098457 -0.278318 70 48 125
-0.372761 0.539987 0.112528 66 190 113
0.537551 -0.312322 0.009211 68 1 84
-0.537034 0.383049 0.303445 107 205 89
-0.571196 0.166289 0.126802 52 95 141
0.003946 0.298796 -0.271554 50 98 141
0.081925 0.297203 -0.265831 71 42 121
-0.574286 0.201032 0.143729 48 104 141
-0.654382 -0.361844 0.285299 66 61 132
0.096072 0.298605 -0.258438 70 45 124
0.223703 -0.099064 -0.221612 60 78 138
0.441387 0.472178 0.280387 59 186 117
0.312946 0.131028 -0.182445 68 55 129
0.053703 0.522062 -0.248371 41 120 142
-0.375545 0.465405 -0.022790 42 119 142
0.437892 -0.163106 -0.122865 68 1 84
-0.077763 -0.421005 -0.319067 38 127 142
0.202850 0.556087 -0.103271 53 93 140
-0.646737 -0.335510 0.504786 68 1 84
0.506795 0.310686 0.099778 30 155 137
0.154692 -0.024923 -0.260551 67 60 132
0.571260 0.232487 0.431933 37 131 141
0.521278 0.363724 0.240525 30 154 137
-0.548602 -0.141959 0.018821 72 34 115
0.030842 -0.280881 -0.335252 45 111 142
-0.090923 -0.335465 -0.202138 71 40 120
-0.578308 -0.074449 0.101035 60 78 138
-0.461082 0.143190 -0.077724 68 55 129
-0.454403 0.011554 -0.106567 68 57 130
-0.643656 -0.460145 0.414258 68 1 84
0.029639 0.013451 -0.436150 47 106 141
0.331888 0.239828 -0.141745 51 97 141
0.599641 -0.207291 0.113548 68 1 84
-0.032590 0.421879 -0.264872 71 24 106
-0.176643 -0.365402 -0.195492 55 88 140
-0.505285 -0.232545 -0.020725 66 61 132
0.428588 -0.406134 -0.160838 70 49 126
0.045588 0.506201 -0.257236 39 125 142
-0.637634 -0.321259 0.252624 69 53 128
0.288975 0.041839 -0.207471 54 90 140
-0.436604 0.044935 -0.122232 70 45 124
-0.261716 -0.251570 -0.179839 67 60 132
-0.637296 -0.560176 0.412454 68 1 84
-0.371084 -0.385031 -0.170802 54 90 140
0.393700 -0.030747 -0.163904 71 42 121
0.640520 -0.098595 0.324859 68 1 84
-0.575692 -0.392735 0.118319 72 33 114
0.618502 -0.288807 0.156680 68 1 84
0.077996 0.020290 -0.372969 68 55 129
0.611395 0.036355 0.301966 70 9 92
0.634361 -0.124035 0.521133 68 1 84
-0.266028 0.468441 -0.141201 68 3 87
0.648355 -0.238274 0.245205 68 1 84
-0.470981 -0.558651 -0.137458 49 100 141
0.381219 0.524506 0.159494 46 178 124
-0.321847 0.245379 -0.157366 65 66 134
0.428789 -0.072749 -0.138939 68 1 84
-0.367095 -0.137304 -0.161609 66 64 133
-0.310930 0.139816 -0.189505 56 87 140
0.545684 -0.210499 -0.001594 68 1 84
0.686753 -0.334425 0.483040 68 1 84
-0.122578 -0.053061 -0.300134 63 69 135
0.274680 0.149497 -0.198989 61 75 137
0.261172 0.228353 -0.181001 51 96 141
-0.268339 -0.411313 -0.239115 49 100 141
0.652364 -0.297042 0.236393 68 1 84
-0.386472 0.530222 0.110023 64 189 114
0.552424 -0.077886 0.012567 68 1 84
-0.613414 0.057869 0.421026 54 90 140
-0.573457 -0.514202 0.119715 70 12 95
0.471535 0.435987 0.331627 41 175 127
0.498469 -0.049605 -0.066235 68 1 84
0.289296 -0.460450 -0.265882 34 138 141
0.413586 0.499651 0.211360 69 191 111
0.596160 -0.033141 0.185257 68 1 84
0.567404 -0.441671 0.020523 68 1 84
0.267338 -0.153495 -0.195297 67 58 131
-0.075876 0.593121 -0.156253 59 80 138
-0.176501 -0.078064 -0.233749 61 76 137
-0.364142 -0.260113 -0.133953 63 69 135
0.588301 -0.142771 0.089170 68 1 84
-0.495938 -0.499105 -0.107970 63 71 136
-0.231225 0.332683 -0.178033 68 1 84
0.580247 0.127730 0.201762 72 35 116
-0.471772 0.355454 0.010777 39 125 142
-0.220502 -0.049809 -0.227141 59 81 138
0.429071 0.251085 -0.044406 55 89 140
0.051212 0.507299 -0.256165 42 119 142
-0.352486 0.301496 -0.127916 64 67 135
-0.277582 0.048371 -0.216151 57 85 139
-0.069134 0.547091 -0.238615 58 82 139
0.487993 -0.474665 -0.176946 72 29 111
0.035562 0.165146 -0.324084 51 96 141
-0.500588 0.231754 -0.001460 57 85 139
0.100183 0.347394 -0.226657 66 64 133
-0.571123 -0.104784 0.073572 50 99 141
-0.582895 -0.027331 0.137170 67 59 131
0.302573 0.563323 0.068496 47 179 123
-0.639057 -0.216251 0.332447 69 52 127
-0.588040 -0.089460 0.135797 60 78 138
-0.660895 -0.196089 0.460421 63 69 135
0.627483 -0.194816 0.204807 68 1 84
0.603884 0.119683 0.400376 63 69 135
0.223867 0.578416 -0.011204 32 144 140
-0.582560 0.281553 0.279982 30 159 136
-0.606810 -0.247310 0.174955 69 53 128
0.398481 0.359203 -0.032440 54 91 140
-0.341007 -0.330759 -0.154834 66 64 133
0.105918 0.276493 -0.264570 64 68 135
0.614645 0.023527 0.480435 69 6 90
-0.645096 -0.384433 0.441039 71 21 103
0.300588 0.543966 0.017807 35 169 130
-0.143857 0.038421 -0.234018 71 42 121
-0.112975 -0.305997 -0.183489 59 80 138
0.462706 -0.122060 -0.109746 68 1 84
0.492808 -0.220506 -0.057864 68 1 84
0.347009 0.509314 0.033122 42 176 126
0.574549 0.173223 0.199324 71 40 120
0.473661 0.346566 0.065363 37 131 141
0.147226 0.330393 -0.213364 72 25 107
0.421841 -0.208943 -0.114073 68 1 84
-0.538889 -0.440698 0.036670 70 45 124
0.548526 0.156225 0.109220 70 47 124
0.072522 0.582399 -0.172201 44 114 142
-0.291043 0.431458 -0.126138 71 20 102
-0.494404 0.350314 0.045435 33 166 133
-0.120929 -0.405194 -0.268709 50 99 141
-0.444180 0.323873 -0.044399 46 107 142
0.465294 -0.077943 -0.107143 68 3 87
-0.643618 -0.241775 0.349492 66 62 133
0.517048 0.373895 0.256058 37 131 141
0.001023 0.285300 -0.290328 47 105 141
0.127077 -0.252711 -0.209277 66 62 133
-0.217407 0.386452 -0.186153 68 1 84
-0.378764 -0.488719 -0.246072 31 146 140
0.318302 0.418666 -0.079511 50 98 141
0.058003 0.583572 -0.171448 63 71 136
-0.644563 -0.309504 0.467572 71 15 98
0.582507 0.211803 0.286826 39 126 142
-0.588431 -0.046101 0.155608 67 60 132
0.204308 0.282146 -0.171141 64 68 135
-0.581338 -0.179244 0.102257 59 81 138
-0.381992 0.403659 -0.066029 58 82 139
0.584780 -0.058609 0.112120 68 1 84
-0.539488 0.374911 0.338423 62 188 115
-0.236729 -0.192172 -0.187369 67 58 131
0.005998 -0.229704 -0.358940 49 102 141
-0.069312 0.316269 -0.254257 54 91 140
0.581397 0.197503 0.251811 53 92 140
-0.345584 -0.219102 -0.144819 61 74 137
0.532027 0.298888 0.502885 30 159 136
0.515662 -0.545861 -0.143853 68 1 84
-0.364155 0.028372 -0.182227 67 59 131
-0.610698 0.089102 0.423240 44 113 142
0.346345 0.547904 0.132512 59 186 117
0.517042 -0.546504 -0.141592 68 1 84
0.273680 0.549444 -0.012463 39 173 128
0.046568 -0.203913 -0.369348 58 82 139
-0.601061 -0.543704 0.202922 68 1 84
-0.632475 -0.163777 0.354769 70 48 125
0.119447 -0.047891 -0.371695 65 65 134
-0.484295 -0.414267 -0.063147 65 65 134
0.483696 0.425493 0.285240 30 154 137
0.097353 -0.181598 -0.315846 69 52 127
0.102933 -0.078695 -0.384256 69 53 128
-0.633791 -0.471207 0.238177 71 42 121
-0.294361 -0.474429 -0.278705 36 133 141
-0.099203 -0.032982 -0.354363 52 95 141
-0.606569 0.146794 0.409052 43 116 142
0.046213 0.315801 -0.251864 68 55 129
-0.097268 0.136663 -0.301636 44 113 142
-0.157932 0.567328 -0.179068 45 111 142
-0.150904 0.041526 -0.232618 69 52 127
-0.322668 0.011793 -0.204213 62 73 137
0.513528 -0.554479 -0.145024 68 1 84
-0.288519 0.183939 -0.192417 61 75 137
0.251251 0.552994 -0.040451 38 127 142
-0.484754 0.305610 0.000481 55 89 140
0.316873 0.049685 -0.196096 54 90 140
-0.570502 -0.373674 0.105219 71 43 122
-0.420673 0.307152 -0.074174 57 85 139
0.139976 -0.445219 -0.334294 39 126 142
0.352609 0.543469 0.133244 62 188 115
0.272947 0.167616 -0.198006 64 68 135
-0.644873 -0.326463 0.469201 70 9 92
-0.070986 0.329228 -0.241521 59 81 138
0.613033 -0.223638 0.151310 68 1 84
-0.198944 -0.228026 -0.188160 50 98 141
0.489913 -0.312718 -0.033662 68 1 84
0.545822 0.321631 0.295638 33 141 140
0.623619 -0.287614 0.172502 68 1 84
0.305969 -0.436544 -0.243280 45 111 142
0.480845 -0.221791 -0.066652 68 1 84
-0.552096 0.062864 0.059409 69 52 127
-0.564965 0.320718 0.365790 30 159 136
0.516465 -0.252886 -0.024537 68 1 84
-0.459924 0.467643 0.138961 85 198 102
-0.608676 0.120936 0.274611 52 95 141
-0.452836 -0.211361 -0.077482 60 77 138
0.559996 -0.410579 0.016211 68 1 84
0.028110 -0.305386 -0.324513 44 112 142
0.567188 0.079658 0.138908 68 1 84
-0.610520 -0.022743 0.284316 67 60 132
-0.330529 -0.320998 -0.165068 63 69 135
0.614326 -0.205637 0.158900 68 1 84
-0.301012 0.512663 -0.074610 44 113 142
0.669448 -0.254397 0.301586 68 1 84
0.044300 0.058747 -0.326739 71 38 118
-0.389686 0.125437 -0.146642 49 102 141
-0.606232 0.050004 0.486428 60 77 138
-0.241689 0.342560 -0.170174 71 15 98
0.279399 0.251920 -0.160757 52 95 141
0.125968 0.324388 -0.226632 72 35 116
-0.549050 -0.223853 0.037975 70 49 126
0.666311 -0.220896 0.317720 68 1 84
-0.420390 0.510925 0.159733 64 189 114
-0.423252 0.152276 -0.112829 66 64 133
0.129429 0.038669 -0.280814 71 39 119
-0.511396 -0.457539 -0.041021 71 37 117
-0.549758 -0.337590 0.063391 63 71 136
0.580944 0.197287 0.249038 53 93 140
-0.228044 0.565814 -0.097624 54 90 140
0.517122 -0.171027 -0.048825 68 1 84
-0.314954 0.418297 -0.110678 70 11 94
-0.605151 0.184217 0.307059 42 117 142
-0.144088 -0.016974 -0.237362 71 44 123
-0.419448 0.501227 0.109438 53 183 120
-0.159502 0.039141 -0.229725 69 50 127
-0.639796 -0.225738 0.385646 67 59 131
0.637222 -0.057731 0.366624 70 9 92
-0.130290 -0.286371 -0.184066 61 74 137
-0.118064 -0.001614 -0.328197 62 73 137
-0.602212 0.189674 0.385119 38 129 142
-0.080717 0.507970 -0.259568 59 81 138
-0.369418 -0.358080 -0.135420 71 42 121
0.680876 -0.232748 0.463593 68 1 84
-0.614578 -0.030955 0.477707 70 47 124
0.572105 -0.030206 0.082190 70 9 92
0.607523 -0.094257 0.186668 68 1 84
-0.549970 -0.261324 0.047854 64 68 135
-0.525548 0.073079 0.003874 64 68 135
-0.641647 -0.469516 0.377652 68 1 84
0.109852 0.261203 -0.261463 72 26 108
-0.638376 -0.453513 0.314133 70 45 124
0.418525 0.024722 -0.135535 71 20 102
0.658282 -0.180950 0.315273 68 1 84
0.177372 -0.319072 -0.169576 63 71 136
0.612365 -0.421209 0.138625 68 1 84
0.009960 0.583431 -0.177639 66 61 132
-0.487576 -0.086964 -0.072108 70 47 124
-0.603230 0.196004 0.319864 42 117 142
-0.631679 -0.320092 0.232681 69 50 127
0.577161 0.074757 0.171079 68 1 84
0.110917 -0.469995 -0.344394 33 166 133
0.130192 0.017505 -0.334113 67 60 132
-0.496726 0.179534 -0.020912 67 58 131
0.134167 0.586967 -0.106610 39 126 142
0.655204 -0.149883 0.338983 68 1 84
-0.607254 0.017782 0.502504 66 61 132
0.452488 -0.217765 -0.088781 68 1 84
-0.167770 0.346282 -0.215604 69 5 88
-0.133326 0.288437 -0.259549 46 107 142
0.244029 0.079339 -0.213254 53 93 140
-0.507450 -0.047168 -0.044132 71 21 103
-0.621163 -0.029855 0.420472 64 67 135
-0.586014 0.232728 0.203701 36 133 141
-0.588541 -0.472923 0.159296 71 21 103
0.298316 0.224748 -0.168930 44 112 142
0.690203 -0.423686 0.439906 68 1 84
-0.053697 -0.401064 -0.309493 39 126 142
-0.618314 0.011900 0.380866 64 68 135
-0.415243 0.378873 -0.047932 53 92 140
0.544635 0.306571 0.415477 36 133 141
0.175249 -0.470654 -0.332468 40 174 127
0.532607 -0.164768 -0.029666 68 1 84
-0.160652 0.576172 -0.160214 36 132 141
-0.236508 0.452025 -0.172035 68 2 85
-0.195997 0.081674 -0.229590 70 49 126
0.476256 -0.142930 -0.095711 68 1 84
