ply
format ascii 1.0
element vertex 1276
property float x
property float y
property float z
property uchar red
property uchar green
property uchar blue
end_header
0.393027 -0.214467 -0.104475 68 1 84
0.221720 0.037156 -0.194492 67 60 132
-0.541000 -0.466119 0.003108 68 1 84
-0.310320 -0.257441 -0.156338 68 1 84
0.152499 0.501358 -0.190772 37 130 142
0.574717 0.141603 0.406063 68 1 84
-0.320394 0.224738 -0.133574 53 93 140
0.363126 -0.557124 -0.228116 68 1 84
-0.613747 -0.293952 0.238796 68 1 84
0.180761 -0.414306 -0.192416 68 1 84
-0.574558 -0.013054 0.213211 68 1 84
0.614782 -0.255648 0.224106 68 1 84
-0.200006 0.516109 -0.140503 30 153 138
-0.310274 -0.240406 -0.153897 69 5 88
0.221706 0.246516 -0.192906 37 131 141
-0.240676 0.516819 -0.092117 36 134 141
-0.007332 0.026918 -0.423945 30 154 137
-0.522399 0.287963 0.252211 68 1 84
0.575828 -0.324371 0.097166 68 1 84
0.315194 0.502896 0.021667 72 30 112
0.570078 0.093684 0.513280 68 1 84
-0.231556 -0.330179 -0.169024 68 1 84
-0.603870 -0.143139 0.363154 68 1 84
-0.262001 0.088106 -0.178999 43 116 142
0.216577 -0.309793 -0.154531 72 29 111
0.343095 0.528051 0.131228 68 1 84
0.132305 0.498729 -0.204945 34 138 141
0.557090 -0.397146 0.038683 68 1 84
-0.472212 0.117845 0.019118 68 1 84
0.540610 0.298820 0.244543 68 1 84
-0.032634 0.633868 -0.132359 33 142 140
-0.545858 -0.093009 0.043958 68 1 84
-0.577406 0.050428 0.378653 68 1 84
-0.367496 0.495556 0.165626 70 12 95
-0.188025 -0.020140 -0.194268 42 118 142
-0.388058 -0.334365 -0.102409 68 1 84
-0.177377 -0.139224 -0.186967 67 60 132
0.615275 -0.182754 0.510079 68 1 84
-0.354858 0.161618 -0.109662 61 74 137
-0.257823 0.515678 -0.065569 36 134 141
0.525873 0.273108 0.480396 68 1 84
0.132488 -0.118268 -0.263402 60 77 138
0.026385 -0.261748 -0.352835 72 32 113
-0.046191 -0.167912 -0.351711 62 72 136
0.196599 0.595152 -0.086399 44 113 142
-0.540816 -0.341515 0.037165 68 1 84
-0.605764 -0.156481 0.290955 68 1 84
0.624448 -0.214958 0.280365 68 1 84
0.093364 -0.269148 -0.272910 68 1 84
0.645311 -0.254529 0.402626 68 1 84
0.579402 0.029904 0.212018 68 1 84
0.439148 0.024540 -0.066423 68 1 84
-0.001479 0.640953 -0.115571 38 129 142
-0.622250 -0.216170 0.356780 68 1 84
-0.595272 -0.046090 0.482150 68 1 84
-0.106829 -0.204730 -0.230510 71 38 118
0.614764 -0.161776 0.467629 68 1 84
-0.218133 0.166925 -0.233339 62 188 115
0.370350 0.406718 0.024240 68 1 84
0.073364 -0.199976 -0.350788 71 17 99
0.241809 -0.168050 -0.153611 71 43 122
-0.571526 -0.115116 0.094981 68 1 84
-0.336772 0.527776 0.206775 68 1 84
0.667096 -0.369371 0.509343 68 1 84
0.543061 0.301624 0.365060 68 1 84
0.088979 -0.266299 -0.289064 68 1 84
0.496711 0.353793 0.462913 68 1 84
0.480824 -0.428920 -0.113761 68 1 84
-0.124554 -0.213694 -0.207078 69 50 127
0.616949 -0.196214 0.528194 68 1 84
-0.461276 -0.147950 -0.070336 68 1 84
0.536782 -0.110801 0.020748 68 1 84
0.568702 -0.230341 0.086241 68 1 84
0.228757 -0.066594 -0.179868 67 60 132
-0.451086 0.352676 0.129127 68 1 84
-0.140402 0.098099 -0.248196 40 174 127
0.553749 -0.447812 0.024055 68 1 84
-0.514470 -0.218106 0.000105 68 1 84
-0.456827 0.065659 -0.020914 68 1 84
-0.631474 -0.282079 0.344637 68 1 84
-0.176143 0.606547 -0.098051 31 163 134
-0.068724 0.613034 -0.171193 39 173 128
0.499056 0.271052 0.107023 68 1 84
-0.235769 -0.393569 -0.159010 68 1 84
-0.625156 -0.236395 0.311433 68 1 84
-0.654466 -0.348709 0.458805 68 1 84
-0.583851 -0.018068 0.349464 68 1 84
-0.562856 0.135359 0.374462 68 1 84
0.197677 0.321206 -0.211815 35 136 141
-0.467704 0.320753 0.129162 68 1 84
-0.206469 -0.328077 -0.164033 68 1 84
-0.565976 0.107077 0.452445 68 1 84
-0.129139 0.158426 -0.278293 162 218 55
-0.328535 0.526893 0.154403 70 12 95
-0.076181 0.300690 -0.299942 231 228 25
0.136177 0.450033 -0.204328 34 137 141
-0.610381 -0.179769 0.468853 68 1 84
0.464985 -0.192847 -0.055865 68 1 84
-0.592824 -0.033420 0.522567 68 1 84
-0.349186 0.114058 -0.121409 69 53 128
-0.551937 0.121628 0.201055 68 1 84
0.460106 -0.402113 -0.108465 68 1 84
0.151729 0.203499 -0.275634 53 183 120
-0.109305 0.383188 -0.236237 68 190 112
-0.595889 -0.049029 0.480742 68 1 84
-0.415590 -0.283924 -0.088688 68 1 84
-0.612129 -0.212319 0.456099 68 1 84
0.258735 0.022864 -0.181185 59 81 138
-0.108771 -0.068261 -0.266939 39 125 142
-0.567537 0.049412 0.223979 68 1 84
0.543015 -0.359877 0.026288 68 1 84
-0.395491 0.058144 -0.088132 68 1 84
-0.519570 -0.383787 -0.014857 68 1 84
0.530712 -0.256888 0.031742 68 1 84
-0.256867 0.428751 -0.112619 39 124 142
-0.502343 -0.087558 -0.020986 68 1 84
-0.088851 0.346262 -0.271305 173 220 48
0.536009 0.272965 0.195718 68 1 84
-0.450583 0.284241 0.070707 68 1 84
-0.589560 -0.043794 0.372086 68 1 84
-0.475147 -0.077975 -0.050623 68 1 84
-0.607575 -0.136328 0.463804 68 1 84
0.352468 0.302990 -0.081483 70 14 97
-0.581327 -0.509116 0.104271 68 1 84
0.652731 -0.427299 0.368035 68 1 84
0.429844 -0.118432 -0.087592 68 1 84
0.150146 -0.380682 -0.171868 68 1 84
-0.581782 0.019716 0.376800 68 1 84
0.176563 -0.412595 -0.192539 68 1 84
0.140945 0.135372 -0.273529 46 178 124
-0.214908 0.057342 -0.195001 40 122 142
0.562869 -0.459290 0.052270 68 1 84
0.597377 -0.066878 0.258826 68 1 84
-0.458177 -0.374570 -0.093676 68 1 84
0.636160 -0.234595 0.308131 68 1 84
-0.624393 -0.266586 0.285177 68 1 84
0.501659 -0.240916 -0.004540 68 1 84
0.296028 0.556948 0.091507 69 6 90
-0.590872 -0.069242 0.323543 68 1 84
0.513679 0.352842 0.222971 68 1 84
-0.245392 0.275920 -0.188463 31 146 140
0.536067 -0.491087 -0.018776 68 1 84
0.619544 -0.470849 0.254487 68 1 84
-0.205092 0.292858 -0.212632 31 161 135
-0.248267 0.345285 -0.165306 31 161 135
-0.162697 -0.336785 -0.142545 68 1 84
-0.524718 -0.215045 0.013330 68 1 84
-0.383394 0.142223 -0.081299 71 24 106
-0.577005 -0.017445 0.232705 68 1 84
-0.038072 0.009614 -0.400975 47 179 123
-0.590291 -0.297432 0.147749 68 1 84
0.504425 -0.262945 0.003583 68 1 84
0.371063 -0.057905 -0.119536 71 20 102
0.264036 -0.076533 -0.161529 72 35 116
-0.268769 -0.411587 -0.177160 68 1 84
0.198380 0.462744 -0.158639 38 128 142
0.307183 0.087228 -0.166360 72 29 111
-0.058750 0.394619 -0.240477 57 185 118
-0.220143 0.078332 -0.197444 42 119 142
0.606833 -0.423392 0.207448 68 1 84
-0.618845 -0.516927 0.257815 68 1 84
0.542330 -0.278245 0.046938 68 1 84
0.036156 0.037922 -0.402662 31 147 139
-0.546381 0.029651 0.115700 68 1 84
-0.276130 -0.423851 -0.215352 68 1 84
0.469658 0.429242 0.354748 68 1 84
0.477353 0.292041 0.082929 68 1 84
-0.615948 -0.239816 0.254860 68 1 84
0.506577 0.372413 0.381401 68 1 84
0.515831 0.365964 0.267725 68 1 84
0.463885 -0.239542 -0.045533 68 1 84
0.166591 0.293103 -0.245977 44 177 125
-0.255815 -0.228560 -0.165441 68 1 84
-0.491035 0.224310 0.101337 68 1 84
0.426003 -0.556661 -0.183866 68 1 84
-0.425373 -0.434416 -0.170367 68 1 84
0.071518 0.055017 -0.303613 33 166 133
0.317320 0.473730 -0.001059 70 49 126
-0.590717 -0.010922 0.427088 68 1 84
0.602503 -0.488213 0.184778 68 1 84
-0.344989 0.102590 -0.126757 65 65 134
0.064774 -0.496593 -0.297694 68 1 84
-0.464024 0.415501 0.289861 68 1 84
0.385516 -0.029586 -0.113217 68 3 87
0.565175 -0.025054 0.108739 68 1 84
-0.190189 0.557532 -0.135345 30 152 138
0.144307 0.042982 -0.230009 47 106 141
0.376894 -0.169309 -0.114644 68 1 84
0.398408 0.491420 0.179932 68 1 84
0.128901 -0.138984 -0.265139 70 47 124
0.418528 0.484716 0.286222 68 1 84
-0.565874 0.008373 0.178357 68 1 84
0.386090 -0.223077 -0.108474 68 1 84
-0.196219 -0.064927 -0.186007 55 88 140
0.255959 -0.316222 -0.159894 72 30 112
0.475632 0.006256 -0.032418 68 1 84
-0.604904 -0.149073 0.364587 68 1 84
-0.255458 -0.235929 -0.165834 68 1 84
0.059030 -0.337565 -0.282523 68 1 84
-0.615472 -0.318815 0.250001 68 1 84
0.608641 -0.508316 0.209044 68 1 84
-0.608815 -0.158843 0.492301 68 1 84
0.448265 0.440592 0.189124 68 1 84
-0.136384 0.339144 -0.250517 210 225 27
-0.297248 0.522106 0.032372 61 75 137
0.505251 0.381153 0.361302 68 1 84
0.640231 -0.229326 0.374920 68 1 84
-0.410105 -0.185510 -0.104264 68 1 84
-0.409245 -0.477673 -0.199721 68 1 84
0.506603 0.373667 0.238813 68 1 84
0.061872 0.290060 -0.300099 202 224 30
-0.054916 -0.475142 -0.291465 68 1 84
0.429556 0.165841 -0.043455 68 1 84
0.578233 0.016820 0.199656 68 1 84
0.514712 -0.288455 0.016159 68 1 84
0.087905 -0.118010 -0.360324 52 94 141
0.282215 0.128472 -0.183151 58 83 139
-0.441469 0.190423 0.005124 68 1 84
0.376911 0.460797 0.080299 68 1 84
0.124181 -0.421169 -0.224545 68 1 84
0.519668 0.042845 0.042208 68 1 84
-0.656862 -0.431610 0.394168 68 1 84
-0.670147 -0.441358 0.457509 68 1 84
0.391261 -0.257564 -0.105545 68 1 84
-0.356302 -0.120596 -0.134254 68 1 84
0.217092 -0.106972 -0.178075 71 43 122
-0.021626 -0.105650 -0.422423 41 121 142
0.413448 -0.160588 -0.096388 68 1 84
0.198861 0.576717 -0.114970 41 121 142
-0.188351 0.470383 -0.164798 31 163 134
-0.087415 -0.265978 -0.217898 70 9 92
0.664679 -0.357229 0.501307 68 1 84
0.398325 0.112172 -0.095447 68 1 84
-0.465405 0.400289 0.224965 68 1 84
0.593948 -0.485775 0.152846 68 1 84
0.150247 -0.078922 -0.239797 50 99 141
-0.407079 0.377207 0.083014 68 1 84
-0.613667 -0.187457 0.367420 68 1 84
-0.649372 -0.379179 0.396428 68 1 84
-0.566319 0.107864 0.445938 68 1 84
-0.117338 0.353468 -0.251611 124 210 79
-0.116987 0.223058 -0.273479 178 221 44
0.058855 0.026818 -0.323012 40 122 142
-0.387096 -0.539534 -0.224402 68 1 84
0.242181 0.086750 -0.196422 68 55 129
-0.584769 0.020538 0.446605 68 1 84
-0.594083 -0.396335 0.163077 68 1 84
0.067539 0.342612 -0.282081 129 211 76
0.553064 0.002327 0.090017 68 1 84
-0.207182 0.435691 -0.160571 31 147 139
-0.053071 -0.107545 -0.369094 63 69 135
-0.588707 -0.319259 0.142976 68 1 84
0.284174 0.228489 -0.181921 61 75 137
-0.505218 0.320431 0.225095 68 1 84
-0.538990 -0.414405 0.009636 68 1 84
-0.567699 0.079437 0.268000 68 1 84
-0.466928 0.386162 0.422926 68 1 84
0.650469 -0.293724 0.429144 68 1 84
0.426407 0.017407 -0.080281 68 1 84
-0.261257 0.572771 0.097145 68 55 129
-0.491610 0.014908 0.001380 68 1 84
-0.142701 0.179528 -0.275184 146 215 65
-0.413215 -0.425342 -0.172459 68 1 84
0.168385 -0.139695 -0.210699 71 39 119
0.321941 0.175798 -0.151996 71 44 123
0.582493 0.108862 0.304442 68 1 84
0.643802 -0.285966 0.494353 68 1 84
0.607778 -0.115205 0.323628 68 1 84
0.191683 -0.252254 -0.156298 69 54 129
-0.322741 0.243152 -0.127839 52 94 141
-0.472485 0.397902 0.249528 68 1 84
-0.586776 -0.082044 0.219400 68 1 84
0.254123 -0.181324 -0.148820 71 24 106
-0.584008 -0.030806 0.320725 68 1 84
0.550142 0.231549 0.443834 68 1 84
0.616101 -0.193047 0.414665 68 1 84
0.578885 0.089895 0.241724 68 1 84
-0.033981 -0.104540 -0.405546 56 86 139
-0.521605 0.003306 0.040711 68 1 84
-0.514442 -0.156314 -0.012181 68 1 84
0.571416 0.103229 0.496682 68 1 84
0.592176 -0.006494 0.278516 68 1 84
0.525409 0.349751 0.278231 68 1 84
-0.249134 -0.346178 -0.164307 68 1 84
-0.556603 0.167949 0.303232 68 1 84
-0.330882 0.395061 -0.029190 67 60 132
0.551407 -0.395207 0.025115 68 1 84
0.239415 0.421092 -0.132533 37 131 141
-0.405464 0.389678 0.091886 68 1 84
0.486971 -0.100147 -0.041500 68 1 84
-0.532911 -0.012228 0.052339 68 1 84
0.632206 -0.281428 0.300147 68 1 84
-0.514853 0.298510 0.408596 68 1 84
-0.099652 -0.148215 -0.260312 67 59 131
0.571215 0.020196 0.166259 68 1 84
-0.304908 0.309566 -0.132296 43 116 142
-0.476831 0.343086 0.169479 68 1 84
-0.270274 0.341019 -0.149790 30 159 136
-0.129911 -0.101485 -0.231919 55 89 140
0.581272 0.111243 0.356013 68 1 84
0.115828 -0.349637 -0.180393 68 3 87
0.259673 0.219036 -0.203098 57 85 139
-0.391416 -0.524380 -0.222604 68 1 84
0.591380 -0.406877 0.133555 68 1 84
-0.376402 -0.274003 -0.123895 68 1 84
-0.218141 -0.078216 -0.174627 68 55 129
-0.595347 -0.047563 0.428612 68 1 84
0.397658 0.210135 -0.066356 68 1 84
0.548795 0.231336 0.202718 68 1 84
0.194045 -0.175067 -0.176879 70 47 124
0.459680 0.217226 0.015730 68 1 84
-0.019037 0.626668 -0.149552 30 159 136
0.093182 -0.241771 -0.296624 68 3 87
0.658906 -0.481948 0.392670 68 1 84
-0.568439 0.102447 0.364809 68 1 84
-0.025766 0.121960 -0.307760 114 207 85
-0.226952 0.110952 -0.204285 38 128 142
0.477015 -0.250341 -0.029181 68 1 84
-0.662232 -0.388365 0.465319 68 1 84
0.420580 0.284452 -0.003278 68 1 84
-0.042268 0.067840 -0.307695 53 183 120
0.578283 0.123602 0.268182 68 1 84
-0.313934 -0.048147 -0.146897 70 48 125
-0.549189 -0.429660 0.029596 68 1 84
-0.507029 -0.155268 -0.022370 68 1 84
-0.296639 0.107527 -0.161370 44 113 142
0.063591 -0.196401 -0.364656 69 8 91
-0.144432 -0.300728 -0.162034 68 1 84
0.515854 0.291441 0.488915 68 1 84
-0.497396 0.272968 0.151025 68 1 84
-0.336115 -0.089738 -0.139442 71 18 101
0.245246 0.005395 -0.184001 65 66 134
-0.558222 0.007611 0.140766 68 1 84
0.363697 0.157567 -0.117032 71 17 99
0.105637 -0.002999 -0.351851 47 106 141
0.580291 -0.423781 0.100991 68 1 84
-0.213377 -0.106623 -0.172660 71 44 123
-0.541633 -0.142210 0.032504 68 1 84
0.589124 -0.035155 0.226081 68 1 84
-0.561016 0.093883 0.223988 68 1 84
-0.421547 0.260815 0.011522 68 1 84
-0.545800 0.086886 0.151446 68 1 84
0.485723 -0.441724 -0.116490 68 1 84
0.445180 0.244682 0.009029 68 1 84
0.557406 0.261874 0.291978 68 1 84
0.386532 0.348642 -0.004568 68 1 84
-0.625015 -0.305509 0.286367 68 1 84
0.290777 -0.431645 -0.199045 68 1 84
-0.404007 0.470731 0.214533 68 1 84
0.555877 0.139775 0.166196 68 1 84
-0.540066 0.183891 0.477817 68 1 84
0.616965 -0.327458 0.237481 68 1 84
-0.387681 -0.398670 -0.159875 68 1 84
-0.381827 0.083694 -0.095558 72 30 112
-0.123842 -0.043696 -0.254426 34 139 141
-0.230978 0.382361 -0.162972 35 168 131
-0.612779 -0.419030 0.250252 68 1 84
0.114560 0.301138 -0.284138 129 211 76
-0.003041 0.157419 -0.321477 151 216 62
0.597883 -0.014294 0.357486 68 1 84
-0.091393 -0.255984 -0.220988 71 17 99
0.659288 -0.272918 0.365628 68 1 84
-0.638109 -0.358453 0.329266 68 1 84
0.545545 -0.146351 0.033889 68 1 84
0.505117 0.197278 0.076542 68 1 84
-0.496636 0.362568 0.335613 68 1 84
0.140078 -0.052698 -0.291524 45 111 142
-0.043718 -0.354626 -0.241384 68 1 84
-0.114884 0.048979 -0.240668 30 154 137
0.104071 0.048339 -0.269977 37 131 141
0.159129 0.441370 -0.192377 37 131 141
-0.438334 0.209002 0.008700 68 1 84
-0.416590 -0.120466 -0.103553 68 1 84
0.430298 -0.371113 -0.094232 68 1 84
0.295417 0.514001 -0.003112 71 40 120
0.025486 0.040076 -0.414581 30 155 137
0.492962 -0.091973 -0.034454 68 1 84
0.542340 -0.137440 0.028582 68 1 84
-0.647294 -0.346725 0.396034 68 1 84
0.351594 -0.534059 -0.234572 68 1 84
-0.486577 0.298636 0.147533 68 1 84
0.284317 -0.091852 -0.149806 71 40 120
-0.518049 0.016961 0.042136 68 1 84
0.600874 -0.114301 0.226219 68 1 84
0.618509 -0.232838 0.451717 68 1 84
0.379516 -0.034229 -0.116593 70 11 94
0.628832 -0.266181 0.288696 68 1 84
-0.134872 0.264355 -0.260418 139 213 70
0.521726 -0.088962 0.000511 68 1 84
-0.072677 -0.341620 -0.196275 68 1 84
-0.619996 -0.265458 0.264334 68 1 84
-0.373002 0.231146 -0.070726 72 28 110
-0.199869 0.102673 -0.218095 31 147 139
-0.599763 -0.119184 0.352990 68 1 84
0.476560 -0.099195 -0.051219 68 1 84
0.502766 0.162369 0.057955 68 1 84
0.139470 0.224331 -0.267731 54 184 119
-0.031054 0.019772 -0.338942 30 153 138
-0.497136 -0.043703 -0.015464 68 1 84
-0.478918 0.366306 0.417597 68 1 84
0.093432 -0.166486 -0.325199 71 20 102
0.121141 -0.397272 -0.205470 68 1 84
-0.562605 -0.426523 0.063329 68 1 84
0.435715 -0.021819 -0.078067 68 1 84
-0.549819 0.038454 0.133654 68 1 84
-0.304417 -0.310640 -0.167492 68 1 84
-0.371462 0.396118 0.044441 70 14 97
-0.204494 -0.176802 -0.169229 68 1 84
0.137292 -0.256721 -0.188005 72 32 113
0.344473 0.417427 -0.003266 71 42 121
-0.101151 0.007855 -0.315168 32 165 133
0.581113 -0.133116 0.111891 68 1 84
0.258032 0.485606 -0.088727 50 99 141
0.445451 -0.036755 -0.072115 68 1 84
0.513672 -0.003400 0.015055 68 1 84
-0.358857 -0.290759 -0.137837 68 1 84
0.096581 0.133281 -0.297767 47 179 123
-0.539762 0.238322 0.282468 68 1 84
0.370346 0.519266 0.212643 68 1 84
-0.019903 0.513542 -0.238067 83 197 103
0.548143 0.207936 0.482964 68 1 84
-0.437992 0.427798 0.201827 68 1 84
-0.602460 -0.134356 0.340919 68 1 84
0.185290 0.372608 -0.197178 30 152 138
0.042520 0.203758 -0.320131 149 215 63
-0.666391 -0.512462 0.448375 68 1 84
0.589221 -0.321798 0.132641 68 1 84
0.460884 -0.113944 -0.065455 68 1 84
-0.169142 -0.365104 -0.132391 68 1 84
0.407666 -0.079332 -0.099878 68 1 84
-0.492216 0.318840 0.462998 68 1 84
0.585286 0.075172 0.445572 68 1 84
-0.425390 -0.543297 -0.191902 68 1 84
-0.550928 0.197384 0.310847 68 1 84
0.045895 0.029365 -0.351516 34 137 141
0.563122 0.185451 0.436329 68 1 84
0.197993 0.415060 -0.170547 46 108 142
0.027352 0.633146 -0.133542 35 137 141
0.271341 -0.106627 -0.152177 71 44 123
0.235188 -0.150108 -0.159599 72 25 107
0.390205 -0.318518 -0.106390 68 1 84
-0.418565 0.463519 0.308733 68 1 84
-0.361046 0.315308 -0.050768 61 74 137
-0.276278 0.410336 -0.100770 39 124 142
0.598486 -0.174220 0.166929 68 1 84
-0.245894 -0.291485 -0.171976 68 1 84
-0.093911 -0.132464 -0.272291 63 71 136
0.574589 0.137845 0.419088 68 1 84
-0.336280 0.451566 0.032468 63 71 136
-0.399745 -0.213113 -0.107971 68 1 84
0.439173 -0.469950 -0.169687 68 1 84
0.587569 0.040849 0.269712 68 1 84
-0.041663 0.324498 -0.300750 233 228 25
-0.569356 -0.099756 0.091555 68 1 84
-0.409443 0.300407 0.019569 71 18 101
0.187156 -0.212552 -0.168779 71 44 123
0.411500 -0.531227 -0.200775 68 1 84
-0.342469 0.437701 0.031810 71 44 123
0.467739 -0.398126 -0.098672 68 1 84
-0.605171 -0.121348 0.449807 68 1 84
-0.549674 -0.029049 0.077296 68 1 84
0.417137 0.485282 0.258362 68 1 84
-0.055818 0.162201 -0.315520 159 217 56
-0.446443 0.400316 0.173176 68 1 84
-0.609992 -0.494168 0.216654 68 1 84
0.043610 0.131750 -0.310515 59 186 117
0.471050 0.369187 0.137223 68 1 84
0.433396 0.468910 0.325002 68 1 84
-0.528686 -0.473825 -0.028718 68 1 84
-0.299231 0.197876 -0.162028 39 125 142
0.096787 0.460108 -0.223667 31 147 139
-0.150650 -0.184515 -0.194534 69 54 129
0.603657 -0.087674 0.304788 68 1 84
0.087547 0.070182 -0.288966 31 150 139
-0.613433 -0.229711 0.461326 68 1 84
0.077254 -0.327543 -0.257987 68 1 84
-0.296216 0.050934 -0.161058 48 104 141
-0.231189 0.548313 -0.086742 36 134 141
0.510093 0.144283 0.063841 68 1 84
0.032718 -0.257161 -0.354153 71 22 105
0.091927 0.543933 -0.221916 33 167 132
0.547412 -0.129662 0.036990 68 1 84
0.409149 0.484628 0.194206 68 1 84
0.169393 0.358426 -0.215455 46 178 124
0.547408 0.298276 0.316490 68 1 84
-0.515714 -0.120208 -0.007948 68 1 84
0.199490 -0.055148 -0.197107 53 92 140
0.169119 0.617742 -0.065689 50 98 141
-0.070691 -0.089991 -0.341705 63 69 135
-0.392837 -0.240707 -0.111776 68 1 84
-0.449198 0.386966 0.161769 68 1 84
-0.418542 -0.218973 -0.094240 68 1 84
0.650201 -0.284097 0.336387 68 1 84
-0.202714 -0.433398 -0.228455 68 1 84
0.232337 -0.195759 -0.154016 69 8 91
0.118278 -0.301594 -0.180721 68 1 84
0.168830 -0.296382 -0.153031 70 11 94
-0.561232 0.105052 0.240160 68 1 84
0.007243 -0.233790 -0.364807 71 21 103
0.422735 -0.307145 -0.071552 68 1 84
0.274389 -0.339028 -0.152336 70 11 94
-0.667225 -0.440367 0.444316 68 1 84
0.325786 0.281966 -0.121313 61 74 137
-0.107543 0.109209 -0.269762 112 206 86
0.037614 -0.509476 -0.299003 63 71 136
-0.573973 0.048657 0.327772 68 1 84
-0.437994 -0.025500 -0.074203 68 1 84
0.596034 -0.092175 0.216632 68 1 84
-0.480827 -0.026333 -0.030331 68 1 84
-0.002003 -0.030191 -0.472309 33 140 141
0.007591 -0.252898 -0.354648 71 38 118
-0.458195 0.290427 0.087756 68 1 84
0.383929 -0.342282 -0.108429 68 1 84
-0.362145 -0.205540 -0.130757 68 1 84
0.648680 -0.455835 0.306917 68 1 84
0.036647 0.598323 -0.196480 51 182 121
-0.275792 0.297663 -0.164915 32 145 140
-0.561797 -0.135745 0.070614 68 1 84
0.108484 -0.409662 -0.223282 68 1 84
0.034178 0.597199 -0.197377 53 183 120
0.566517 0.060484 0.165027 68 1 84
0.424324 0.283597 0.001333 68 1 84
-0.558443 -0.443530 0.050190 68 1 84
-0.259441 0.222803 -0.203771 61 187 116
0.366620 -0.200274 -0.119358 68 1 84
-0.238515 0.579361 -0.001584 42 117 142
0.097748 -0.111755 -0.338436 61 74 137
0.492679 0.308178 0.121002 68 1 84
0.613446 -0.149334 0.436875 68 1 84
-0.214577 0.115042 -0.214222 31 146 140
-0.096812 -0.440348 -0.251147 68 1 84
-0.607735 -0.319110 0.219033 68 1 84
-0.178604 -0.018805 -0.198687 41 121 142
0.200628 -0.110491 -0.188143 70 45 124
-0.420060 0.174680 -0.027402 68 1 84
-0.509084 0.081106 0.060608 68 1 84
-0.305336 0.045393 -0.156053 69 53 128
-0.458629 0.149413 0.011861 68 1 84
0.541683 0.191115 0.521679 68 1 84
-0.052612 0.500383 -0.238612 91 200 98
0.463277 0.439450 0.325944 68 1 84
-0.143317 0.114475 -0.253261 79 195 105
0.052877 0.319406 -0.300288 173 220 48
-0.522513 -0.437531 -0.041038 68 1 84
-0.000380 0.158155 -0.321885 144 214 67
0.183283 0.377705 -0.196227 30 152 138
0.305195 0.557462 0.135487 68 1 84
0.141538 0.262618 -0.256612 54 184 119
-0.495471 0.327500 0.199472 68 1 84
-0.510994 0.329831 0.283217 68 1 84
0.095772 0.079621 -0.282798 30 157 136
-0.268808 -0.327522 -0.168796 68 1 84
0.302560 0.304350 -0.131672 53 93 140
0.082647 0.504821 -0.232179 35 168 131
0.622004 -0.191942 0.372906 68 1 84
0.379426 0.286948 -0.056462 71 15 98
0.090446 -0.069661 -0.406218 50 99 141
-0.658573 -0.418970 0.414784 68 1 84
-0.555563 0.175744 0.326289 68 1 84
0.514815 0.021620 0.026282 68 1 84
-0.616469 -0.245963 0.478508 68 1 84
-0.137859 0.511780 -0.196218 79 195 105
-0.162647 0.292412 -0.248243 131 211 75
0.190477 -0.139151 -0.190292 70 45 124
0.328796 -0.419923 -0.187528 68 1 84
0.520030 0.035522 0.039944 68 1 84
-0.507922 0.337700 0.284827 68 1 84
-0.134443 -0.166451 -0.214636 69 54 129
0.525127 -0.302148 0.025246 68 1 84
-0.071766 -0.252357 -0.254408 70 9 92
0.643483 -0.481669 0.284594 68 1 84
0.411943 -0.015306 -0.095657 68 1 84
-0.567492 -0.046661 0.125262 68 1 84
-0.570919 0.072392 0.477120 68 1 84
-0.394962 -0.197285 -0.112424 68 1 84
0.546493 -0.033779 0.056333 68 1 84
0.650143 -0.448081 0.316537 68 1 84
-0.496193 0.175856 0.083378 68 1 84
0.237323 0.414340 -0.136756 37 131 141
-0.423696 -0.085894 -0.095075 68 1 84
-0.090904 0.634337 -0.120509 32 143 140
0.539810 0.319451 0.299235 68 1 84
-0.493696 -0.112342 -0.036071 68 1 84
-0.127260 -0.024620 -0.260030 30 153 138
0.145090 0.614355 -0.123176 35 137 141
-0.206684 0.007737 -0.190026 48 104 141
0.177941 0.495454 -0.170845 40 122 142
-0.331253 0.416444 -0.008088 67 58 131
-0.218727 -0.500409 -0.272568 68 1 84
-0.469321 0.323210 0.134638 68 1 84
0.002285 -0.155724 -0.410952 59 81 138
-0.369179 -0.024048 -0.121977 69 8 91
-0.456416 -0.002979 -0.048899 68 1 84
0.590506 0.051288 0.419170 68 1 84
-0.553303 0.184848 0.304869 68 1 84
-0.078095 -0.407130 -0.222183 68 1 84
-0.610990 -0.196458 0.461287 68 1 84
-0.226519 0.178049 -0.229257 54 184 119
-0.026518 -0.114881 -0.410333 50 99 141
0.521772 -0.036849 0.013646 68 1 84
-0.507409 -0.237386 -0.003534 68 1 84
0.264336 0.245312 -0.184154 54 90 140
0.296299 0.036631 -0.169775 67 58 131
-0.660339 -0.428898 0.417564 68 1 84
-0.463887 0.415108 0.312410 68 1 84
-0.600684 -0.215836 0.187560 68 1 84
0.058289 0.147147 -0.315960 151 216 62
-0.081347 -0.252027 -0.239505 68 1 84
0.574360 -0.511947 0.089978 68 1 84
0.054037 0.496673 -0.240619 47 179 123
0.577474 0.129676 0.388818 68 1 84
0.660222 -0.344004 0.468363 68 1 84
0.031257 0.633888 -0.131786 36 132 141
-0.573507 0.041349 0.289946 68 1 84
-0.398810 0.219897 -0.039273 68 1 84
-0.077687 -0.290839 -0.212256 68 1 84
0.561428 0.113681 0.171188 68 1 84
0.506453 0.158897 0.062504 68 1 84
0.306038 -0.382037 -0.139922 68 1 84
-0.095352 0.065664 -0.258180 32 143 140
0.509942 -0.081128 -0.014164 68 1 84
-0.438200 0.440933 0.343138 68 1 84
-0.162432 0.226973 -0.249402 89 199 100
0.302731 0.489110 -0.013568 70 48 125
-0.204337 0.308329 -0.213558 61 187 116
-0.448645 0.338652 0.111610 68 1 84
0.355658 0.037682 -0.138147 70 11 94
-0.006871 -0.247717 -0.351316 71 38 118
-0.390045 -0.462926 -0.205675 68 1 84
-0.537727 -0.230187 0.034697 68 1 84
-0.506359 0.051828 0.041988 68 1 84
0.046690 0.568751 -0.220959 44 177 125
0.420340 0.379761 0.068540 68 1 84
-0.573071 0.028373 0.253384 68 1 84
-0.573489 0.068307 0.362148 68 1 84
-0.426866 0.011362 -0.072594 68 1 84
0.523095 0.335186 0.229431 68 1 84
0.598367 -0.074964 0.258347 68 1 84
0.100996 -0.388790 -0.213887 68 1 84
-0.521896 0.161347 0.130281 68 1 84
-0.059275 0.203203 -0.310588 246 230 31
-0.510032 -0.452223 -0.072245 68 1 84
0.216593 -0.173779 -0.164267 68 1 84
-0.250585 -0.160576 -0.160391 72 29 111
0.611324 -0.372354 0.223487 68 1 84
0.577882 0.127044 0.268636 68 1 84
-0.461153 -0.520545 -0.151876 68 1 84
-0.536211 0.229230 0.423672 68 1 84
-0.042049 0.292225 -0.306361 220 226 24
-0.554464 0.159018 0.434304 68 1 84
-0.622405 -0.510686 0.271637 68 1 84
0.253839 0.477651 -0.097625 46 107 142
-0.344940 0.272108 -0.095889 54 90 140
-0.210710 -0.031805 -0.183660 55 88 140
0.458556 0.257962 0.034608 68 1 84
0.369160 -0.264444 -0.122963 68 1 84
-0.130086 -0.122536 -0.229619 61 76 137
0.287492 -0.415221 -0.176739 68 1 84
0.589062 -0.237666 0.130724 68 1 84
0.578206 -0.290249 0.105753 68 1 84
0.384765 0.456398 0.088018 68 1 84
-0.542162 0.204645 0.239101 68 1 84
0.337197 0.136683 -0.143199 69 5 88
-0.625615 -0.271152 0.422791 68 1 84
0.562571 0.189557 0.433589 68 1 84
0.659868 -0.444306 0.414576 68 1 84
-0.226209 0.576699 -0.052438 36 133 141
-0.040731 -0.133925 -0.379806 70 48 125
0.524638 -0.513724 -0.048411 68 1 84
0.464386 0.262441 0.045383 68 1 84
-0.517929 0.091666 0.083618 68 1 84
0.400493 -0.265267 -0.097846 68 1 84
0.408704 0.361272 0.037205 68 1 84
-0.400363 0.479955 0.259204 68 1 84
-0.289430 0.172618 -0.171731 35 136 141
-0.253903 0.133726 -0.192843 34 138 141
0.564623 -0.511911 0.062136 68 1 84
-0.567735 0.047527 0.223602 68 1 84
0.688624 -0.459298 0.479342 68 1 84
-0.257338 0.555756 -0.008738 47 106 141
0.073452 -0.179293 -0.357972 70 45 124
-0.341850 0.238177 -0.107101 70 45 124
-0.429880 -0.035417 -0.083366 68 1 84
0.360503 -0.340084 -0.125509 68 1 84
-0.603978 -0.304553 0.201367 68 1 84
0.102721 -0.292756 -0.217139 68 1 84
0.610502 -0.121734 0.393647 68 1 84
0.602179 -0.026965 0.451315 68 1 84
0.144431 0.469481 -0.198359 36 134 141
-0.239974 0.511977 -0.095284 35 135 141
0.496839 0.111489 0.030912 68 1 84
0.600993 -0.027790 0.383902 68 1 84
-0.248685 0.163172 -0.208576 31 161 135
-0.510349 0.034364 0.039110 68 1 84
0.460511 -0.486827 -0.154413 68 1 84
-0.452300 0.416533 0.390005 68 1 84
0.511961 -0.108614 -0.014711 68 1 84
0.398737 0.175191 -0.076927 68 1 84
0.607967 -0.436090 0.216075 68 1 84
-0.558543 -0.084233 0.069506 68 1 84
-0.510631 0.151588 0.098854 68 1 84
-0.169658 0.171153 -0.260806 94 201 97
-0.092705 0.003294 -0.327707 30 154 137
0.436985 -0.414837 -0.135097 68 1 84
0.049624 -0.358984 -0.278841 68 1 84
-0.063547 -0.183918 -0.308016 71 42 121
-0.300356 0.224651 -0.158393 48 104 141
0.614909 -0.169801 0.472830 68 1 84
-0.457996 0.264821 0.068652 68 1 84
0.128532 0.551284 -0.197400 31 149 139
-0.070772 -0.151001 -0.308454 62 73 137
0.224143 0.006709 -0.191307 69 52 127
-0.055644 0.071679 -0.296267 61 187 116
0.197078 0.167240 -0.247937 36 132 141
-0.088770 -0.468560 -0.283396 68 1 84
0.214664 0.115513 -0.221938 47 106 141
-0.569402 0.024928 0.212221 68 1 84
0.000811 -0.015915 -0.469299 30 154 137
0.508175 -0.144620 -0.019205 68 1 84
-0.324647 -0.075483 -0.143263 71 22 105
-0.662920 -0.518015 0.429032 68 1 84
-0.283544 0.437485 -0.073034 44 113 142
-0.339827 -0.500016 -0.243271 68 1 84
-0.402270 0.247454 -0.023054 69 8 91
0.548261 0.085640 0.118416 68 1 84
-0.196271 0.190013 -0.246510 116 208 84
0.053487 -0.261347 -0.344969 68 1 84
0.172170 0.513817 -0.173417 39 126 142
-0.609283 -0.468064 0.223933 68 1 84
0.508529 0.129168 0.055805 68 1 84
0.324136 0.523753 0.069577 70 11 94
0.481880 -0.013801 -0.031460 68 1 84
-0.214180 -0.517143 -0.276854 68 1 84
-0.591686 -0.069329 0.347666 68 1 84
-0.597165 -0.370099 0.176275 68 1 84
0.506154 0.385893 0.284566 68 1 84
0.621807 -0.294070 0.258101 68 1 84
0.610252 -0.438207 0.230393 68 1 84
-0.506888 0.023061 0.027271 68 1 84
0.524014 -0.239750 0.021021 68 1 84
-0.210747 -0.301352 -0.169562 68 1 84
0.131322 0.312739 -0.271520 64 189 114
-0.617880 -0.254704 0.448656 68 1 84
0.198135 0.589441 -0.096981 45 110 142
0.075100 -0.332717 -0.258756 68 1 84
-0.615143 -0.197686 0.383716 68 1 84
-0.514912 -0.427345 -0.052580 68 1 84
0.157501 -0.353589 -0.137555 68 1 84
-0.253996 0.064897 -0.181058 44 114 142
0.384350 -0.202477 -0.109936 68 1 84
0.064485 0.332255 -0.290616 151 216 62
0.588098 -0.167875 0.129167 68 1 84
-0.598468 -0.080026 0.418540 68 1 84
-0.566313 -0.409141 0.074908 68 1 84
-0.550948 0.015231 0.119309 68 1 84
0.549668 -0.360245 0.037241 68 1 84
-0.471892 -0.504450 -0.139293 68 1 84
-0.272029 0.022887 -0.169744 39 124 142
-0.042327 0.392868 -0.241311 41 175 127
0.307578 0.322311 -0.118025 60 78 138
-0.653600 -0.420828 0.377426 68 1 84
0.573011 0.039028 0.183977 68 1 84
0.326277 -0.033004 -0.144597 68 1 84
0.345201 -0.459453 -0.206076 68 1 84
0.688557 -0.459700 0.496945 68 1 84
0.356387 -0.544821 -0.231744 68 1 84
0.503271 0.347924 0.448473 68 1 84
-0.416610 0.042390 -0.072546 68 1 84
0.286194 -0.329494 -0.153361 68 1 84
0.586528 -0.010266 0.229203 68 1 84
0.539931 -0.066871 0.033131 68 1 84
0.189284 -0.236189 -0.159337 71 42 121
0.451610 -0.200290 -0.065645 68 1 84
0.600447 -0.379553 0.169370 68 1 84
-0.621399 -0.260083 0.497889 68 1 84
-0.009695 0.563427 -0.218376 62 188 115
-0.055541 -0.093788 -0.372396 62 72 136
-0.607905 -0.202063 0.233154 68 1 84
-0.237444 0.486644 -0.108036 35 135 141
-0.478381 0.377298 0.388950 68 1 84
-0.559478 -0.027890 0.109261 68 1 84
0.274911 -0.254517 -0.151781 71 22 105
-0.654941 -0.358123 0.491228 68 1 84
0.116131 -0.496387 -0.288463 68 1 84
0.579697 0.061445 0.501784 68 1 84
-0.601991 -0.132532 0.374608 68 1 84
-0.303088 0.246789 -0.151281 53 93 140
-0.416792 -0.182344 -0.100303 68 1 84
0.394609 0.502557 0.242074 68 1 84
-0.439309 -0.224353 -0.077516 68 1 84
0.495841 -0.434613 -0.100534 68 1 84
0.606085 -0.335044 0.192536 68 1 84
0.474250 0.425501 0.345928 68 1 84
-0.446477 -0.304192 -0.054549 68 1 84
-0.050613 -0.270319 -0.280479 68 1 84
-0.444498 -0.036889 -0.071339 68 1 84
-0.529054 -0.418620 -0.015636 68 1 84
-0.295486 0.007959 -0.158095 62 73 137
0.328518 0.147892 -0.148924 72 30 112
0.329182 0.312894 -0.103429 69 53 128
0.080377 0.259920 -0.281254 129 211 76
0.562849 0.143757 0.194952 68 1 84
-0.167510 0.082249 -0.227789 46 178 124
0.390647 -0.407128 -0.161595 68 1 84
0.094393 -0.427939 -0.253240 68 1 84
0.056440 0.319548 -0.299787 167 219 51
0.431245 -0.161613 -0.085614 68 1 84
-0.186285 0.319711 -0.226294 105 204 91
-0.048876 0.409466 -0.235943 53 183 120
-0.275169 0.399130 -0.108967 36 133 141
-0.374403 -0.139721 -0.127964 68 1 84
0.452113 0.306764 0.054878 68 1 84
-0.045135 0.508419 -0.238374 91 200 98
0.583763 0.041136 0.243455 68 1 84
0.619495 -0.252369 0.243765 68 1 84
-0.220805 0.030064 -0.187867 46 107 142
-0.460337 -0.514391 -0.154571 68 1 84
0.485658 -0.083923 -0.041203 68 1 84
0.650988 -0.513907 0.326040 68 1 84
-0.472088 -0.521622 -0.135397 68 1 84
-0.002623 -0.042174 -0.472156 32 144 140
0.144218 -0.050270 -0.275675 58 82 139
-0.462225 0.156453 0.019157 68 1 84
0.189654 0.137189 -0.245863 36 132 141
-0.427731 0.065785 -0.053454 68 1 84
-0.659197 -0.466566 0.405264 68 1 84
-0.363339 -0.452028 -0.214974 68 1 84
0.414835 0.433160 0.112544 68 1 84
0.463803 -0.190488 -0.057332 68 1 84
-0.491760 0.238939 0.111857 68 1 84
0.611651 -0.105803 0.507920 68 1 84
-0.033342 0.193480 -0.321035 233 228 25
-0.011232 0.551562 -0.224129 68 190 112
-0.251472 -0.213425 -0.164796 69 6 90
-0.490782 0.372035 0.274789 68 1 84
0.600858 -0.011196 0.439362 68 1 84
-0.088841 -0.064890 -0.328468 46 107 142
0.322156 0.209594 -0.145821 66 61 132
-0.396182 0.212376 -0.045392 68 1 84
0.486220 0.386833 0.432216 68 1 84
-0.050832 -0.151515 -0.351998 68 57 130
0.220572 0.511348 -0.126845 42 117 142
-0.158946 -0.187594 -0.187812 70 45 124
-0.398947 0.038032 -0.089813 68 1 84
0.203008 -0.356001 -0.126437 69 8 91
0.204997 0.328731 -0.202318 30 152 138
0.324280 -0.269307 -0.145121 68 1 84
-0.577275 -0.344844 0.109566 68 1 84
0.375651 0.424833 0.046691 68 1 84
0.345603 -0.550238 -0.237367 68 1 84
0.083413 0.131932 -0.303703 68 190 112
-0.567207 0.112196 0.399211 68 1 84
0.370774 0.033625 -0.126946 68 3 87
0.622850 -0.195020 0.294319 68 1 84
0.540473 -0.384287 0.007521 68 1 84
-0.314047 0.466037 0.004687 66 64 133
-0.396158 0.094645 -0.078290 71 17 99
0.303303 -0.396256 -0.149876 69 8 91
0.479385 0.191065 0.032648 68 1 84
0.342732 -0.156021 -0.126878 68 1 84
-0.549474 0.200532 0.298433 68 1 84
-0.084547 -0.021301 -0.372657 42 176 126
0.301230 -0.144009 -0.137616 71 20 102
-0.181259 0.103810 -0.229465 32 164 133
-0.623565 -0.238619 0.296692 68 1 84
0.030684 -0.233561 -0.367293 72 32 113
0.580541 -0.407768 0.100866 68 1 84
0.181084 0.579403 -0.135236 39 126 142
-0.434451 -0.369928 -0.103619 68 1 84
-0.490589 0.012427 -0.001315 68 1 84
0.202236 -0.145306 -0.180509 70 14 97
-0.443761 0.399002 0.166084 68 1 84
-0.171253 0.329760 -0.233879 154 216 60
-0.187824 -0.197454 -0.171186 68 3 87
0.572244 0.163418 0.390303 68 1 84
0.253969 -0.483797 -0.251869 68 1 84
0.170654 0.531907 -0.171359 36 132 141
0.371742 -0.059104 -0.119130 71 18 101
-0.565126 0.024544 0.187146 68 1 84
-0.195425 0.307010 -0.221381 94 201 97
-0.031176 0.640264 -0.112054 38 127 142
-0.496716 -0.087424 -0.028336 68 1 84
-0.237903 -0.189806 -0.163569 68 1 84
-0.229534 0.344669 -0.181744 46 178 124
-0.482086 0.322728 0.159832 68 1 84
0.104221 0.317952 -0.285498 105 204 91
0.601115 -0.429276 0.176299 68 1 84
-0.567767 0.075105 0.260397 68 1 84
-0.250572 0.576977 0.057001 56 86 139
0.316934 -0.311226 -0.152278 68 1 84
0.082541 -0.059059 -0.437603 50 99 141
0.333126 0.484547 0.033946 72 30 112
-0.104213 -0.075102 -0.269825 44 113 142
0.478374 -0.505197 -0.133169 68 1 84
-0.542544 -0.351666 0.037575 68 1 84
-0.463180 0.326168 0.125716 68 1 84
-0.295748 0.047961 -0.161151 46 109 142
-0.569579 -0.018029 0.174123 68 1 84
-0.178235 0.253684 -0.223041 34 167 132
-0.557685 -0.399088 0.055249 68 1 84
0.160575 -0.115047 -0.225153 62 72 136
-0.044585 0.561575 -0.220841 91 200 98
-0.585484 -0.005450 0.380992 68 1 84
-0.116594 0.556939 -0.197590 85 198 102
-0.585375 -0.220088 0.132067 68 1 84
-0.131982 -0.230366 -0.190751 68 3 87
-0.468577 -0.044385 -0.050176 68 1 84
-0.483221 -0.317052 -0.025182 68 1 84
0.623494 -0.227449 0.417478 68 1 84
0.348827 0.297613 -0.088715 71 42 121
-0.627233 -0.397891 0.288859 68 1 84
0.330207 0.070231 -0.155129 71 40 120
0.071484 0.382527 -0.241761 91 200 98
0.561291 0.155628 0.487961 68 1 84
0.071845 0.006201 -0.430976 41 120 142
0.561580 -0.033295 0.091154 68 1 84
0.508887 0.364980 0.226570 68 1 84
0.173042 0.502852 -0.174007 39 125 142
-0.606733 -0.155009 0.325904 68 1 84
-0.336518 0.083149 -0.135092 69 53 128
-0.398126 -0.015607 -0.102818 68 1 84
-0.478158 -0.368386 -0.065754 68 1 84
-0.473468 -0.384105 -0.086031 68 1 84
-0.172324 -0.346301 -0.138991 68 1 84
0.533642 0.307441 0.409841 68 1 84
0.506487 0.143526 0.057290 68 1 84
0.363717 0.510116 0.132716 68 1 84
-0.288682 0.531297 0.027526 60 77 138
-0.268404 0.495734 -0.060181 46 109 142
0.249144 0.502201 -0.093715 54 90 140
0.162451 0.558488 -0.168203 33 140 141
0.024207 0.347848 -0.276980 116 208 84
0.305621 0.214807 -0.164298 60 77 138
0.244829 0.227135 -0.204499 49 101 141
-0.571206 -0.019907 0.181854 68 1 84
-0.565809 0.096669 0.277064 68 1 84
-0.358021 -0.332930 -0.131674 68 1 84
0.250815 0.448486 -0.112260 46 109 142
0.600957 -0.213526 0.173942 68 1 84
-0.303479 -0.492379 -0.253537 68 1 84
0.505604 -0.463942 -0.098119 68 1 84
-0.223505 -0.295779 -0.171659 68 1 84
-0.179267 0.047257 -0.207837 40 122 142
-0.499586 -0.533850 -0.084277 68 1 84
-0.530191 -0.111474 0.014613 68 1 84
0.497004 -0.374517 -0.047887 68 1 84
-0.542903 0.215654 0.262073 68 1 84
0.433047 -0.515915 -0.182382 68 1 84
0.529921 -0.189529 0.016584 68 1 84
-0.572386 -0.296890 0.100265 68 1 84
-0.271373 0.438115 -0.090379 44 112 142
0.318545 -0.401205 -0.159489 68 1 84
-0.082905 -0.157073 -0.282273 65 65 134
0.502944 0.105076 0.037906 68 1 84
-0.642691 -0.480136 0.341623 68 1 84
0.135390 0.051271 -0.237819 44 114 142
0.110272 -0.246813 -0.244800 70 9 92
-0.079328 0.377714 -0.248963 109 206 88
-0.160928 0.585637 -0.144963 43 177 125
0.242024 0.124413 -0.208543 52 95 141
-0.087175 -0.153260 -0.276459 66 64 133
-0.569433 0.077557 0.297224 68 1 84
-0.470240 0.394176 0.228050 68 1 84
-0.526221 -0.379326 -0.000735 68 1 84
0.331298 0.461239 0.010879 71 37 117
0.467818 0.437070 0.294654 68 1 84
-0.041791 0.511731 -0.238081 103 204 92
0.222088 -0.388803 -0.151374 68 1 84
-0.589996 -0.006174 0.442359 68 1 84
-0.111843 0.533614 -0.210026 64 189 114
0.176622 -0.509942 -0.277045 68 1 84
0.655325 -0.326172 0.478392 68 1 84
-0.431323 0.057631 -0.052435 68 1 84
-0.243471 -0.005440 -0.175764 48 103 141
0.464913 -0.525004 -0.146902 68 1 84
0.528295 -0.504359 -0.039666 68 1 84
-0.047169 -0.316490 -0.252813 68 3 87
-0.056364 0.003569 -0.318606 30 160 135
0.560851 -0.367329 0.056666 68 1 84
-0.052922 -0.465192 -0.286035 68 1 84
-0.301521 -0.002072 -0.154659 69 50 127
-0.211129 -0.009601 -0.185758 52 95 141
-0.189976 0.339564 -0.216665 85 198 102
-0.191847 -0.110546 -0.182140 60 78 138
0.133312 -0.400675 -0.201999 68 1 84
0.164588 0.441994 -0.188922 36 132 141
0.146235 0.019111 -0.250734 47 105 141
0.024955 -0.376971 -0.281689 68 1 84
-0.287314 0.395485 -0.097061 42 118 142
-0.132330 0.368347 -0.235723 75 194 108
0.583016 -0.153111 0.114951 68 1 84
-0.409145 0.472418 0.281479 68 1 84
0.540687 0.150808 0.127153 68 1 84
0.520530 -0.373157 -0.017475 68 1 84
-0.301991 0.529410 0.059185 67 60 132
-0.496724 -0.365056 -0.038791 68 1 84
-0.422318 0.427528 0.162104 68 1 84
-0.579481 -0.283538 0.116876 68 1 84
-0.031499 0.031742 -0.333089 31 146 140
-0.230409 -0.280991 -0.170523 68 1 84
0.264072 -0.321023 -0.158278 71 15 98
0.441504 0.457566 0.215579 68 1 84
0.158164 -0.218192 -0.190687 72 30 112
-0.407876 0.241190 -0.017636 68 1 84
-0.352059 -0.358336 -0.131108 68 1 84
-0.383385 -0.321898 -0.110508 68 1 84
-0.147205 0.533946 -0.183826 62 188 115
0.655801 -0.493589 0.335714 68 1 84
-0.071646 -0.180423 -0.293555 72 32 113
-0.331640 -0.142731 -0.143802 68 1 84
0.117076 -0.344248 -0.177478 69 5 88
-0.078522 0.233390 -0.280696 162 218 55
-0.600375 -0.156763 0.223368 68 1 84
-0.592792 -0.039022 0.407738 68 1 84
0.656882 -0.475118 0.381710 68 1 84
0.595071 -0.021897 0.294412 68 1 84
-0.313345 -0.428301 -0.221736 68 1 84
0.178444 0.170500 -0.258843 31 149 139
0.467221 0.432133 0.233122 68 1 84
0.372271 -0.552962 -0.223275 68 1 84
-0.137466 -0.056197 -0.225281 42 119 142
-0.492152 0.222166 0.102204 68 1 84
0.307675 0.229384 -0.158176 68 57 130
-0.403471 -0.443521 -0.189552 68 1 84
0.194513 0.134888 -0.242208 32 143 140
0.302160 0.191936 -0.171582 61 75 137
-0.611771 -0.361422 0.240889 68 1 84
0.425925 -0.394799 -0.122992 68 1 84
0.338331 -0.036602 -0.138311 70 14 97
0.147064 -0.054068 -0.256015 54 90 140
-0.589446 -0.483312 0.135858 68 1 84
0.075549 -0.492353 -0.296640 68 1 84
0.557155 0.238111 0.250126 68 1 84
0.569088 0.206597 0.320625 68 1 84
0.160215 -0.286887 -0.156460 68 1 84
0.389241 -0.275961 -0.108605 68 1 84
-0.345706 -0.386365 -0.152413 68 1 84
-0.554026 0.182131 0.370858 68 1 84
-0.255704 -0.113413 -0.159584 70 14 97
0.577577 -0.431029 0.093645 68 1 84
0.262783 0.522486 -0.058280 55 89 140
0.572169 0.134606 0.453919 68 1 84
-0.572543 0.037520 0.259546 68 1 84
0.504675 -0.448455 -0.095422 68 1 84
0.502520 0.331704 0.479887 68 1 84
-0.563073 -0.421266 0.065101 68 1 84
0.503167 -0.313666 0.001039 68 1 84
0.023318 0.514634 -0.239800 61 187 116
0.591036 -0.053935 0.221575 68 1 84
-0.375849 -0.293149 -0.125206 70 12 95
0.505881 -0.530884 -0.086108 68 1 84
0.629577 -0.235057 0.290122 68 1 84
0.146925 -0.047401 -0.266210 53 93 140
0.556627 -0.055401 0.068249 68 1 84
0.688144 -0.502859 0.486971 68 1 84
-0.557022 0.064492 0.177701 68 1 84
0.268004 0.530750 -0.039285 62 73 137
-0.522595 -0.484497 -0.041805 68 1 84
0.073223 0.639289 -0.109186 39 124 142
-0.531851 0.182861 0.173123 68 1 84
-0.322425 0.433562 -0.008864 65 66 134
0.069871 0.557964 -0.224361 43 177 125
-0.090101 -0.205227 -0.251768 72 34 115
0.470292 -0.426936 -0.121899 68 1 84
-0.380097 0.169968 -0.078804 71 20 102
0.114497 0.633242 -0.103799 37 130 142
0.047725 -0.093782 -0.446633 50 99 141
-0.275414 -0.390945 -0.156483 68 1 84
0.211644 0.454087 -0.149192 41 120 142
-0.273982 -0.513373 -0.267588 68 1 84
0.553619 0.202867 0.465390 68 1 84
0.611771 -0.306284 0.216087 68 1 84
0.424683 -0.507350 -0.188730 68 1 84
-0.571087 0.077769 0.345332 68 1 84
-0.283060 -0.062656 -0.156042 66 62 133
0.622824 -0.186258 0.315914 68 1 84
0.551723 0.188194 0.181458 68 1 84
-0.347620 0.510749 0.151474 71 18 101
-0.388955 -0.107378 -0.119208 68 1 84
-0.347102 -0.548570 -0.245620 68 1 84
0.446296 0.326891 0.061330 68 1 84
-0.573949 -0.387744 0.097217 68 1 84
-0.288717 0.206659 -0.175823 38 129 142
0.426410 0.114554 -0.062471 68 1 84
-0.644562 -0.455108 0.349322 68 1 84
0.359716 -0.228336 -0.123223 68 1 84
-0.113966 -0.142654 -0.243609 64 68 135
0.158490 -0.451251 -0.246600 68 1 84
0.178459 0.558419 -0.153563 32 143 140
0.558616 0.248082 0.372232 68 1 84
-0.253505 0.453739 -0.103645 35 135 141
0.506156 -0.075154 -0.017699 68 1 84
0.547191 -0.458944 0.005554 68 1 84
-0.066637 -0.030263 -0.403327 48 180 122
-0.480729 -0.283158 -0.024206 68 1 84
-0.582214 0.028262 0.394659 68 1 84
0.602197 -0.147771 0.198475 68 1 84
0.022902 0.583430 -0.208202 57 185 118
0.486023 0.211898 0.052194 68 1 84
0.082303 0.333390 -0.286286 139 213 70
0.596941 -0.261530 0.157348 68 1 84
-0.088798 0.635922 -0.117221 34 137 141
-0.480170 -0.357727 -0.053600 68 1 84
0.507173 -0.053782 -0.011752 68 1 84
-0.580289 0.016120 0.356688 68 1 84
0.544487 0.005140 0.071401 68 1 84
0.338501 -0.400094 -0.160856 68 1 84
-0.166184 -0.408974 -0.198330 68 1 84
0.016628 0.469623 -0.243491 53 183 120
-0.012397 0.435903 -0.238442 35 169 130
0.066295 -0.183235 -0.366830 72 25 107
0.292710 0.163714 -0.181475 60 77 138
0.614354 -0.360914 0.234122 68 1 84
-0.487957 -0.458095 -0.114701 68 1 84
0.009264 0.010376 -0.453279 30 153 138
-0.450142 -0.210611 -0.071218 68 1 84
-0.566867 0.113735 0.395752 68 1 84
-0.064112 0.145991 -0.306792 202 224 30
-0.093025 -0.252023 -0.221601 70 12 95
0.007043 0.535860 -0.232085 54 184 119
-0.326588 0.478987 0.040298 71 39 119
-0.305406 0.274465 -0.142414 49 101 141
0.194524 -0.370545 -0.131475 68 3 87
0.618380 -0.459549 0.255700 68 1 84
0.440439 -0.388081 -0.107180 68 1 84
0.157649 0.490232 -0.187796 36 133 141
0.562286 0.175095 0.457590 68 1 84
0.600980 -0.202627 0.174340 68 1 84
0.563132 0.174626 0.453329 68 1 84
0.059743 0.213431 -0.307094 178 221 44
-0.519537 0.303127 0.267852 68 1 84
-0.633880 -0.290230 0.383598 68 1 84
-0.409063 0.372086 0.081263 68 2 85
-0.200112 0.049362 -0.199224 43 115 142
0.064546 -0.078040 -0.446213 38 127 142
-0.483082 -0.372653 -0.062921 68 1 84
-0.427995 -0.015900 -0.080011 68 1 84
-0.309758 0.226170 -0.145828 51 97 141
0.549698 0.193017 0.493162 68 1 84
-0.329232 -0.466110 -0.233389 68 1 84
0.605377 -0.053821 0.419247 68 1 84
0.315722 -0.528007 -0.247961 68 1 84
-0.585518 0.014043 0.407893 68 1 84
0.153241 -0.152136 -0.224200 68 57 130
-0.294829 0.505575 0.003565 56 86 139
-0.105804 0.499671 -0.218324 87 198 101
0.310592 0.429411 -0.042281 68 57 130
0.368823 0.443264 0.051968 68 1 84
-0.348428 -0.397971 -0.174641 68 1 84
0.474310 0.422119 0.230656 68 1 84
-0.065642 -0.223815 -0.280683 69 53 128
0.417645 -0.262500 -0.082838 68 1 84
0.168040 -0.027035 -0.218445 43 116 142
0.592573 -0.013680 0.519749 68 1 84
0.073108 0.213136 -0.303151 165 218 53
-0.147468 0.518380 -0.187619 61 187 116
0.371426 0.149882 -0.111968 71 17 99
0.389970 -0.161127 -0.108738 68 1 84
0.392444 -0.297263 -0.107445 68 1 84
-0.324651 0.475644 0.033219 70 45 124
-0.306022 0.258690 -0.145293 49 100 141
-0.489355 0.361739 0.232692 68 1 84
-0.609000 -0.179877 0.441112 68 1 84
-0.382816 0.336458 0.006647 70 49 126
-0.620430 -0.470057 0.271523 68 1 84
0.480260 -0.330964 -0.028059 68 1 84
-0.550524 0.191071 0.394262 68 1 84
0.395375 -0.477797 -0.196161 68 1 84
0.074400 -0.145639 -0.374222 63 71 136
0.487995 0.276965 0.090893 68 1 84
-0.026146 -0.175867 -0.377965 70 49 126
-0.367144 -0.546543 -0.235560 68 1 84
0.043492 0.133828 -0.311079 57 185 118
0.575465 -0.002977 0.172552 68 1 84
-0.260450 0.568574 0.051056 55 89 140
0.644246 -0.271536 0.426173 68 1 84
0.536021 0.262266 0.462111 68 1 84
0.398732 -0.226556 -0.100461 68 1 84
-0.324730 0.255867 -0.123539 49 102 141
0.149392 -0.256439 -0.174146 68 3 87
-0.103135 0.022571 -0.287447 30 152 138
0.143471 0.594469 -0.155887 30 154 137
-0.579175 -0.432944 0.107928 68 1 84
-0.309368 0.474965 0.002543 60 78 138
0.538408 0.321357 0.288497 68 1 84
-0.428415 -0.354076 -0.088533 68 1 84
-0.505435 -0.186247 -0.020332 68 1 84
-0.537187 0.130764 0.151995 68 1 84
-0.509574 -0.125653 -0.017120 68 1 84
-0.146504 0.626420 -0.091584 30 153 138
-0.035078 -0.225398 -0.335663 72 25 107
0.263921 0.573420 0.052471 69 5 88
0.589838 -0.081832 0.179462 68 1 84
-0.536225 -0.494446 -0.008015 68 1 84
0.505399 0.033272 0.016893 68 1 84
-0.534445 0.235482 0.422761 68 1 84
0.589424 0.023656 0.274784 68 1 84
-0.598419 -0.073948 0.428010 68 1 84
0.506118 0.325875 0.165967 68 1 84
-0.380046 -0.475356 -0.214868 68 1 84
0.293587 0.553613 0.067016 72 29 111
-0.596749 -0.115751 0.271949 68 1 84
0.656412 -0.337790 0.447305 68 1 84
-0.503561 -0.324839 -0.007820 68 1 84
0.361926 0.432225 0.032949 68 2 85
-0.577405 -0.318549 0.111272 68 1 84
0.437452 0.331288 0.052217 68 1 84
0.175391 -0.404475 -0.183448 68 1 84
0.563265 0.150812 0.484756 68 1 84
-0.587154 -0.450957 0.130866 68 1 84
-0.222965 -0.250818 -0.168614 68 1 84
-0.159219 0.454098 -0.191287 35 168 131
-0.556342 0.162299 0.285944 68 1 84
0.124267 0.569825 -0.190227 30 158 136
0.179049 0.237739 -0.230546 30 160 135
0.459893 0.443662 0.317506 68 1 84
0.607298 -0.103667 0.359191 68 1 84
0.137200 0.409551 -0.210481 32 145 140
0.458783 0.369534 0.116980 68 1 84
0.469266 0.369034 0.133791 68 1 84
-0.563757 -0.311165 0.082058 68 1 84
0.572831 0.176553 0.291973 68 1 84
0.613495 -0.149925 0.409234 68 1 84
-0.667411 -0.493223 0.446106 68 1 84
-0.607704 -0.240671 0.215189 68 1 84
0.614325 -0.136727 0.490206 68 1 84
0.596329 -0.030646 0.532099 68 1 84
0.259225 0.186992 -0.211136 46 108 142
0.226143 0.550853 -0.098264 49 102 141
-0.086395 -0.003380 -0.349847 39 173 128
-0.448099 -0.516913 -0.170110 68 1 84
0.524623 -0.085752 0.005256 68 1 84
0.560466 -0.147972 0.060987 68 1 84
0.518768 0.338108 0.411309 68 1 84
0.220593 0.072621 -0.202322 51 96 141
-0.434327 0.110491 -0.031230 68 1 84
0.405959 -0.293828 -0.092282 68 1 84
-0.367137 0.306370 -0.046027 64 68 135
-0.567422 0.048800 0.222327 68 1 84
-0.478406 0.326923 0.156236 68 1 84
-0.513508 0.256849 0.180143 68 1 84
0.185494 0.251987 -0.214733 30 158 136
-0.399725 0.179664 -0.051250 68 3 87
-0.093646 -0.059571 -0.324218 41 121 142
0.609403 -0.089624 0.506607 68 1 84
0.645194 -0.287447 0.444399 68 1 84
-0.574324 -0.498216 0.084756 68 1 84
-0.396565 -0.454610 -0.198869 68 1 84
-0.176988 0.034201 -0.205256 40 122 142
0.164759 0.088944 -0.238746 40 122 142
-0.278048 -0.252217 -0.163533 68 2 85
-0.435771 0.131469 -0.022571 68 1 84
-0.590265 -0.275786 0.146833 68 1 84
0.654419 -0.425561 0.402878 68 1 84
-0.505657 -0.308191 -0.001470 68 1 84
0.350056 -0.518808 -0.235071 68 1 84
-0.119152 -0.205406 -0.217286 72 35 116
0.508377 0.180350 0.074817 68 1 84
-0.466979 0.384251 0.198740 68 1 84
-0.606802 -0.178859 0.249048 68 1 84
-0.434923 0.358194 0.107565 68 1 84
0.163943 -0.219264 -0.183658 59 81 138
0.325744 0.284638 -0.120262 63 69 135
-0.584046 -0.347106 0.128242 68 1 84
-0.494562 0.367064 0.289362 68 1 84
0.225471 0.510910 -0.121526 41 121 142
0.328822 0.407660 -0.033064 69 54 129
-0.090570 0.094443 -0.272738 116 208 84
-0.455004 -0.246130 -0.058366 68 1 84
0.547584 -0.137834 0.037233 68 1 84
0.514436 -0.283389 0.015927 68 1 84
0.482191 0.420143 0.284729 68 1 84
0.360136 -0.147018 -0.121179 69 5 88
-0.305116 0.533168 0.078416 67 60 132
-0.427085 -0.444258 -0.174310 68 1 84
0.016985 -0.042203 -0.476606 31 149 139
