ply
format ascii 1.0
element vertex 1275
property float x
property float y
property float z
property uchar red
property uchar green
property uchar blue
end_header
-0.275714 0.043949 -0.188512 59 80 138
-0.314240 -0.211671 -0.157652 71 22 105
0.542234 0.285368 0.465390 68 1 84
-0.443542 0.389395 0.087393 68 1 84
0.389059 0.123793 -0.131899 61 187 116
-0.153148 -0.057701 -0.255925 32 164 133
0.632141 -0.125159 0.130478 43 116 142
-0.637721 -0.411435 0.283822 68 1 84
0.537354 0.206376 0.149724 68 1 84
0.664615 -0.311721 0.220716 69 8 91
0.397923 0.509422 0.243823 68 1 84
-0.355390 -0.119294 -0.154215 61 75 137
-0.027747 -0.156695 -0.433959 49 101 141
0.462215 -0.183932 -0.099124 31 147 139
0.565857 -0.465998 -0.019003 68 1 84
0.187722 -0.386962 -0.192656 68 1 84
-0.355523 0.473673 0.012233 68 1 84
0.321090 -0.109990 -0.165069 231 228 25
0.370418 0.536005 0.130153 68 1 84
-0.450440 -0.536702 -0.182418 68 1 84
-0.528322 0.277930 0.210205 68 1 84
0.648117 -0.106527 0.320647 69 54 129
-0.617995 -0.061807 0.389724 54 91 140
0.613835 0.064786 0.387079 68 1 84
-0.104026 0.062121 -0.251571 38 129 142
0.314587 -0.262858 -0.180836 49 101 141
-0.293772 -0.579429 -0.274563 68 1 84
-0.524007 -0.319893 0.003693 68 1 84
-0.665578 -0.488154 0.484837 68 1 84
0.380877 0.163611 -0.131501 50 98 141
-0.554045 0.227967 0.289366 69 5 88
0.075213 0.522470 -0.192439 68 1 84
0.352392 -0.241245 -0.157138 39 124 142
-0.563269 0.204431 0.495628 71 37 117
0.026066 -0.027537 -0.433477 175 220 46
-0.079977 0.192814 -0.297322 49 100 141
-0.132553 -0.265942 -0.243914 68 1 84
0.018584 -0.002827 -0.362819 114 207 85
-0.485071 -0.271504 -0.046044 68 1 84
0.126095 -0.215415 -0.234603 63 71 136
-0.541837 -0.252401 -0.001711 68 1 84
0.569930 0.085469 0.164891 64 68 135
-0.159885 -0.099369 -0.235635 31 149 139
0.006061 0.664132 -0.147859 68 1 84
0.383566 0.425919 0.014629 68 1 84
0.698765 -0.382773 0.476321 68 1 84
-0.480636 -0.124007 -0.094565 63 69 135
-0.494251 0.029901 -0.039622 72 26 108
-0.588970 -0.474087 0.084162 68 1 84
-0.295976 -0.086773 -0.171617 54 91 140
-0.116045 -0.277956 -0.267275 70 47 124
-0.476668 0.197854 0.009245 68 1 84
0.637499 -0.060734 0.551122 68 1 84
-0.467472 0.432016 0.329760 68 1 84
-0.577271 -0.164609 0.022218 68 1 84
0.275195 0.401217 -0.111437 68 1 84
0.525715 -0.238688 -0.033775 70 45 124
-0.258647 -0.097500 -0.179996 47 106 141
0.447552 -0.370664 -0.107989 68 1 84
-0.621165 -0.410794 0.178576 68 1 84
0.130897 -0.102112 -0.254800 37 171 129
0.626506 -0.126568 0.105488 35 135 141
-0.311550 -0.488577 -0.226297 68 1 84
0.197329 0.597470 -0.069893 68 1 84
0.544182 0.191737 0.160939 70 12 95
-0.593399 0.076284 0.366726 71 43 122
-0.091262 -0.125542 -0.387064 53 93 140
0.596485 0.136361 0.382731 68 1 84
0.450854 -0.483293 -0.197959 68 1 84
-0.179338 -0.188404 -0.208944 71 43 122
-0.059184 -0.208657 -0.386760 71 17 99
0.587360 0.126527 0.499751 68 1 84
0.051624 0.119326 -0.292553 43 116 142
0.277379 -0.176001 -0.165952 31 161 135
0.123883 -0.103295 -0.288716 83 197 103
0.572471 0.213417 0.405238 68 1 84
-0.622479 -0.074383 0.441804 54 90 140
0.474731 0.406540 0.191951 68 1 84
-0.573277 0.115405 0.569607 68 1 84
-0.613535 -0.336728 0.120318 68 1 84
-0.104772 -0.543461 -0.320000 68 1 84
0.637420 -0.416909 0.144701 68 1 84
-0.528590 -0.535781 -0.070117 68 1 84
-0.622096 -0.074249 0.485952 61 74 137
-0.035398 0.251200 -0.258609 68 1 84
0.324115 0.199102 -0.163497 57 85 139
0.042372 0.218644 -0.281204 72 28 110
-0.569318 0.171036 0.529880 67 59 131
0.679522 -0.285036 0.412882 68 1 84
0.258576 -0.310773 -0.184040 71 24 106
0.045228 0.258097 -0.255428 68 1 84
-0.628261 -0.119723 0.485496 59 81 138
-0.587295 -0.208802 0.045688 68 1 84
0.382145 0.443157 0.027443 68 1 84
-0.644150 -0.462107 0.344633 68 1 84
0.498523 -0.474950 -0.152758 68 1 84
-0.618609 -0.118149 0.221918 68 1 84
-0.235685 -0.550883 -0.288172 68 1 84
0.589036 0.149636 0.446706 68 1 84
0.552376 -0.057598 -0.020927 33 166 133
0.132675 0.505200 -0.162321 68 1 84
-0.501916 0.346392 0.205302 68 1 84
-0.592934 0.093268 0.467523 40 122 142
-0.333847 -0.593871 -0.256334 68 1 84
-0.650310 -0.295300 0.468172 68 1 84
0.297184 0.202882 -0.178892 54 90 140
-0.173284 0.221870 -0.226473 68 1 84
0.039648 -0.028073 -0.377191 100 203 93
0.701879 -0.403407 0.475796 68 1 84
-0.528827 0.310729 0.337139 68 1 84
-0.218719 0.145518 -0.214849 66 61 132
0.493849 -0.286035 -0.038869 68 1 84
-0.515712 -0.472942 -0.085167 68 1 84
-0.637130 -0.366542 0.242432 68 1 84
-0.583032 0.006051 0.198323 71 44 123
-0.534829 0.297815 0.410263 69 8 91
0.675826 -0.360654 0.291730 68 1 84
0.093226 0.268505 -0.231339 68 1 84
0.609051 -0.413660 0.070610 68 1 84
-0.654473 -0.333256 0.414081 70 12 95
-0.188534 -0.528763 -0.293889 68 1 84
0.669119 -0.211523 0.268694 59 80 138
0.599325 -0.428177 0.051771 68 1 84
0.596233 -0.389505 0.045762 68 1 84
-0.470582 -0.378053 -0.066146 68 1 84
-0.382779 -0.466953 -0.207093 68 1 84
0.142725 -0.514377 -0.310738 68 1 84
0.037123 0.535052 -0.206885 68 1 84
-0.574311 0.135592 0.282421 70 48 125
0.034050 0.522989 -0.208802 68 1 84
-0.649504 -0.259374 0.421440 72 25 107
0.453969 -0.483596 -0.196115 68 1 84
0.073789 0.121161 -0.278445 48 104 141
-0.639490 -0.287228 0.513433 68 1 84
0.059033 -0.136047 -0.394453 54 184 119
0.447361 0.378304 0.072836 68 1 84
0.459464 0.023538 -0.092074 79 195 105
0.080512 0.680185 -0.070525 68 1 84
0.480979 -0.298311 -0.045882 68 1 84
0.589030 0.008272 0.146205 43 115 142
0.670972 -0.264853 0.266948 64 68 135
0.307681 0.134048 -0.180671 30 151 138
-0.657119 -0.541685 0.400995 68 1 84
-0.243768 0.306987 -0.163226 68 1 84
0.017236 0.294310 -0.282704 68 1 84
0.209207 0.359175 -0.167595 68 1 84
-0.116821 0.089829 -0.251846 30 152 138
-0.652382 -0.313303 0.470520 68 1 84
-0.641467 -0.186510 0.354707 72 29 111
0.573201 0.043224 0.121784 33 142 140
0.332230 0.317112 -0.119671 68 1 84
0.052657 0.406095 -0.221470 68 1 84
0.489630 -0.363109 -0.061137 68 1 84
-0.590370 0.048516 0.299493 62 73 137
0.538972 0.014966 -0.006705 253 231 36
0.503927 0.282780 0.114779 68 1 84
0.605454 0.045229 0.292545 68 1 84
-0.536649 -0.180151 -0.033924 68 2 85
0.272547 0.597857 0.043964 68 1 84
-0.498958 0.372636 0.323417 68 1 84
0.446864 0.311413 0.021682 68 1 84
-0.597210 -0.445021 0.104782 68 1 84
0.597044 -0.366699 0.047820 68 1 84
-0.571009 0.053768 0.184292 68 1 84
-0.205763 0.419182 -0.156993 68 1 84
-0.181294 0.668618 -0.019204 68 1 84
-0.317095 0.510759 -0.016958 68 1 84
-0.427166 0.263493 -0.037680 68 1 84
-0.480002 -0.031535 -0.076864 59 81 138
-0.556032 -0.516361 -0.004013 68 1 84
0.475509 0.009519 -0.082106 31 161 135
-0.505311 0.359621 0.314707 68 1 84
-0.502521 -0.096040 -0.071196 51 97 141
-0.184757 -0.480065 -0.244971 68 1 84
0.423364 -0.236976 -0.105618 60 77 138
0.340770 0.313791 -0.114499 68 1 84
-0.403954 0.455216 0.074452 68 1 84
0.694479 -0.386597 0.414387 68 1 84
0.676627 -0.487126 0.299368 68 1 84
0.065135 -0.391358 -0.266913 68 1 84
0.482189 0.211602 0.019498 68 1 84
0.494808 -0.292325 -0.037062 68 1 84
0.608591 0.062538 0.334180 66 62 133
0.674892 -0.214145 0.353734 72 26 108
0.188321 -0.353796 -0.172328 68 1 84
0.017047 0.553029 -0.208944 68 1 84
-0.156885 0.019640 -0.209422 41 120 142
0.111680 -0.233940 -0.249132 60 78 138
-0.533312 0.295880 0.313658 68 1 84
-0.498107 0.170678 0.035589 68 1 84
0.203418 0.653575 0.071485 68 1 84
0.084145 0.224226 -0.264256 69 50 127
-0.317734 -0.058425 -0.170105 43 115 142
-0.164875 0.448542 -0.173946 68 1 84
-0.334639 0.251657 -0.136127 68 1 84
-0.103645 0.420706 -0.204097 68 1 84
-0.458195 0.433549 0.194637 68 1 84
-0.066620 0.466796 -0.211613 68 1 84
0.273102 -0.256886 -0.181792 42 117 142
-0.128097 -0.023750 -0.333101 35 168 131
0.215945 0.541346 -0.084140 68 1 84
-0.599384 0.023214 0.342200 61 75 137
-0.092868 0.339849 -0.254929 68 1 84
0.447045 0.435667 0.141930 68 1 84
-0.644238 -0.301912 0.502686 68 1 84
0.543757 -0.126609 -0.043219 33 141 140
-0.124500 -0.073780 -0.375625 39 126 142
0.616290 -0.012736 0.276047 71 37 117
-0.366648 0.426552 -0.006144 68 1 84
0.037435 0.125278 -0.302692 40 123 142
-0.563038 0.038959 0.113600 71 39 119
-0.294728 -0.371644 -0.169864 68 1 84
-0.600849 -0.006852 0.319255 68 55 129
-0.095845 -0.154519 -0.362935 62 72 136
-0.299695 -0.352246 -0.171067 68 1 84
-0.480205 0.146347 -0.013423 68 1 84
0.702436 -0.442393 0.411005 68 1 84
-0.090476 -0.343675 -0.268354 68 1 84
0.540639 -0.121413 -0.046644 32 144 140
-0.644823 -0.292446 0.252930 68 1 84
0.051392 0.026839 -0.303900 66 190 113
-0.519601 0.155851 0.079266 68 1 84
-0.042736 0.434449 -0.214166 68 1 84
0.544412 -0.378646 -0.017906 68 1 84
-0.127166 -0.038862 -0.360678 37 130 142
-0.562939 0.227118 0.432911 58 83 139
-0.226368 -0.261742 -0.170835 68 1 84
0.439643 0.449943 0.336381 68 1 84
-0.646377 -0.216768 0.327534 70 12 95
-0.547127 0.127315 0.148828 71 20 102
0.046404 0.163701 -0.308262 30 153 138
0.370585 0.236593 -0.119436 69 6 90
-0.013523 -0.243847 -0.382703 71 44 123
-0.079867 0.081295 -0.279878 31 161 135
0.246587 0.274122 -0.188077 54 91 140
-0.462704 -0.407943 -0.102385 68 1 84
-0.354478 0.050160 -0.155600 58 83 139
0.380896 0.121680 -0.138419 31 148 139
-0.139500 -0.003579 -0.303148 30 159 136
-0.305867 -0.173757 -0.159372 68 2 85
0.641589 -0.069488 0.361907 71 44 123
0.055849 -0.465121 -0.298801 68 1 84
0.076533 -0.268573 -0.290562 71 42 121
0.310725 0.273728 -0.151532 68 1 84
0.297560 0.368218 -0.118001 68 1 84
-0.482945 -0.329345 -0.030693 68 1 84
0.645988 -0.360454 0.157419 68 1 84
0.449202 0.295465 0.014921 68 1 84
-0.198419 -0.066645 -0.200800 46 107 142
-0.425279 0.340438 0.011587 68 1 84
-0.481564 -0.335447 -0.032208 68 1 84
-0.477869 -0.449392 -0.121298 68 1 84
0.315587 0.587857 0.152358 68 1 84
0.301619 0.152542 -0.182547 33 142 140
-0.634413 -0.256028 0.548774 68 1 84
-0.135666 -0.072413 -0.357262 57 85 139
-0.193697 0.650931 -0.068000 68 1 84
0.305317 0.118906 -0.183077 30 156 137
-0.191809 -0.461446 -0.222746 68 1 84
-0.068313 0.444022 -0.209581 68 1 84
0.117486 0.323619 -0.229701 68 1 84
-0.639728 -0.366699 0.268152 68 1 84
-0.104441 0.003140 -0.296087 35 169 130
0.583572 -0.040725 0.045939 56 185 118
0.622170 0.013612 0.353361 71 22 105
-0.444098 0.155539 -0.062121 69 52 127
0.253307 -0.281085 -0.187065 69 53 128
0.588825 -0.112984 0.018396 42 117 142
0.580383 0.058683 0.183888 62 72 136
0.403890 0.176358 -0.107561 49 100 141
-0.626105 -0.153549 0.198323 69 6 90
-0.342948 -0.311894 -0.166900 68 1 84
0.178183 0.645035 -0.032171 68 1 84
-0.436433 0.465652 0.352461 68 1 84
-0.594829 -0.103479 0.078175 71 15 98
0.088967 -0.197875 -0.306576 47 106 141
-0.169441 -0.391155 -0.180424 68 1 84
0.495768 0.224867 0.056664 70 11 94
-0.269530 0.630773 0.071167 68 1 84
-0.213026 0.607726 -0.102192 68 1 84
-0.082444 0.213265 -0.271132 68 1 84
0.019228 0.417408 -0.218411 68 1 84
-0.459057 0.287868 0.033870 68 1 84
0.545409 0.280802 0.453500 68 1 84
0.121599 -0.107759 -0.289430 41 175 127
0.226350 0.448106 -0.115836 68 1 84
-0.124350 0.423230 -0.196851 68 1 84
0.673569 -0.220774 0.384722 71 17 99
-0.218828 0.375101 -0.165234 68 1 84
-0.392777 0.434634 0.037198 68 1 84
0.485395 -0.244371 -0.058568 68 1 84
0.259520 0.154524 -0.202786 54 184 119
0.666441 -0.247593 0.222607 57 84 139
-0.652639 -0.517834 0.391627 68 1 84
-0.243162 -0.304630 -0.177227 68 1 84
0.584433 0.171935 0.423970 68 1 84
-0.369096 -0.581403 -0.235977 68 1 84
0.633893 -0.120995 0.145338 51 97 141
-0.299698 -0.364731 -0.169631 68 1 84
-0.506074 0.150147 0.039082 68 1 84
-0.056882 -0.155256 -0.416937 58 82 139
-0.173165 -0.013830 -0.202368 40 123 142
-0.449865 0.369179 0.081356 68 1 84
0.598459 0.014078 0.216381 65 65 134
0.574710 0.158325 0.248653 68 1 84
0.356320 0.400656 -0.041397 68 1 84
-0.123220 0.088902 -0.247554 34 139 141
-0.374491 -0.236176 -0.135985 68 1 84
-0.602745 -0.135921 0.084232 68 1 84
-0.641426 -0.186416 0.356395 72 30 112
0.396307 0.025199 -0.137451 124 210 79
-0.579544 -0.067401 0.056570 71 42 121
0.361033 0.549581 0.212644 68 1 84
0.278612 0.368054 -0.129998 68 1 84
-0.374280 -0.063102 -0.151828 52 95 141
-0.141698 0.679044 -0.063696 68 1 84
-0.633008 -0.189608 0.530918 69 5 88
0.587333 0.104549 0.258558 68 1 84
-0.649621 -0.396684 0.387283 68 1 84
0.399747 -0.082331 -0.145616 173 220 48
-0.137695 -0.434590 -0.223388 68 1 84
-0.586547 0.068298 0.294196 67 58 131
0.653493 -0.476305 0.219583 68 1 84
0.415748 0.215644 -0.081257 55 88 140
0.316594 0.037995 -0.178836 210 225 27
-0.179388 0.090590 -0.220551 41 121 142
0.589496 -0.112810 0.019719 42 118 142
-0.123491 -0.204035 -0.297905 69 54 129
-0.598021 0.053399 0.522438 61 75 137
-0.035108 0.433473 -0.214742 68 1 84
0.623578 0.000516 0.342785 68 1 84
-0.472674 0.157427 -0.020231 70 11 94
0.111934 0.266908 -0.217132 68 1 84
-0.576464 0.134796 0.302281 71 21 103
-0.350979 0.543360 0.069344 68 1 84
-0.306540 0.551592 -0.003982 68 1 84
-0.431011 0.214259 -0.055198 68 1 84
0.585181 0.167754 0.333562 68 1 84
-0.510866 0.141569 0.044142 68 1 84
0.348777 0.547389 0.096885 68 1 84
0.059578 -0.187200 -0.362364 31 150 139
0.148658 0.140541 -0.243277 46 109 142
0.600355 -0.117292 0.040073 42 117 142
0.007054 0.512983 -0.215414 68 1 84
0.459952 -0.460097 -0.180848 68 1 84
0.427137 0.009247 -0.120252 124 210 79
-0.102457 -0.379791 -0.228036 68 1 84
-0.668124 -0.382124 0.451613 68 1 84
0.468760 0.407026 0.164003 68 1 84
0.611356 -0.071174 0.106571 38 127 142
0.656387 -0.159334 0.238906 66 64 133
-0.548545 -0.230173 -0.003346 68 1 84
0.288802 -0.399883 -0.222990 68 1 84
0.366900 0.397268 -0.031650 68 1 84
0.663447 -0.184438 0.252436 62 73 137
0.056964 -0.195103 -0.361960 35 137 141
0.636846 -0.527152 0.159842 68 1 84
-0.620250 -0.348554 0.142518 68 1 84
-0.555628 0.172085 0.218019 69 50 127
-0.580674 0.098350 0.555362 68 1 84
-0.639048 -0.506906 0.303775 68 1 84
-0.127558 0.219638 -0.246101 68 1 84
0.410645 -0.466830 -0.209820 68 1 84
-0.378469 -0.393383 -0.169524 68 1 84
-0.409082 0.234573 -0.074862 68 1 84
0.280895 0.042814 -0.192306 50 181 122
-0.432583 0.074827 -0.096161 70 45 124
0.155966 -0.459277 -0.249765 68 1 84
-0.617003 -0.400189 0.155553 68 1 84
-0.035617 -0.086356 -0.473833 68 190 112
-0.153112 0.420683 -0.185924 68 1 84
-0.511080 0.102203 0.019370 71 17 99
-0.127128 -0.098772 -0.350755 65 66 134
-0.206666 -0.539381 -0.292950 68 1 84
-0.445719 -0.474466 -0.167941 68 1 84
0.079939 -0.263907 -0.287106 71 38 118
-0.461051 0.304906 0.049793 68 1 84
0.460777 0.352622 0.077083 68 1 84
0.701937 -0.485132 0.380111 68 1 84
0.436444 0.002511 -0.115269 129 211 76
-0.226250 -0.444778 -0.207800 68 1 84
0.513690 0.192608 0.075017 66 61 132
0.416466 -0.397049 -0.178142 68 1 84
0.425738 -0.380836 -0.151158 68 1 84
0.015536 -0.451369 -0.302300 68 1 84
0.005038 0.385936 -0.233116 68 1 84
-0.094911 0.233827 -0.237775 68 1 84
0.455004 -0.272705 -0.072170 69 6 90
-0.319499 -0.464078 -0.224116 68 1 84
-0.247327 0.594678 -0.066627 68 1 84
0.086352 -0.471949 -0.296459 68 1 84
0.458147 0.026549 -0.092315 68 190 112
-0.169413 0.287918 -0.205536 68 1 84
0.049029 0.157280 -0.304984 42 117 142
0.089318 0.263530 -0.231677 68 1 84
-0.366300 -0.156591 -0.148700 71 24 106
-0.025517 -0.003072 -0.400459 107 205 89
-0.051773 -0.158203 -0.419404 63 69 135
0.164116 0.188359 -0.240464 30 153 138
-0.618538 -0.349774 0.137796 68 1 84
-0.078510 0.631440 -0.174327 68 1 84
0.592441 0.141300 0.438979 68 1 84
-0.661158 -0.596518 0.445579 68 1 84
0.518770 -0.124369 -0.067896 30 158 136
0.310456 -0.022302 -0.178249 212 225 26
-0.542333 -0.465376 -0.025833 68 1 84
0.038101 0.053744 -0.304027 79 195 105
0.235595 0.506348 -0.080586 68 1 84
-0.437716 0.236003 -0.035716 68 1 84
-0.634314 -0.255112 0.546298 68 1 84
-0.589413 0.056988 0.302407 61 75 137
-0.133920 -0.081493 -0.355187 45 110 142
-0.607595 -0.021192 0.580898 71 24 106
0.106613 -0.235826 -0.256534 70 49 126
0.668490 -0.402991 0.270043 68 1 84
0.596305 -0.044244 0.081503 30 159 136
0.156401 -0.526566 -0.310504 68 1 84
-0.082008 0.528340 -0.209127 68 1 84
0.408277 0.500509 0.171393 68 1 84
0.665855 -0.475358 0.266612 68 1 84
0.522428 0.109138 0.025962 35 136 141
0.639994 -0.313352 0.125547 68 1 84
-0.408804 0.490598 0.124015 68 1 84
0.441952 -0.079976 -0.124784 57 185 118
0.377336 0.108833 -0.142667 31 163 134
0.249474 0.483255 -0.080584 68 1 84
0.718228 -0.536089 0.443571 68 1 84
-0.592321 -0.049506 0.133238 72 30 112
0.685752 -0.309163 0.481644 68 2 85
0.605501 -0.058176 0.098793 33 141 140
0.517362 -0.353527 -0.029437 68 1 84
-0.100453 -0.372727 -0.231278 68 1 84
-0.489072 0.350605 0.158514 68 1 84
-0.471399 -0.030431 -0.084867 55 89 140
-0.559355 0.227679 0.358261 55 89 140
-0.437526 -0.359549 -0.080938 68 1 84
0.320479 0.385717 -0.089074 68 1 84
0.112247 -0.456743 -0.270203 68 1 84
-0.511280 -0.532826 -0.105167 68 1 84
0.042654 -0.358847 -0.293128 68 1 84
-0.207998 0.458083 -0.145976 68 1 84
-0.000965 -0.347588 -0.322192 68 3 87
-0.665298 -0.492621 0.482359 68 1 84
-0.120194 0.389875 -0.211466 68 1 84
-0.578681 0.156175 0.517561 58 83 139
-0.518385 0.324269 0.263723 68 1 84
-0.544003 -0.107691 -0.026752 71 38 118
-0.157612 -0.430439 -0.206615 68 1 84
0.393662 -0.516687 -0.238362 68 1 84
0.018210 0.686658 -0.105131 68 1 84
-0.441252 0.132586 -0.073593 66 61 132
-0.000282 0.682754 -0.118450 68 1 84
0.097972 0.666320 -0.093043 68 1 84
-0.595073 0.070933 0.516460 54 90 140
-0.543163 0.082257 0.085872 71 44 123
0.217015 0.034760 -0.205808 91 200 98
0.108373 -0.093618 -0.354157 89 199 100
0.188572 -0.263408 -0.175359 70 47 124
0.445074 0.386226 0.075723 68 1 84
-0.625505 -0.134874 0.264757 71 38 118
0.668121 -0.412982 0.270175 68 1 84
0.179382 0.168747 -0.233714 45 110 142
-0.605575 -0.143601 0.089039 68 1 84
0.688748 -0.436648 0.350009 68 1 84
0.027480 0.449726 -0.210920 68 1 84
-0.477261 -0.385457 -0.065512 68 1 84
-0.607610 0.021468 0.476884 42 117 142
-0.579014 -0.014313 0.112443 64 68 135
-0.192944 0.119802 -0.222528 49 102 141
0.190077 0.659109 0.056304 68 1 84
-0.584586 -0.560534 0.080036 68 1 84
-0.568836 0.175020 0.302259 72 28 110
-0.559500 -0.324511 0.035651 68 1 84
-0.162694 -0.484328 -0.262375 68 1 84
-0.306799 -0.288426 -0.173631 68 1 84
-0.067190 -0.002270 -0.323169 38 172 129
0.571235 0.220746 0.340565 68 1 84
-0.504276 0.082684 -0.003480 68 1 84
0.621499 -0.136272 0.083653 51 96 141
-0.429800 0.349177 0.026760 68 1 84
-0.637178 -0.535324 0.294889 68 1 84
-0.649911 -0.270119 0.332146 68 1 84
-0.035203 0.182920 -0.315060 42 118 142
0.318489 -0.316742 -0.179625 72 30 112
-0.432979 -0.239847 -0.099671 68 1 84
-0.464122 -0.352561 -0.053545 68 1 84
0.208491 -0.442935 -0.223923 68 1 84
0.348844 0.226302 -0.140087 70 49 126
0.463424 0.213043 -0.014968 53 93 140
-0.185539 -0.185294 -0.202442 72 25 107
0.316393 0.584170 0.117725 68 1 84
-0.130276 -0.457353 -0.257844 68 1 84
0.632286 -0.555908 0.139692 68 1 84
-0.358433 0.571093 0.175608 68 1 84
0.371782 0.422156 -0.003734 68 1 84
-0.518171 -0.503602 -0.092140 68 1 84
0.499537 -0.034571 -0.073125 44 114 142
-0.451538 -0.246284 -0.084276 68 1 84
-0.312078 0.511244 -0.023598 68 1 84
-0.583281 0.145272 0.449153 50 99 141
-0.195890 -0.366133 -0.163210 68 1 84
0.538738 0.305192 0.320817 68 1 84
0.023746 -0.509339 -0.319329 68 1 84
0.656244 -0.322144 0.184748 72 25 107
0.358444 0.206347 -0.138051 61 76 137
-0.570670 -0.225177 0.023759 68 1 84
-0.335692 -0.465953 -0.223037 68 1 84
-0.529244 -0.452751 -0.045601 68 1 84
-0.362869 0.426551 -0.011169 68 1 84
-0.241666 0.250184 -0.182269 68 1 84
-0.288186 -0.378739 -0.170276 68 1 84
0.692954 -0.417651 0.377906 68 1 84
0.494147 0.380236 0.229026 68 1 84
-0.268878 0.616559 0.009785 68 1 84
-0.217908 0.333807 -0.174629 68 1 84
0.575374 0.142347 0.531272 68 1 84
-0.326333 0.527407 0.008324 68 1 84
-0.374513 -0.422990 -0.212219 68 1 84
0.576058 -0.482827 0.004829 68 1 84
0.652583 -0.140061 0.434271 68 1 84
-0.086798 -0.028062 -0.337523 35 168 131
-0.228203 0.048043 -0.197322 48 103 141
0.496180 -0.307077 -0.034411 68 1 84
-0.095892 -0.208422 -0.342736 70 12 95
0.078483 -0.380613 -0.244572 68 1 84
-0.139716 -0.415721 -0.202892 68 1 84
0.321352 0.504386 0.003732 68 1 84
-0.517941 0.038659 -0.002283 72 32 113
0.122087 0.501380 -0.169616 68 1 84
0.315849 -0.238580 -0.169343 56 86 139
-0.512866 0.339555 0.274780 68 1 84
0.660149 -0.550400 0.238453 68 1 84
0.494808 -0.035625 -0.077592 36 134 141
0.214285 -0.423918 -0.212706 68 1 84
-0.154774 -0.040557 -0.268888 57 185 118
-0.415896 -0.364112 -0.101688 68 1 84
-0.595288 0.033243 0.554918 67 59 131
0.515281 0.176349 0.065765 69 53 128
0.178544 0.359942 -0.183351 68 1 84
0.196855 0.096192 -0.216255 36 170 130
-0.572977 0.076216 0.219640 71 38 118
-0.037698 -0.233199 -0.386002 72 34 115
-0.617544 -0.535705 0.192345 68 1 84
-0.561800 0.004879 0.067935 71 43 122
0.565172 0.211252 0.263469 68 1 84
-0.056585 0.664949 -0.146594 68 1 84
0.665840 -0.565054 0.253236 68 1 84
0.495944 -0.009983 -0.069151 56 185 118
0.526613 0.271754 0.173134 68 1 84
0.537016 -0.473889 -0.091909 68 1 84
0.526091 0.149265 0.070488 61 75 137
0.585070 -0.514298 0.025036 68 1 84
0.570778 0.208224 0.294877 68 1 84
-0.287649 0.364755 -0.123403 68 1 84
0.097349 -0.344225 -0.208317 68 1 84
-0.014646 0.506881 -0.217921 68 1 84
-0.620940 -0.516262 0.206614 68 1 84
-0.644597 -0.209396 0.303276 71 15 98
-0.312700 0.530285 -0.011551 68 1 84
0.636898 -0.053702 0.468793 72 34 115
-0.339613 0.213126 -0.141745 68 1 84
0.358448 -0.116195 -0.158090 165 218 53
0.510250 -0.538947 -0.137963 68 1 84
-0.644263 -0.248480 0.245137 68 1 84
-0.643436 -0.448999 0.345830 68 1 84
-0.320303 0.424553 -0.063202 68 1 84
-0.150465 -0.027017 -0.239872 35 169 130
-0.523548 0.106614 0.050020 68 1 84
0.469406 -0.464442 -0.176121 68 1 84
0.342082 0.194301 -0.152893 72 33 114
0.376948 0.169499 -0.133250 42 119 142
0.341705 0.073695 -0.166201 94 201 97
-0.068400 -0.508761 -0.319331 68 1 84
0.660258 -0.165805 0.521218 68 1 84
-0.370716 0.356792 -0.054133 68 1 84
-0.541222 0.143287 0.141182 68 1 84
-0.146032 -0.215220 -0.251927 61 74 137
-0.009065 -0.118191 -0.462360 54 184 119
0.449384 -0.094958 -0.121215 75 194 108
-0.277108 0.626866 0.082967 68 1 84
-0.627378 -0.515071 0.243078 68 1 84
-0.135743 -0.254429 -0.246742 68 1 84
-0.126872 -0.204032 -0.291879 71 43 122
-0.422458 -0.433320 -0.173903 68 1 84
0.022724 0.379255 -0.239899 68 1 84
-0.523402 -0.364321 -0.000031 68 1 84
0.526921 0.327643 0.392108 68 1 84
-0.627003 -0.218656 0.140614 68 1 84
-0.180527 -0.202687 -0.202559 71 43 122
-0.616526 -0.416287 0.160821 68 1 84
0.578757 0.108294 0.222044 70 12 95
0.495916 0.295409 0.106080 68 1 84
-0.660873 -0.357352 0.432994 68 1 84
0.522936 0.140280 0.054098 44 112 142
0.496385 0.069161 -0.038544 114 207 85
0.217754 -0.091417 -0.190048 73 193 109
0.694279 -0.520564 0.339981 68 1 84
0.311283 0.019149 -0.180479 141 214 68
-0.581106 0.154166 0.481575 55 89 140
0.209221 -0.305674 -0.175872 71 22 105
0.676993 -0.229673 0.355964 70 47 124
0.597217 -0.101728 0.039111 40 122 142
0.691164 -0.398106 0.379490 68 1 84
0.409092 0.327620 -0.027664 68 2 85
-0.166474 -0.010750 -0.204459 58 83 139
0.513046 -0.212573 -0.053138 61 75 137
0.150368 -0.218820 -0.203259 68 55 129
0.436463 -0.366559 -0.114646 68 1 84
0.635823 -0.048502 0.464421 71 43 122
0.350379 0.560780 0.174163 68 1 84
0.650130 -0.112917 0.446218 68 1 84
-0.180530 -0.494801 -0.264058 68 1 84
0.664197 -0.216442 0.488939 68 1 84
-0.394376 0.495844 0.097828 68 1 84
0.709181 -0.443985 0.472358 68 1 84
0.488455 0.392903 0.306233 68 1 84
0.513991 -0.226919 -0.046693 67 58 131
-0.458478 -0.429724 -0.127725 68 1 84
-0.300608 -0.507297 -0.233995 68 1 84
0.569585 -0.423893 -0.003026 68 1 84
0.379274 0.168010 -0.131760 37 130 142
0.596656 -0.001766 0.175014 40 122 142
0.271466 0.615572 0.108266 68 1 84
-0.501953 -0.177738 -0.071883 71 40 120
0.280712 -0.069944 -0.179272 131 211 75
0.303007 -0.446834 -0.232062 68 1 84
-0.452060 0.452713 0.245536 68 1 84
0.540705 0.295362 0.433816 68 1 84
0.085232 -0.429489 -0.262918 68 1 84
-0.100915 -0.043419 -0.398463 43 177 125
0.681882 -0.292453 0.341537 72 28 110
0.679438 -0.376640 0.315971 68 1 84
0.691161 -0.364577 0.413200 68 1 84
-0.118869 0.543312 -0.194933 68 1 84
0.477650 0.299688 0.070358 68 1 84
0.641831 -0.094787 0.291153 58 82 139
0.522734 -0.082137 -0.061292 109 206 88
0.004169 0.202471 -0.310941 36 132 141
-0.222525 0.118047 -0.209967 59 81 138
0.277347 0.447238 -0.079187 68 1 84
-0.300208 0.572512 0.006749 68 1 84
-0.608497 -0.517174 0.154432 68 1 84
-0.362210 -0.565910 -0.237509 68 1 84
0.686461 -0.330939 0.417224 68 1 84
-0.142536 -0.432185 -0.216861 68 1 84
-0.141730 -0.023179 -0.327532 31 149 139
0.194997 -0.110631 -0.196032 42 119 142
-0.562832 -0.509949 0.015147 68 1 84
-0.068484 -0.256852 -0.354655 68 1 84
0.587118 -0.440286 0.028284 68 1 84
-0.647893 -0.314215 0.319490 68 1 84
0.592189 0.055682 0.235703 68 1 84
-0.603919 -0.554393 0.141501 68 1 84
-0.500400 0.380996 0.442067 68 1 84
0.605981 0.022507 0.267089 68 1 84
-0.655018 -0.486783 0.424055 68 1 84
0.094454 -0.033024 -0.353365 202 224 30
-0.231710 -0.265157 -0.171508 68 1 84
-0.572585 0.174808 0.352244 62 73 137
0.161465 -0.043506 -0.212190 46 178 124
0.522077 0.276198 0.161939 68 1 84
0.213157 -0.343914 -0.172340 68 1 84
0.555134 0.156462 0.170655 70 11 94
0.662438 -0.208479 0.491209 68 1 84
0.160121 -0.419168 -0.209378 68 1 84
0.306048 0.496614 -0.019875 68 1 84
0.633037 -0.035730 0.460427 71 21 103
-0.577674 -0.384745 0.062097 68 1 84
-0.471780 -0.196074 -0.091929 68 1 84
-0.470982 -0.326421 -0.041184 68 1 84
0.010616 0.005022 -0.365385 83 197 103
-0.421916 -0.388929 -0.127623 68 1 84
-0.517121 0.012224 -0.016204 68 1 84
0.335831 0.228899 -0.148620 66 61 132
0.084916 0.105389 -0.266372 42 118 142
-0.620390 -0.090865 0.358949 67 58 131
0.651911 -0.343426 0.174372 68 1 84
-0.291658 0.131717 -0.183689 65 66 134
-0.310323 0.606022 0.099935 68 1 84
0.582142 0.011808 0.109103 35 168 131
0.565453 -0.308751 0.011155 68 2 85
-0.147912 -0.006089 -0.287702 30 151 138
-0.044716 0.350599 -0.258422 68 1 84
-0.005716 -0.143434 -0.443552 48 180 122
-0.307449 0.586606 0.042670 68 1 84
-0.332034 0.384045 -0.076867 68 1 84
-0.593898 -0.046991 0.155469 70 14 97
-0.068981 0.157758 -0.306524 43 177 125
0.523663 -0.434652 -0.094842 68 1 84
0.526812 0.209576 0.120834 68 1 84
-0.622266 -0.073815 0.467467 60 78 138
0.309556 -0.332888 -0.176540 68 1 84
-0.448629 -0.363122 -0.073288 68 1 84
-0.294439 -0.501680 -0.232779 68 1 84
0.491876 0.313223 0.110243 68 1 84
-0.504360 0.090481 0.000443 68 1 84
0.612522 -0.430571 0.079941 68 1 84
-0.531143 0.008336 0.003650 72 32 113
0.627257 -0.363773 0.103277 68 1 84
-0.661955 -0.485419 0.458159 68 1 84
-0.522539 0.215361 0.133252 68 1 84
0.385904 0.383085 -0.018859 68 1 84
-0.623483 -0.081598 0.442504 57 85 139
-0.601046 -0.432607 0.113927 68 1 84
-0.654515 -0.548937 0.351401 68 1 84
-0.266821 -0.144487 -0.169902 69 53 128
-0.028081 0.187228 -0.315571 37 130 142
0.446731 0.433801 0.137160 68 1 84
-0.333372 0.519576 0.013133 68 1 84
0.211955 -0.073615 -0.195002 75 194 108
-0.186421 0.359929 -0.190062 68 1 84
-0.603738 -0.166563 0.077196 68 1 84
0.182435 0.354246 -0.182374 68 1 84
0.699105 -0.466973 0.377964 68 1 84
-0.154257 0.518347 -0.177862 68 1 84
0.109912 -0.112645 -0.326988 83 197 103
-0.633938 -0.590732 0.274714 68 1 84
0.311758 0.069391 -0.181080 59 186 117
-0.666339 -0.479822 0.492986 68 1 84
-0.030262 0.551110 -0.213151 68 1 84
0.632296 -0.041892 0.480360 68 1 84
-0.579422 -0.062275 0.059991 65 65 134
-0.651730 -0.386102 0.391008 68 1 84
0.620981 -0.367891 0.090141 68 1 84
0.571118 0.211209 0.306027 68 1 84
-0.468172 -0.287511 -0.054416 68 1 84
-0.347879 0.426836 -0.030358 68 1 84
0.132166 -0.497912 -0.303810 68 1 84
-0.567939 -0.206068 0.014630 68 1 84
-0.149292 -0.107953 -0.267155 42 117 142
-0.264569 0.367162 -0.138319 68 1 84
-0.114593 0.655389 -0.142230 68 1 84
-0.600339 -0.213690 0.069407 68 1 84
0.409945 -0.164883 -0.131848 30 158 136
-0.201925 0.214986 -0.215779 68 1 84
-0.577463 0.144805 0.331001 72 35 116
-0.054550 0.186882 -0.310649 43 115 142
0.460363 0.432046 0.294561 68 1 84
-0.004071 0.298185 -0.283586 68 1 84
-0.639830 -0.178296 0.380635 63 71 136
0.550213 0.265466 0.269595 68 1 84
-0.432006 0.485085 0.279893 68 1 84
0.094862 0.305224 -0.248464 68 1 84
-0.295763 0.356941 -0.121515 68 1 84
-0.544495 0.232986 0.528816 68 1 84
0.305795 0.316741 -0.138065 68 1 84
0.275510 0.305788 -0.161342 68 1 84
-0.623060 -0.492225 0.216208 68 1 84
-0.588526 0.104447 0.368624 70 47 124
0.635337 -0.096325 0.223137 71 44 123
-0.581938 0.058340 0.251782 67 58 131
-0.442558 0.026761 -0.096177 68 57 130
0.486048 0.377788 0.173015 68 1 84
0.262538 0.010922 -0.194980 121 209 81
0.035705 -0.050890 -0.453112 139 213 70
0.436133 -0.369639 -0.119355 68 1 84
0.072629 0.135051 -0.282877 44 112 142
0.221884 0.053538 -0.207447 85 198 102
-0.367871 -0.002558 -0.152671 47 105 141
0.636773 -0.111134 0.191800 51 97 141
-0.417922 -0.254518 -0.107173 68 1 84
0.499184 -0.343444 -0.039525 68 1 84
-0.013487 0.660042 -0.153231 68 1 84
-0.145897 -0.144321 -0.276482 36 132 141
-0.224350 0.330871 -0.171019 68 1 84
0.013902 0.512168 -0.214142 68 1 84
0.475953 -0.369323 -0.079773 68 1 84
0.412471 0.224313 -0.081165 54 90 140
-0.389102 0.051558 -0.134261 64 67 135
0.670588 -0.423494 0.281117 68 1 84
0.566771 0.232979 0.325291 68 1 84
0.150394 0.409077 -0.183211 68 1 84
0.143609 0.115380 -0.239380 46 107 142
-0.569968 -0.423044 0.045851 68 1 84
-0.595789 0.080004 0.434251 55 89 140
0.288080 0.606931 0.148005 68 1 84
0.638212 -0.061351 0.509658 68 1 84
0.123709 -0.144638 -0.261108 30 155 137
0.316760 -0.329292 -0.176487 72 32 113
-0.542982 0.061637 0.064251 68 1 84
-0.133378 0.667029 -0.110113 68 1 84
-0.264876 0.290371 -0.160474 68 1 84
-0.043479 0.181255 -0.314123 37 131 141
-0.431321 0.157569 -0.076677 69 52 127
-0.551299 0.218283 0.245776 68 1 84
0.573230 0.196433 0.289693 68 1 84
0.307601 0.231355 -0.166272 71 24 106
0.520653 -0.495044 -0.124559 68 1 84
-0.045358 -0.008444 -0.363731 77 194 107
0.539821 0.286790 0.478045 68 1 84
-0.233146 -0.464157 -0.217724 68 1 84
-0.641782 -0.414825 0.318604 68 1 84
-0.480153 0.179043 0.004278 68 1 84
0.061460 0.213681 -0.284359 41 121 142
0.406467 0.439179 0.059397 68 1 84
0.559004 -0.112338 -0.024951 31 149 139
-0.100897 0.484635 -0.202231 68 1 84
-0.593690 0.086696 0.487445 39 124 142
-0.617106 -0.123331 0.174437 68 1 84
0.353259 0.164707 -0.151093 54 91 140
0.218904 0.493523 -0.101145 68 1 84
0.098033 0.324714 -0.245875 68 1 84
-0.632091 -0.162399 0.494768 63 71 136
-0.227513 0.127857 -0.209205 64 68 135
0.596635 -0.272277 0.036762 70 9 92
-0.642826 -0.532106 0.313875 68 1 84
0.364623 0.252060 -0.118976 68 1 84
-0.527517 0.281907 0.213075 68 1 84
0.588391 0.075039 0.237411 70 11 94
0.288183 0.340521 -0.138396 68 1 84
-0.227651 -0.462073 -0.216991 68 1 84
0.512208 0.356073 0.307553 68 1 84
0.101371 0.264425 -0.223482 68 1 84
0.052833 0.441836 -0.207731 68 1 84
0.618650 -0.014738 0.288048 71 21 103
-0.282951 -0.030670 -0.181772 45 111 142
-0.632050 -0.156877 0.478014 68 55 129
-0.095669 -0.128031 -0.376865 46 107 142
0.640334 -0.048093 0.408755 71 43 122
-0.298712 -0.011041 -0.179217 45 110 142
0.644596 -0.079754 0.470972 68 1 84
0.031358 0.339830 -0.271826 68 1 84
0.216545 0.475488 -0.110154 68 1 84
-0.493675 0.109881 -0.008306 71 22 105
-0.215968 -0.201689 -0.177792 69 53 128
-0.186944 -0.178914 -0.203192 71 21 103
-0.433416 -0.323918 -0.083508 68 1 84
0.410361 0.497592 0.235574 68 1 84
-0.166837 0.132570 -0.237824 51 96 141
-0.262744 -0.053649 -0.184625 39 125 142
0.470719 0.373965 0.119281 68 1 84
-0.008895 0.234193 -0.270111 68 1 84
0.038239 0.412962 -0.219048 68 1 84
-0.368719 0.548373 0.119847 68 1 84
0.566608 0.087284 0.152370 49 100 141
-0.643169 -0.197984 0.371229 66 61 132
0.052024 0.062168 -0.284929 44 112 142
-0.043775 0.024556 -0.335614 81 196 104
0.514240 0.342221 0.446855 68 1 84
0.573185 0.212347 0.326012 68 1 84
0.574830 -0.173833 -0.004408 59 81 138
0.183134 0.127925 -0.226657 54 184 119
-0.159698 0.675644 -0.033970 68 1 84
0.317343 -0.421190 -0.235426 70 14 97
-0.517191 0.168151 0.082343 68 1 84
0.004382 -0.369768 -0.310911 68 1 84
0.071515 0.516097 -0.194602 68 1 84
-0.499921 0.370883 0.368737 68 1 84
0.162590 0.446486 -0.158784 68 1 84
-0.026108 -0.419091 -0.304598 68 1 84
-0.252824 0.330480 -0.155183 68 1 84
-0.129972 -0.116819 -0.324468 58 83 139
0.612503 -0.394695 0.076062 68 1 84
0.581469 -0.129760 0.003768 50 99 141
-0.247004 0.166757 -0.202525 63 71 136
0.222023 -0.413853 -0.208974 68 1 84
0.529204 -0.432583 -0.083594 68 1 84
0.588880 0.069906 0.234661 69 8 91
-0.387768 -0.403778 -0.185791 68 1 84
-0.637762 -0.237571 0.194802 68 1 84
-0.378141 -0.254496 -0.133786 72 35 116
-0.521741 -0.506489 -0.085167 68 1 84
0.590109 0.108709 0.506786 68 1 84
-0.218153 -0.483017 -0.235340 68 1 84
0.485525 0.303414 0.088976 68 1 84
-0.495981 0.375985 0.288655 68 1 84
0.575381 0.162098 0.511791 68 1 84
-0.387038 0.020894 -0.139594 58 82 139
0.332921 -0.296902 -0.180223 65 66 134
0.533069 -0.420594 -0.065720 68 1 84
0.559673 0.256086 0.371225 68 1 84
0.545413 0.213484 0.182388 68 1 84
0.642565 -0.064137 0.385192 67 58 131
-0.146788 0.122710 -0.245608 35 135 141
0.671820 -0.261981 0.275823 71 22 105
-0.420006 0.289956 -0.033618 68 1 84
0.270546 0.303606 -0.165045 68 1 84
-0.611126 -0.526547 0.165636 68 1 84
0.442440 0.454300 0.289861 68 1 84
-0.631866 -0.321663 0.173532 68 1 84
-0.563364 0.122858 0.212787 71 42 121
0.656103 -0.471306 0.229273 68 1 84
-0.542934 0.266969 0.301712 68 1 84
0.514531 0.037775 -0.029315 66 190 113
0.270513 0.043214 -0.195459 141 214 68
-0.399618 -0.016109 -0.136451 49 101 141
-0.282162 -0.515328 -0.243390 68 1 84
0.467364 0.222494 -0.001510 71 39 119
0.410017 0.203638 -0.092935 66 62 133
-0.192698 0.255284 -0.186858 68 1 84
-0.520946 -0.399222 -0.019829 68 1 84
-0.016660 -0.005145 -0.415894 112 206 86
-0.445642 0.124737 -0.070924 61 74 137
-0.632042 -0.310564 0.170485 68 1 84
0.241902 0.300688 -0.179443 68 1 84
-0.506800 0.130330 0.027288 71 20 102
0.126028 -0.037156 -0.336473 96 201 96
-0.467106 -0.318502 -0.045765 68 1 84
0.649937 -0.125277 0.272691 54 90 140
-0.593951 0.089324 0.425662 52 95 141
-0.571244 0.141368 0.558601 68 1 84
-0.632527 -0.189216 0.192201 68 1 84
-0.359530 0.326500 -0.085996 68 1 84
0.213495 0.328037 -0.174119 68 1 84
-0.338035 0.583206 0.117228 68 1 84
0.490985 0.245168 0.060924 68 1 84
0.336451 0.341316 -0.104154 68 1 84
0.612216 -0.187217 0.049749 71 42 121
0.035357 0.143010 -0.307431 30 158 136
0.660100 -0.163570 0.536061 68 1 84
-0.622419 -0.465827 0.208034 68 1 84
-0.288621 0.472117 -0.072237 68 1 84
-0.196582 0.363518 -0.182555 68 1 84
0.164556 -0.258644 -0.179042 68 1 84
0.352676 -0.476870 -0.231166 68 1 84
0.075878 -0.036024 -0.359348 154 216 60
-0.073597 -0.184336 -0.383574 60 77 138
-0.248066 0.579166 -0.078627 68 1 84
0.121081 0.611625 -0.137881 68 1 84
-0.641515 -0.569538 0.303893 68 1 84
0.519949 0.048701 -0.016034 144 214 67
0.336206 -0.280141 -0.179493 53 93 140
0.647085 -0.227208 0.134848 72 28 110
0.121764 -0.197578 -0.247322 49 102 141
-0.304977 0.361654 -0.112977 68 1 84
-0.136035 -0.084344 -0.348625 52 95 141
0.169882 0.205373 -0.236388 51 97 141
-0.618616 -0.274151 0.116439 68 1 84
-0.346001 0.274902 -0.120109 68 1 84
-0.551655 0.225052 0.259727 71 39 119
-0.133199 0.626873 -0.157851 68 1 84
0.392950 0.451094 0.049846 68 1 84
-0.357126 0.479340 0.018938 68 1 84
0.494211 -0.534636 -0.161566 68 1 84
-0.248919 0.643300 0.065724 68 1 84
0.278788 0.297547 -0.162883 68 1 84
-0.174667 0.018285 -0.202907 33 142 140
0.384695 -0.121451 -0.149988 212 225 26
0.159243 0.493809 -0.145599 68 1 84
-0.241452 0.225675 -0.194447 68 1 84
-0.484665 0.067257 -0.039197 71 22 105
0.130494 -0.133342 -0.249348 35 168 131
-0.371109 0.418560 -0.006130 68 1 84
-0.182224 -0.453741 -0.219273 68 1 84
0.218072 -0.370256 -0.184068 68 1 84
-0.306335 0.066541 -0.178237 64 67 135
0.479436 -0.351612 -0.061331 68 1 84
-0.193427 0.093426 -0.215810 44 113 142
0.427487 -0.390553 -0.159906 68 1 84
0.426380 -0.271927 -0.102166 70 12 95
-0.475669 -0.090231 -0.094503 59 81 138
-0.553404 -0.431276 0.013803 68 1 84
-0.121981 -0.350381 -0.193601 68 1 84
-0.449298 0.449487 0.354442 68 1 84
-0.401368 -0.274359 -0.118879 68 1 84
-0.561102 0.189568 0.264961 70 49 126
-0.500858 -0.418290 -0.063017 68 1 84
0.246849 0.626575 0.071239 68 1 84
0.447260 0.157929 -0.065654 31 161 135
0.171500 -0.091359 -0.209143 35 135 141
-0.326101 0.057101 -0.169572 55 89 140
0.553715 0.039499 0.041728 109 206 88
0.229406 -0.120294 -0.182689 42 176 126
-0.332435 0.281239 -0.128592 68 1 84
0.343954 -0.107631 -0.161189 223 227 24
0.616094 -0.360822 0.079117 68 1 84
-0.193322 -0.293584 -0.172003 68 1 84
-0.209970 0.331918 -0.179953 68 1 84
0.470764 -0.061357 -0.103172 31 147 139
0.620860 -0.121126 0.089908 43 115 142
0.267746 -0.429993 -0.223950 68 1 84
-0.542989 0.102408 0.109120 68 1 84
-0.456715 0.446195 0.278332 68 1 84
0.696157 -0.380373 0.441462 68 1 84
-0.455359 -0.406031 -0.109856 68 1 84
0.681781 -0.432895 0.323489 68 1 84
-0.019201 0.674809 -0.136026 68 1 84
-0.426594 0.489769 0.288208 68 1 84
0.015590 -0.199338 -0.400317 68 57 130
0.238001 0.492832 -0.084826 68 1 84
0.124503 0.208981 -0.258796 41 120 142
-0.343202 0.101567 -0.157102 71 42 121
-0.659522 -0.558041 0.408914 68 1 84
-0.621398 -0.152370 0.152432 68 1 84
0.552297 0.271362 0.306718 68 1 84
0.058630 0.356905 -0.252698 68 1 84
-0.524437 0.318319 0.423742 68 1 84
0.116831 -0.184643 -0.261353 52 95 141
-0.618857 -0.061442 0.400862 51 97 141
-0.065729 0.279873 -0.272097 68 1 84
0.689555 -0.341744 0.453696 68 1 84
-0.177631 0.525024 -0.163202 68 1 84
0.020041 -0.251251 -0.366766 70 48 125
0.696958 -0.377724 0.460649 68 1 84
-0.622206 -0.075626 0.422377 49 100 141
0.586260 0.131314 0.499371 68 1 84
-0.094008 -0.000949 -0.301417 46 178 124
-0.438852 -0.359265 -0.079544 68 1 84
-0.606762 -0.021105 0.596630 70 45 124
-0.169945 0.383623 -0.191265 68 1 84
-0.532302 0.078840 0.050526 68 1 84
0.484163 0.165414 -0.008970 37 131 141
-0.525689 0.038489 0.010559 69 8 91
-0.260087 0.632722 0.034560 68 1 84
0.205711 0.159760 -0.222733 39 124 142
0.569133 0.228019 0.361480 68 1 84
0.197958 -0.453861 -0.234353 68 1 84
0.030743 -0.014280 -0.354614 75 194 108
-0.103944 0.060446 -0.251565 39 125 142
0.573126 0.153421 0.238615 68 1 84
-0.373405 -0.390831 -0.165960 68 1 84
-0.265545 -0.411934 -0.195105 68 1 84
-0.416209 -0.502533 -0.198884 68 1 84
0.630923 -0.036063 0.475481 68 1 84
0.312576 -0.416510 -0.233560 72 33 114
-0.161366 0.510325 -0.173664 68 1 84
-0.250811 -0.317709 -0.177129 68 1 84
0.685759 -0.308147 0.497104 70 14 97
-0.347000 0.410409 -0.042841 68 1 84
0.050009 0.113953 -0.292254 44 113 142
-0.172849 0.197593 -0.237875 72 29 111
0.632025 -0.541620 0.142836 68 1 84
0.470536 -0.027913 -0.096559 36 132 141
-0.420574 -0.008849 -0.121402 59 80 138
0.630464 -0.186098 0.089554 67 60 132
0.708644 -0.544792 0.388758 68 1 84
0.003079 -0.279548 -0.357962 70 11 94
0.593845 -0.217988 0.024081 68 55 129
-0.391444 -0.372339 -0.131711 68 1 84
0.366476 -0.206863 -0.142404 44 177 125
-0.541935 0.214743 0.197274 71 22 105
-0.324460 0.400477 -0.074156 68 1 84
0.447038 -0.027970 -0.113767 50 181 122
0.595305 -0.126453 0.027095 49 100 141
-0.614354 -0.019401 0.444613 68 55 129
-0.322020 0.402874 -0.075032 68 1 84
-0.462721 0.110627 -0.054193 68 55 129
-0.139755 -0.273482 -0.218246 68 1 84
0.572143 0.191543 0.480384 68 1 84
0.066549 -0.079914 -0.427561 183 221 41
-0.596580 -0.512166 0.111358 68 1 84
0.574030 0.087892 0.186787 71 44 123
-0.193668 0.489717 -0.153270 68 1 84
-0.577141 0.132704 0.550550 72 26 108
-0.457224 -0.349540 -0.058451 68 1 84
0.444459 0.173229 -0.063227 30 156 137
0.204892 0.651374 0.059685 68 1 84
0.490814 0.223694 0.045376 70 12 95
0.544696 -0.448362 -0.063699 68 1 84
-0.640369 -0.212638 0.460635 62 73 137
0.191335 0.121407 -0.222785 61 187 116
0.501295 0.037360 -0.045975 30 159 136
0.018987 -0.261059 -0.362160 71 21 103
0.020067 0.510056 -0.213037 68 1 84
-0.325729 0.409270 -0.067336 68 1 84
0.157271 0.561235 -0.131467 68 1 84
-0.465899 0.431598 0.344004 68 1 84
0.073807 0.135179 -0.282200 43 116 142
-0.633210 -0.414463 0.252974 68 1 84
0.498821 0.136951 -0.001015 36 134 141
0.237296 0.530800 -0.067981 68 1 84
-0.244599 0.221810 -0.194801 68 1 84
-0.195062 0.663565 -0.009162 68 1 84
-0.321337 0.378406 -0.090614 68 1 84
0.403771 -0.341761 -0.125470 68 1 84
0.554774 0.139528 0.156372 61 76 137
-0.604873 -0.049246 0.288269 70 48 125
0.086081 -0.242942 -0.287929 64 68 135
-0.116716 -0.159991 -0.325995 72 26 108
-0.446198 0.246445 -0.016123 68 1 84
-0.581875 0.141419 0.382775 72 34 115
-0.595010 0.073713 0.510460 46 107 142
-0.231373 -0.033731 -0.192327 37 130 142
0.569144 0.022327 0.068713 30 154 137
0.303775 0.472411 -0.038641 68 1 84
-0.555336 0.235322 0.468847 68 57 130
0.018874 0.187127 -0.315387 33 166 133
0.282985 0.216066 -0.184420 58 82 139
0.027253 -0.241054 -0.368559 63 69 135
-0.641648 -0.193104 0.408850 61 76 137
-0.426769 -0.528274 -0.198696 68 1 84
-0.643512 -0.448257 0.353253 68 1 84
0.471655 0.410912 0.373384 68 1 84
0.600350 0.015333 0.228792 71 24 106
-0.157838 0.576743 -0.167807 68 1 84
0.182690 0.648364 -0.016991 68 1 84
-0.479870 0.327027 0.108235 68 1 84
-0.611510 -0.000853 0.466004 42 119 142
0.551094 0.131206 0.135530 58 83 139
0.608295 0.037277 0.500462 68 1 84
0.048265 -0.097485 -0.444968 250 230 34
-0.279566 0.276919 -0.162756 68 1 84
-0.603837 -0.072693 0.178739 70 14 97
0.468658 0.212299 -0.006192 52 95 141
-0.159467 0.632463 -0.135003 68 1 84
0.324928 0.514847 0.017194 68 1 84
0.120874 0.560817 -0.160459 68 1 84
-0.480268 -0.580619 -0.144783 68 1 84
0.603087 -0.044096 0.109574 42 118 142
0.490943 0.363065 0.165022 68 1 84
-0.606257 -0.047761 0.302469 71 37 117
0.438245 0.398883 0.074542 68 1 84
-0.148898 0.039244 -0.216317 39 126 142
0.136731 0.346015 -0.212709 68 1 84
0.633892 -0.493253 0.150281 68 1 84
0.529251 -0.246943 -0.028107 71 20 102
0.035564 0.294200 -0.278521 68 1 84
0.274075 0.472440 -0.066064 68 1 84
0.119598 0.571055 -0.158186 68 1 84
-0.079027 -0.108937 -0.425592 45 111 142
0.156038 -0.284826 -0.178161 68 1 84
0.400725 0.506834 0.154551 68 1 84
0.545713 -0.256778 -0.013289 70 9 92
0.021888 0.679270 -0.120548 68 1 84
0.179464 -0.151579 -0.197935 46 108 142
-0.534318 0.067170 0.046112 72 33 114
0.617424 -0.349469 0.080081 68 1 84
-0.380379 0.429696 0.015769 68 1 84
-0.470196 0.427352 0.337371 68 1 84
0.687483 -0.372102 0.368444 68 1 84
0.566782 0.209451 0.478081 68 1 84
0.334685 0.569916 0.126034 68 1 84
-0.487081 0.385981 0.239614 68 1 84
0.144598 -0.046938 -0.224330 35 169 130
-0.089473 -0.405610 -0.267472 68 1 84
-0.607039 -0.398093 0.123348 68 1 84
-0.290261 0.584790 0.002586 68 1 84
-0.603829 0.025757 0.391326 56 86 139
-0.215589 0.651507 -0.017208 68 1 84
0.614870 0.011931 0.303163 72 25 107
-0.037401 0.693199 -0.097188 68 1 84
0.093697 -0.293196 -0.240511 68 1 84
-0.112804 0.451855 -0.195592 68 1 84
-0.586070 0.087217 0.314456 69 53 128
-0.286122 -0.391074 -0.174132 68 1 84
0.175223 0.053728 -0.212374 31 162 134
-0.060151 0.326554 -0.274714 68 1 84
-0.003572 0.689291 -0.101841 68 1 84
0.427152 0.471895 0.284977 68 1 84
-0.316161 -0.577027 -0.262301 68 1 84
0.364264 -0.151224 -0.151263 165 218 53
0.150948 0.600656 -0.118678 68 1 84
-0.027263 0.324571 -0.282210 68 1 84
0.667601 -0.422179 0.269103 68 1 84
0.153313 0.437828 -0.168172 68 1 84
0.628085 -0.305319 0.094198 68 1 84
0.691993 -0.474561 0.347740 68 1 84
-0.112417 -0.473363 -0.285444 68 1 84
-0.632340 -0.436034 0.260707 68 1 84
0.169625 0.343010 -0.191466 68 1 84
0.684066 -0.385994 0.340526 68 1 84
-0.025008 0.496488 -0.218977 68 1 84
-0.019774 0.233839 -0.270039 68 1 84
-0.518350 0.272654 0.165573 68 1 84
-0.029480 -0.175430 -0.421115 49 101 141
0.216829 0.254537 -0.206254 30 153 138
0.150930 0.541712 -0.141980 68 1 84
0.196109 0.649129 0.013047 68 1 84
-0.097346 0.531234 -0.204532 68 1 84
0.409089 0.400840 0.028596 68 1 84
-0.291263 0.301486 -0.147361 68 1 84
-0.040915 0.024659 -0.337443 89 199 100
0.470140 -0.508903 -0.190967 68 1 84
0.236896 -0.441811 -0.222187 68 1 84
0.188668 0.276932 -0.195057 70 12 95
0.603326 0.000912 0.222658 72 35 116
0.646276 -0.440782 0.184241 68 1 84
-0.226060 -0.043009 -0.193171 31 147 139
0.629735 -0.037875 0.328318 68 1 84
0.162583 0.155393 -0.239150 34 139 141
-0.451507 -0.334521 -0.062654 68 1 84
-0.517540 -0.399868 -0.025014 68 1 84
0.574320 0.089695 0.190078 65 65 134
-0.401100 -0.512214 -0.208874 68 1 84
-0.625722 -0.134082 0.270844 72 35 116
-0.507796 0.353454 0.364631 68 1 84
-0.493747 -0.120794 -0.082921 62 73 137
0.632709 -0.032113 0.358282 63 69 135
-0.502641 0.385577 0.417060 68 1 84
0.073237 -0.342884 -0.253191 68 1 84
-0.551093 -0.430657 0.009845 68 1 84
-0.617277 -0.036823 0.462630 71 20 102
0.026184 0.233348 -0.264826 68 1 84
0.058669 -0.165898 -0.376083 33 141 140
-0.525399 -0.002900 -0.011380 72 29 111
-0.446890 -0.344171 -0.067217 68 1 84
0.570838 0.021977 0.074171 31 148 139
-0.649684 -0.276748 0.405556 68 1 84
-0.117688 -0.386131 -0.203153 68 1 84
0.717555 -0.503267 0.449168 68 1 84
0.641763 -0.365332 0.144303 68 1 84
0.254428 0.151258 -0.204979 35 169 130
-0.271382 -0.234634 -0.165832 70 9 92
0.306253 -0.447508 -0.232133 68 1 84
-0.410466 0.380710 0.021779 68 1 84
0.608210 0.058081 0.476863 68 1 84
-0.519483 0.212935 0.122465 68 1 84
0.681173 -0.315931 0.327896 68 1 84
0.072487 0.633713 -0.155427 68 1 84
-0.366096 -0.349007 -0.147513 68 1 84
0.300202 0.598089 0.134199 68 1 84
-0.336599 0.588616 0.134794 68 1 84
-0.286935 0.155322 -0.185250 60 78 138
-0.490038 0.317947 0.125371 68 1 84
-0.092358 -0.429475 -0.274418 68 1 84
0.661211 -0.554814 0.240740 68 1 84
-0.385812 -0.147171 -0.145105 61 76 137
-0.288238 0.390368 -0.110701 68 1 84
0.132610 -0.041918 -0.326810 107 205 89
0.520778 0.019620 -0.029724 94 201 97
-0.175974 0.420825 -0.174168 68 1 84
0.153811 0.668970 -0.000475 68 1 84
-0.464879 0.235122 0.011072 68 1 84
-0.667207 -0.448917 0.492948 68 1 84
-0.615958 -0.507895 0.183112 68 1 84
0.290032 0.241307 -0.174751 69 53 128
0.177843 0.156099 -0.233341 34 137 141
0.034044 0.335284 -0.274971 68 1 84
0.324260 0.122573 -0.172492 31 147 139
-0.352908 -0.377202 -0.164272 68 1 84
-0.445331 0.390177 0.091843 68 1 84
0.550972 0.265480 0.459707 68 1 84
0.550454 -0.504375 -0.062820 68 1 84
-0.075478 -0.514391 -0.320390 68 1 84
0.447312 -0.307647 -0.077076 68 1 84
-0.585386 -0.518452 0.077223 68 1 84
0.473258 -0.349787 -0.065177 68 1 84
-0.481602 0.037371 -0.052774 69 53 128
0.100783 0.074615 -0.246107 33 142 140
-0.423085 0.472385 0.135038 68 1 84
0.162245 -0.536210 -0.310624 68 1 84
-0.061632 0.220715 -0.266966 71 24 106
0.603326 -0.001311 0.218785 71 38 118
0.319581 0.552060 0.049883 68 1 84
-0.529388 0.304729 0.438510 68 1 84
0.581882 0.039096 0.165630 34 138 141
0.662728 -0.424930 0.249590 68 1 84
0.460664 -0.557780 -0.198986 68 1 84
0.102409 -0.125537 -0.326334 53 183 120
0.636755 -0.062996 0.335832 71 24 106
-0.619784 -0.073081 0.594136 70 14 97
0.648986 -0.111793 0.312136 64 67 135
-0.101351 0.178420 -0.288941 38 128 142
-0.500275 -0.361715 -0.021568 68 1 84
0.349960 0.295667 -0.114661 68 1 84
-0.079741 0.091551 -0.282110 41 175 127
-0.652928 -0.305742 0.448553 68 1 84
-0.493756 0.058365 -0.029443 69 54 129
0.599918 -0.073781 0.062707 40 122 142
0.534117 -0.450444 -0.087960 68 1 84
0.115997 0.105836 -0.249895 54 91 140
-0.626983 -0.135188 0.283965 70 45 124
-0.213503 0.654299 -0.006869 68 1 84
-0.490477 -0.385551 -0.049201 68 1 84
0.538549 0.240284 0.183042 68 1 84
-0.325166 0.275667 -0.136045 68 1 84
0.273011 0.525662 -0.034105 68 1 84
-0.449997 0.259197 -0.001841 68 1 84
0.679116 -0.283833 0.464719 68 1 84
-0.652431 -0.302634 0.429477 72 28 110
-0.340241 0.505736 0.013802 68 1 84
0.028033 0.224425 -0.275900 72 25 107
0.686778 -0.428542 0.344326 68 1 84
-0.243261 0.531304 -0.104424 68 1 84
0.265471 0.071580 -0.199569 50 181 122
-0.572608 0.190753 0.418295 50 98 141
-0.380141 0.223014 -0.107407 68 1 84
-0.587747 -0.484425 0.081450 68 1 84
0.096560 0.541078 -0.179655 68 1 84
0.125996 0.646850 -0.099651 68 1 84
0.592916 -0.027356 0.091021 52 95 141
-0.254314 0.383976 -0.139062 68 1 84
0.444666 -0.475980 -0.198776 68 1 84
0.063175 0.225554 -0.263379 64 68 135
0.511762 -0.457347 -0.128393 68 1 84
