ply
format ascii 1.0
element vertex 1271
property float x
property float y
property float z
property uchar red
property uchar green
property uchar blue
end_header
-0.641632 -0.323912 0.446780 68 1 84
0.502161 0.270770 0.123231 68 1 84
0.043935 0.178334 -0.353485 205 224 29
-0.063718 0.083286 -0.347520 41 121 142
0.299616 0.343003 -0.142985 60 77 138
0.259395 0.476815 -0.087071 68 1 84
-0.246916 0.342745 -0.177590 34 137 141
0.219276 0.343580 -0.185679 48 104 141
-0.319186 0.018979 -0.169141 71 21 103
0.362436 0.509109 0.135345 68 1 84
0.645511 -0.036369 0.477192 68 1 84
-0.121817 -0.430868 -0.215501 41 120 142
0.347544 -0.399227 -0.200504 65 65 134
-0.331937 -0.456916 -0.190543 61 74 137
0.616465 0.001749 0.226163 68 1 84
0.289272 0.195054 -0.185309 58 82 139
-0.634203 -0.185833 0.453529 68 1 84
-0.049796 0.042560 -0.376532 33 141 140
-0.482429 -0.511412 -0.084890 70 11 94
-0.481506 -0.015537 -0.029364 68 1 84
-0.527033 -0.169477 0.006195 68 1 84
-0.461969 0.255107 0.031633 68 1 84
-0.410112 0.426323 0.099038 68 1 84
-0.409790 -0.013300 -0.107440 68 1 84
0.492097 0.085630 -0.006429 68 1 84
-0.009941 0.250587 -0.310221 94 201 97
0.280191 -0.105429 -0.161115 71 43 122
-0.490780 -0.503831 -0.067502 71 40 120
0.230728 0.298252 -0.203332 41 120 142
0.603591 0.034122 0.224226 68 1 84
-0.114651 -0.021599 -0.423781 67 60 132
-0.283862 0.501616 -0.072077 68 1 84
0.196914 0.541978 -0.109590 69 8 91
-0.473963 -0.132952 -0.060627 68 1 84
0.420113 0.371478 0.038162 68 1 84
0.694847 -0.243733 0.497687 68 1 84
-0.207467 -0.250414 -0.155706 72 35 116
-0.308186 0.071562 -0.176076 70 12 95
0.538118 0.280266 0.497093 68 1 84
0.515772 -0.164217 -0.028875 68 1 84
-0.026727 -0.272939 -0.372552 63 69 135
0.106795 0.510605 -0.176719 71 15 98
0.100806 0.633007 -0.112408 70 14 97
0.476771 -0.212529 -0.045090 68 1 84
0.631173 -0.114732 0.190063 68 1 84
-0.058202 0.403716 -0.227723 31 161 135
-0.662851 -0.252628 0.354124 68 1 84
0.704265 -0.368530 0.437847 68 1 84
-0.473387 -0.460360 -0.101019 71 42 121
0.058895 -0.113919 -0.430780 41 120 142
0.694743 -0.241772 0.468024 68 1 84
-0.603304 0.002146 0.375079 68 1 84
0.646880 -0.252408 0.199959 68 1 84
-0.474964 -0.284993 -0.005490 68 1 84
0.354450 0.502847 0.089289 68 1 84
-0.281497 0.578454 0.001879 68 1 84
0.650593 -0.046544 0.466293 68 1 84
0.621925 -0.040693 0.204720 68 1 84
-0.529765 -0.045403 0.039843 68 1 84
0.322404 0.467165 -0.022938 72 30 112
0.364209 0.498255 0.107333 68 1 84
0.500001 -0.012268 -0.032142 68 1 84
0.132420 0.025453 -0.259991 116 208 84
0.690554 -0.217704 0.531759 68 1 84
-0.548352 -0.067538 0.070895 68 1 84
0.363323 -0.053633 -0.138238 68 1 84
-0.473936 0.383520 0.272334 68 1 84
0.291881 -0.309965 -0.158238 68 1 84
0.129929 0.041040 -0.263376 124 210 79
-0.583652 -0.054335 0.211820 68 1 84
-0.574929 0.130559 0.436705 68 1 84
0.534557 0.235645 0.182802 68 1 84
-0.559515 0.005272 0.153999 68 1 84
0.082605 0.047917 -0.329305 114 207 85
-0.063868 0.105182 -0.346365 39 126 142
0.676166 -0.209375 0.272374 68 1 84
-0.558417 0.185573 0.266453 68 1 84
-0.448200 -0.153510 -0.081515 68 1 84
0.681790 -0.173966 0.479493 68 1 84
0.677865 -0.129724 0.389741 68 1 84
-0.414132 -0.198680 -0.091324 68 1 84
-0.078355 -0.149675 -0.372373 66 64 133
0.331142 -0.091650 -0.147395 68 1 84
0.537583 -0.182561 0.000095 68 1 84
-0.140160 0.329154 -0.277128 34 139 141
0.277233 0.098107 -0.192187 51 97 141
0.688249 -0.185670 0.380112 68 1 84
0.439239 -0.211473 -0.069750 68 1 84
0.683621 -0.322789 0.296103 68 1 84
0.378444 0.407680 -0.004753 68 1 84
-0.403677 0.418791 0.062172 68 1 84
0.487344 0.269331 0.084576 68 1 84
0.071623 -0.450301 -0.265527 66 61 132
0.104405 -0.215898 -0.259454 65 66 134
-0.569991 0.073147 0.234632 68 1 84
-0.578686 -0.445735 0.203468 56 86 139
0.111323 -0.219225 -0.243378 59 81 138
-0.568247 -0.505074 0.205880 59 81 138
0.360073 0.519009 0.172967 68 1 84
-0.430123 0.228103 -0.043270 68 1 84
0.287398 -0.017828 -0.176672 71 42 121
0.479542 0.375532 0.238453 68 1 84
-0.102420 -0.047698 -0.449036 72 30 112
-0.226054 -0.372625 -0.154523 48 104 141
0.570441 0.216670 0.444002 68 1 84
0.434102 -0.132851 -0.100195 68 1 84
-0.635803 -0.076494 0.369337 68 1 84
0.547913 -0.198777 0.017191 68 1 84
0.528650 -0.142247 -0.017291 68 1 84
-0.632795 -0.416058 0.335363 68 1 84
-0.063970 -0.303805 -0.304277 64 68 135
-0.433051 0.227729 -0.038978 68 1 84
-0.070337 0.186707 -0.356714 31 162 134
-0.030569 0.239433 -0.319779 62 188 115
-0.589475 0.063794 0.422412 68 1 84
0.628826 -0.318303 0.181328 68 1 84
-0.421145 0.381919 0.060270 68 1 84
0.012105 0.081905 -0.362570 81 196 104
-0.395926 -0.269887 -0.086000 69 8 91
-0.183756 0.300300 -0.238920 40 122 142
0.549030 -0.345702 0.028527 72 25 107
0.283605 0.282766 -0.180163 67 60 132
-0.138849 -0.192985 -0.226166 69 53 128
-0.158838 0.019069 -0.244779 51 96 141
-0.513436 0.310633 0.257891 68 1 84
0.255117 0.278052 -0.203532 45 111 142
-0.436394 0.364785 0.079499 68 1 84
-0.257315 0.528214 -0.088938 71 24 106
-0.557619 0.205481 0.286252 68 1 84
-0.644744 -0.424114 0.492157 68 1 84
0.669855 -0.136997 0.283933 68 1 84
0.547144 0.257108 0.275006 68 1 84
-0.604284 -0.538269 0.321778 68 1 84
-0.627877 -0.222566 0.504042 68 1 84
-0.093989 -0.093258 -0.420395 69 52 127
-0.476774 -0.458780 -0.096135 71 44 123
0.133004 -0.134046 -0.239675 31 163 134
0.121100 -0.483570 -0.266834 52 95 141
0.406326 0.305248 -0.038262 72 33 114
0.343213 -0.374434 -0.192229 59 81 138
0.244947 0.600605 0.077902 68 1 84
0.438191 0.323381 0.030454 68 1 84
-0.099256 -0.118368 -0.337844 39 126 142
-0.604141 -0.209461 0.192346 68 1 84
-0.400629 0.424423 0.061530 68 1 84
0.396995 0.130545 -0.109925 70 11 94
-0.546285 -0.012568 0.094956 68 1 84
0.086411 -0.330433 -0.208318 51 182 121
0.403825 0.122139 -0.103988 70 12 95
0.584407 0.095885 0.225381 68 1 84
-0.613494 -0.511670 0.355073 68 1 84
-0.642464 -0.432694 0.465636 68 1 84
-0.608128 -0.056606 0.478575 68 1 84
0.310709 -0.518729 -0.237394 48 103 141
0.326057 -0.321501 -0.155019 68 1 84
0.130649 0.039498 -0.287434 54 184 119
-0.303896 -0.347948 -0.138094 65 65 134
-0.426340 0.423624 0.154803 68 1 84
-0.317113 0.434007 -0.078874 68 1 84
0.554368 -0.374034 0.029973 68 57 130
0.186301 0.448771 -0.149429 72 32 113
-0.558770 0.219879 0.350624 68 1 84
0.582495 0.062795 0.186133 68 1 84
-0.621193 -0.209282 0.227672 68 1 84
0.254996 0.582897 0.028933 68 1 84
-0.495604 0.003877 -0.001338 68 1 84
-0.503271 0.344348 0.329949 68 1 84
0.024235 0.023594 -0.453490 51 182 121
-0.605415 -0.305919 0.197580 68 1 84
-0.513383 0.251925 0.167286 68 1 84
-0.621098 -0.157704 0.499909 68 1 84
-0.288673 -0.131383 -0.156866 68 1 84
0.574671 -0.247792 0.064896 68 1 84
0.107292 -0.355560 -0.184014 33 141 140
0.153690 -0.509136 -0.274670 59 81 138
-0.564828 0.169618 0.470067 68 1 84
0.671279 -0.100722 0.396679 68 1 84
-0.520665 -0.376869 0.036612 44 113 142
-0.446695 -0.357183 -0.044928 70 12 95
-0.332116 0.382947 -0.096284 70 14 97
0.094054 -0.404821 -0.231124 43 177 125
0.298724 -0.123435 -0.152623 71 18 101
0.151043 -0.172838 -0.208131 39 125 142
0.564548 -0.435518 0.073830 68 1 84
-0.615916 -0.151095 0.571928 68 1 84
0.556998 0.026462 0.083260 68 1 84
0.687527 -0.457741 0.405782 68 1 84
-0.307740 0.138692 -0.179611 72 32 113
-0.588074 0.056186 0.451394 68 1 84
-0.314325 0.214548 -0.178048 64 68 135
0.545765 -0.486170 0.011399 72 29 111
-0.051256 0.637350 -0.124696 65 65 134
0.623779 -0.223320 0.156509 68 1 84
-0.525649 0.262118 0.517715 68 1 84
0.592152 -0.349813 0.114959 68 1 84
-0.294199 -0.011490 -0.177435 70 9 92
-0.078480 0.203208 -0.350557 39 124 142
-0.536621 -0.360647 0.067856 64 68 135
-0.127131 0.158009 -0.319542 47 105 141
0.466939 0.196160 -0.004538 71 20 102
-0.053631 0.277194 -0.317353 35 168 131
0.581923 0.085933 0.206584 68 1 84
-0.221174 -0.184571 -0.166214 71 22 105
-0.153511 -0.015735 -0.316662 45 110 142
0.217769 0.037250 -0.208486 34 138 141
-0.269627 0.524592 -0.077972 69 8 91
0.693397 -0.234491 0.504533 68 1 84
0.405677 -0.464617 -0.186513 69 8 91
0.592020 -0.410312 0.139160 68 1 84
-0.285523 0.565100 -0.016319 68 1 84
-0.339943 0.357185 -0.104422 70 45 124
0.179659 0.409801 -0.178701 53 92 140
-0.611005 -0.033162 0.434387 68 1 84
-0.510407 0.203034 0.113866 68 1 84
-0.385768 -0.563360 -0.177242 69 6 90
0.474937 -0.425347 -0.125105 68 1 84
0.310608 0.478857 -0.027594 71 15 98
0.257154 -0.102628 -0.169499 69 53 128
0.367492 0.385479 -0.041115 72 34 115
-0.415810 -0.159272 -0.102927 68 1 84
0.009533 -0.161276 -0.440073 59 81 138
-0.192696 0.149033 -0.266761 70 48 125
0.501013 -0.029439 -0.035018 68 1 84
-0.112068 -0.441871 -0.232434 39 126 142
0.363212 0.517724 0.196308 68 1 84
-0.469822 -0.432802 -0.090999 71 43 122
-0.573066 -0.285801 0.120468 68 2 85
-0.068158 0.015185 -0.457368 57 85 139
-0.472962 -0.551321 -0.089480 68 1 84
-0.252606 0.555913 -0.081323 71 15 98
0.682215 -0.402202 0.346688 68 1 84
-0.535219 0.138281 0.149577 68 1 84
0.620003 -0.023940 0.212757 68 1 84
-0.221881 -0.374999 -0.155025 62 73 137
0.271845 -0.036285 -0.180211 59 80 138
-0.419476 0.372977 0.043816 68 1 84
0.084355 0.233748 -0.316027 253 231 36
0.594769 -0.154538 0.092639 68 1 84
-0.227406 -0.189887 -0.162403 72 30 112
0.594240 0.027223 0.192794 68 1 84
-0.343646 -0.518569 -0.199301 65 65 134
-0.104497 0.058859 -0.316194 40 122 142
0.306395 0.344855 -0.136660 66 64 133
0.070648 -0.341947 -0.246996 30 151 138
-0.583343 -0.243913 0.136135 68 1 84
-0.000983 -0.291530 -0.366058 37 131 141
0.283976 0.569124 0.072358 68 1 84
0.320179 0.256669 -0.151290 54 90 140
0.680280 -0.171673 0.503340 68 1 84
0.492764 -0.073172 -0.054032 68 1 84
0.040644 0.589957 -0.185535 46 108 142
-0.216316 -0.276861 -0.156153 68 1 84
0.401975 0.410276 0.043829 68 1 84
-0.129919 -0.456910 -0.234921 49 102 141
0.265387 -0.074819 -0.174204 56 86 139
-0.585017 0.082439 0.306990 68 1 84
0.629151 -0.290930 0.173136 68 1 84
0.356643 -0.078324 -0.139854 70 12 95
0.447492 0.426620 0.267648 68 1 84
0.650402 -0.052846 0.257087 68 1 84
-0.334602 0.449132 -0.045663 68 1 84
0.138043 -0.324129 -0.155707 37 130 142
-0.370285 -0.547907 -0.188047 70 48 125
-0.170014 0.543672 -0.155576 70 48 125
-0.306393 -0.410698 -0.211706 52 94 141
-0.441104 0.032702 -0.070027 68 1 84
-0.593376 0.030034 0.319912 68 1 84
0.674888 -0.171131 0.279117 68 1 84
0.578701 -0.231791 0.067934 68 1 84
0.579550 0.044087 0.162250 68 1 84
-0.544191 0.179169 0.205836 68 1 84
-0.373464 0.459939 0.041357 68 1 84
-0.595323 -0.015783 0.503069 68 1 84
0.030603 -0.145667 -0.437358 43 116 142
0.102151 -0.388137 -0.209164 31 162 134
-0.069768 0.273558 -0.313999 69 191 111
0.276454 0.073425 -0.191057 57 85 139
-0.259436 0.416329 -0.130394 64 68 135
-0.364885 -0.359300 -0.117720 64 67 135
-0.500828 -0.427189 -0.038456 70 12 95
-0.642965 -0.365175 0.321008 68 1 84
0.395540 -0.001777 -0.120625 68 1 84
0.484388 0.364674 0.227874 68 1 84
-0.576155 -0.424189 0.177902 62 73 137
0.535340 0.117701 0.085963 68 1 84
0.441604 0.083304 -0.069329 68 1 84
0.505451 -0.013120 -0.025237 68 1 84
0.077587 0.026770 -0.347182 38 172 129
-0.434849 -0.346196 -0.045881 68 1 84
0.573799 -0.016734 0.097761 68 1 84
-0.060481 0.373745 -0.244327 181 221 43
0.413633 -0.526188 -0.185579 66 61 132
-0.311629 0.287191 -0.163559 69 53 128
0.573526 -0.192452 0.051175 68 1 84
-0.429277 -0.318941 -0.044117 72 25 107
-0.042316 0.521001 -0.225049 49 101 141
0.128500 -0.004192 -0.342432 45 111 142
0.683116 -0.182462 0.484683 68 1 84
-0.114401 -0.306902 -0.178789 67 58 131
0.118444 0.169405 -0.299933 129 211 76
0.044906 0.470067 -0.218472 55 89 140
-0.555102 0.221572 0.296696 68 1 84
0.408900 -0.063483 -0.115584 68 1 84
-0.448461 0.418646 0.378259 68 1 84
0.686381 -0.401317 0.362783 68 1 84
-0.202833 0.340255 -0.212143 30 153 138
-0.089369 0.339349 -0.293885 43 177 125
0.120019 0.187138 -0.304946 112 206 86
0.159884 0.465335 -0.155879 71 38 118
0.705889 -0.345810 0.446031 68 1 84
0.525320 -0.148286 -0.020992 68 1 84
0.217620 -0.055722 -0.196375 49 101 141
0.134397 -0.150067 -0.234114 32 144 140
0.347733 -0.229660 -0.129699 70 11 94
-0.195425 0.133560 -0.257516 66 64 133
-0.558776 -0.256193 0.088071 71 24 106
-0.111844 -0.087665 -0.322280 42 118 142
0.607668 -0.145381 0.128540 68 1 84
-0.263636 -0.275798 -0.156424 71 22 105
-0.259850 -0.140896 -0.164089 68 1 84
0.547101 -0.417629 0.007789 61 75 137
-0.477768 0.359635 0.214154 68 1 84
-0.407133 -0.197457 -0.095837 68 1 84
0.495050 0.327015 0.183862 68 1 84
0.104357 -0.401335 -0.218371 33 140 141
-0.158873 0.346381 -0.250443 35 135 141
-0.446448 0.412840 0.230348 68 1 84
-0.403819 0.314544 -0.045691 68 1 84
0.501296 0.183518 0.053836 68 1 84
0.190806 -0.392932 -0.187515 65 65 134
-0.630985 -0.276530 0.250269 68 1 84
0.445035 -0.375526 -0.114076 68 1 84
-0.529210 -0.051771 0.035292 68 1 84
-0.263802 0.263844 -0.200202 55 89 140
0.119202 0.649298 -0.065245 68 1 84
-0.395305 -0.073026 -0.117578 68 1 84
-0.381288 0.463448 0.070674 68 1 84
-0.247933 -0.487264 -0.211129 72 28 110
0.615663 -0.103157 0.162367 68 1 84
0.042759 -0.244121 -0.371856 49 101 141
0.417271 0.461185 0.326399 68 1 84
-0.282752 0.151167 -0.199179 69 53 128
-0.454065 0.131482 -0.031295 68 1 84
0.539260 0.284490 0.303602 68 1 84
-0.580850 0.120068 0.322818 68 1 84
0.223247 0.288990 -0.210977 39 125 142
0.140528 0.474301 -0.163261 72 35 116
-0.452459 0.297145 0.041946 68 1 84
0.406100 -0.487747 -0.192008 69 50 127
-0.203285 0.059944 -0.218180 44 113 142
-0.351800 0.169050 -0.144983 68 2 85
0.581537 -0.067570 0.089510 68 1 84
0.008407 -0.276237 -0.374440 49 100 141
0.016092 0.166534 -0.355665 81 196 104
0.312237 0.460353 -0.043202 69 54 129
0.709149 -0.399228 0.519061 68 1 84
0.126057 0.397060 -0.219464 56 87 140
0.596377 -0.272354 0.105581 68 1 84
-0.595906 0.031183 0.358074 68 1 84
0.105744 -0.059556 -0.323071 31 162 134
0.132792 0.647924 -0.055399 68 1 84
-0.174945 -0.294385 -0.152495 69 54 129
-0.166169 -0.154629 -0.209864 70 48 125
-0.095925 -0.115843 -0.360817 45 111 142
-0.480656 0.374077 0.275754 68 1 84
0.448730 -0.045700 -0.088243 68 1 84
-0.549692 0.159424 0.210888 68 1 84
0.481806 -0.427537 -0.120072 68 1 84
0.063878 -0.129155 -0.403207 33 140 141
0.107710 -0.248019 -0.225821 56 87 140
-0.542991 0.237694 0.258953 68 1 84
-0.052541 0.285636 -0.320425 112 206 86
0.391684 -0.236754 -0.097344 68 1 84
0.329717 -0.362398 -0.175652 58 82 139
-0.275863 0.584955 0.001626 70 11 94
0.343436 0.514496 0.086841 68 1 84
-0.227673 0.493184 -0.122385 71 21 103
0.194546 0.283524 -0.222051 38 129 142
-0.617480 -0.038081 0.366980 68 1 84
-0.601162 -0.018939 0.293137 68 1 84
0.628694 -0.064840 0.204618 68 1 84
-0.210082 -0.180022 -0.172867 71 17 99
-0.589810 0.081559 0.366366 68 1 84
-0.018173 -0.274378 -0.374593 65 66 134
-0.493994 0.146500 0.044908 68 1 84
0.342804 -0.261646 -0.148300 68 1 84
-0.632717 -0.165044 0.279047 68 1 84
0.388446 0.490863 0.196857 68 1 84
0.143044 0.438270 -0.178913 70 49 126
-0.324384 0.471753 -0.042495 68 1 84
-0.580333 0.097249 0.445348 68 1 84
0.019753 -0.430113 -0.280374 55 88 140
0.144987 0.435449 -0.180354 68 55 129
0.449826 0.132898 -0.049172 68 1 84
0.268167 -0.386458 -0.196711 66 62 133
-0.150173 -0.503006 -0.257377 50 99 141
-0.438936 0.270833 -0.006591 68 1 84
0.331840 0.269025 -0.138881 71 39 119
-0.277183 -0.054058 -0.177943 68 3 87
0.049869 -0.100126 -0.453006 42 118 142
0.566622 0.049560 0.126247 68 1 84
0.279205 0.477796 -0.067091 68 1 84
-0.058048 0.052114 -0.360991 36 133 141
-0.062773 -0.457857 -0.265877 58 83 139
-0.632217 -0.337537 0.277040 68 1 84
-0.151389 0.007703 -0.344042 38 128 142
0.134793 -0.105672 -0.241352 30 156 137
-0.136311 0.159152 -0.313329 48 104 141
-0.634962 -0.473424 0.426152 68 1 84
-0.217395 0.064861 -0.212420 42 119 142
-0.565751 0.109920 0.237016 68 1 84
0.138158 0.431174 -0.186940 67 59 131
-0.151952 0.631232 -0.089543 68 55 129
0.605672 0.069293 0.515300 68 1 84
-0.114417 0.361513 -0.262057 61 187 116
0.123542 -0.197932 -0.234477 45 110 142
-0.635526 -0.554096 0.460890 68 1 84
-0.535140 0.139884 0.150060 68 1 84
0.129783 -0.007264 -0.334919 44 113 142
0.562810 0.231961 0.323851 68 1 84
0.346710 0.518597 0.108746 68 1 84
-0.584265 -0.449948 0.234148 52 94 141
-0.246342 -0.037010 -0.190943 72 33 114
0.267119 -0.540560 -0.256873 55 88 140
-0.311513 -0.329449 -0.142098 65 65 134
0.515477 0.293845 0.198385 68 1 84
0.588394 -0.161225 0.077040 68 1 84
0.682555 -0.163040 0.339661 68 1 84
0.397921 -0.475861 -0.193523 69 50 127
0.375252 -0.114180 -0.130236 71 15 98
-0.598178 -0.230860 0.175951 68 1 84
-0.565021 0.191932 0.319725 68 1 84
0.385667 -0.544479 -0.203295 59 80 138
-0.182926 -0.272776 -0.156731 72 28 110
-0.063018 -0.094769 -0.462814 68 55 129
-0.038168 0.645359 -0.106970 68 57 130
0.126594 -0.119343 -0.250002 30 153 138
0.199403 0.583574 -0.083643 68 1 84
0.616434 -0.460890 0.234534 54 90 140
-0.115662 -0.419624 -0.210220 58 82 139
-0.496283 0.356842 0.416372 68 1 84
0.522363 0.287194 0.215342 68 1 84
-0.569641 0.135590 0.490687 68 1 84
0.687726 -0.203617 0.473672 68 1 84
0.034823 0.069076 -0.358026 146 215 65
-0.078459 0.497170 -0.219080 50 99 141
-0.232978 0.612357 -0.033954 69 6 90
-0.065070 0.217960 -0.341926 30 155 137
0.059002 -0.028596 -0.464112 32 144 140
0.123224 0.372677 -0.239138 40 122 142
-0.599347 -0.466134 0.290423 71 18 101
0.006970 0.633036 -0.141111 61 74 137
-0.178648 -0.234254 -0.167442 70 45 124
-0.183487 0.638588 -0.036467 72 30 112
0.567592 -0.190040 0.041565 68 1 84
-0.414618 -0.274467 -0.067978 68 1 84
-0.155951 -0.008519 -0.278071 54 90 140
0.671716 -0.299126 0.260077 68 1 84
-0.168785 0.019799 -0.226900 45 110 142
0.507629 -0.148295 -0.040960 68 1 84
-0.331954 -0.057658 -0.154574 68 1 84
-0.455267 0.408963 0.273554 68 1 84
-0.547354 0.065499 0.150693 68 1 84
-0.476237 0.283041 0.087953 68 1 84
-0.237156 0.051875 -0.202377 59 81 138
-0.641268 -0.214611 0.426240 68 1 84
0.172690 0.346121 -0.214912 42 117 142
-0.059734 0.453247 -0.225138 32 143 140
-0.025651 -0.429755 -0.276163 67 59 131
-0.499615 0.189089 0.076678 68 1 84
-0.083855 -0.412741 -0.235453 52 94 141
-0.154845 -0.234212 -0.182878 71 22 105
0.058660 0.318334 -0.309219 210 225 27
-0.460838 -0.207929 -0.056466 68 1 84
0.491998 0.351966 0.228190 68 1 84
0.562637 0.236767 0.348911 68 1 84
-0.571984 0.075966 0.244476 68 1 84
-0.459911 0.407839 0.325623 68 1 84
-0.601362 -0.154417 0.197961 68 1 84
0.580790 0.154329 0.508445 68 1 84
-0.303888 0.174947 -0.186227 71 40 120
0.134347 -0.402539 -0.199994 50 98 141
0.521510 -0.357633 -0.019755 68 1 84
0.199819 -0.326133 -0.148485 55 89 140
0.704887 -0.316757 0.469082 68 1 84
0.363411 0.516382 0.180004 68 1 84
-0.403201 -0.089500 -0.112398 68 1 84
-0.621154 -0.111295 0.469340 68 1 84
-0.165444 -0.310897 -0.145580 70 49 126
0.312637 0.170285 -0.170761 69 54 129
0.578130 0.184998 0.480942 68 1 84
0.430208 -0.442539 -0.164935 68 1 84
-0.427477 0.441709 0.254822 68 1 84
0.444408 0.390939 0.129489 68 1 84
-0.544518 0.228978 0.495036 68 1 84
-0.384299 0.491228 0.210637 68 1 84
0.086056 -0.303081 -0.225674 30 160 135
-0.074403 -0.515244 -0.280287 69 54 129
-0.124525 0.073860 -0.286195 43 115 142
0.459411 0.238144 0.002624 68 1 84
-0.537974 -0.079528 0.040024 68 1 84
-0.306143 0.294244 -0.164210 68 57 130
-0.445567 -0.151739 -0.083792 68 1 84
-0.524181 -0.221403 0.019317 70 12 95
0.476912 0.301458 0.091708 68 1 84
0.065198 -0.306955 -0.297110 56 185 118
-0.312983 0.177240 -0.178719 71 43 122
-0.352096 0.231281 -0.138514 68 1 84
-0.464228 -0.181157 -0.063740 68 1 84
0.126455 0.541134 -0.159177 72 33 114
0.647353 -0.025256 0.307943 68 1 84
0.051042 -0.230730 -0.362563 41 175 127
-0.557064 -0.051969 0.101801 68 1 84
-0.228591 -0.410763 -0.188984 59 80 138
-0.561850 0.043460 0.189665 68 1 84
0.477070 0.313515 0.106489 68 1 84
-0.643409 -0.169445 0.384750 68 1 84
0.656256 -0.015784 0.374282 68 1 84
0.590929 -0.347886 0.111943 68 1 84
-0.107450 -0.270353 -0.216363 67 60 132
-0.071660 -0.350119 -0.241785 51 97 141
-0.330175 0.196469 -0.163718 71 40 120
-0.572295 0.149425 0.423829 68 1 84
-0.412970 0.290000 -0.042661 68 1 84
0.602769 -0.338459 0.133457 68 1 84
-0.204343 -0.194484 -0.169630 70 48 125
-0.197169 -0.026699 -0.209060 68 55 129
0.575089 0.005765 0.116604 68 1 84
0.365876 -0.249511 -0.124504 68 3 87
-0.639860 -0.519958 0.471552 68 1 84
0.371583 0.304848 -0.089728 67 60 132
0.695103 -0.238545 0.435724 68 1 84
0.478517 0.392355 0.333905 68 1 84
0.073671 0.092518 -0.313501 215 226 25
-0.236024 -0.192961 -0.158910 70 47 124
0.117301 -0.163230 -0.257075 54 90 140
-0.553826 0.199172 0.260825 68 1 84
0.160317 0.461076 -0.157279 71 37 117
0.511941 -0.018379 -0.017663 68 1 84
-0.639954 -0.317126 0.468040 68 1 84
-0.456961 0.100348 -0.032538 68 1 84
0.609986 0.087776 0.411570 68 1 84
0.570425 0.004803 0.102965 68 1 84
-0.574066 0.133513 0.291138 68 1 84
0.346249 -0.195773 -0.126128 70 11 94
0.252055 -0.482732 -0.231534 56 87 140
-0.607335 -0.101742 0.563261 68 1 84
-0.388705 -0.051841 -0.122608 68 1 84
-0.479068 0.155408 0.019686 68 1 84
0.213612 0.225588 -0.240582 38 172 129
-0.431794 -0.529635 -0.146668 62 73 137
0.043356 -0.117717 -0.446961 38 129 142
-0.035306 -0.114221 -0.466169 70 49 126
0.583067 -0.086289 0.085872 68 1 84
-0.177117 0.276890 -0.239908 35 136 141
-0.573065 0.065886 0.537201 68 1 84
0.345554 -0.297532 -0.147445 68 1 84
-0.568195 -0.005373 0.183143 68 1 84
0.087629 -0.289450 -0.233756 38 127 142
0.049724 0.643413 -0.112174 70 49 126
0.172730 -0.053850 -0.217779 42 118 142
0.337216 -0.547754 -0.229143 68 55 129
-0.146094 0.194477 -0.316190 38 128 142
0.465222 0.164113 -0.019601 69 8 91
0.073709 0.630834 -0.126336 72 35 116
-0.152650 -0.516575 -0.261708 53 92 140
-0.478426 -0.209426 -0.041405 68 1 84
0.175957 -0.192249 -0.180187 46 107 142
-0.395672 0.478023 0.296008 68 1 84
0.551077 0.007024 0.059786 68 1 84
0.111946 0.051793 -0.327970 35 169 130
0.677678 -0.260795 0.279600 68 1 84
-0.633463 -0.092179 0.404412 68 1 84
-0.062367 -0.472371 -0.270580 51 97 141
-0.032853 -0.041472 -0.496590 53 92 140
-0.219096 0.147808 -0.247402 65 66 134
0.444899 -0.418951 -0.144605 68 1 84
0.390901 -0.505565 -0.202350 61 75 137
-0.145640 -0.204973 -0.212117 60 77 138
-0.113306 -0.232697 -0.240435 47 106 141
0.268778 0.408468 -0.125929 67 59 131
-0.267029 -0.012765 -0.186998 71 38 118
0.365372 0.086750 -0.137999 72 35 116
-0.186096 -0.059025 -0.212698 62 72 136
0.527330 0.313336 0.337732 68 1 84
-0.632838 -0.266829 0.499330 68 1 84
0.190451 0.088687 -0.226273 105 204 91
-0.127011 -0.486964 -0.259840 45 111 142
0.679586 -0.159482 0.471717 68 1 84
-0.469232 0.063314 -0.020754 68 1 84
-0.076270 -0.263464 -0.304333 51 96 141
0.510495 -0.127618 -0.040200 68 3 87
-0.112894 0.595050 -0.162080 65 65 134
-0.518214 -0.060786 0.009028 68 1 84
-0.343671 0.004859 -0.154713 69 6 90
-0.595389 0.035872 0.363541 68 1 84
-0.608759 -0.404993 0.261136 68 1 84
0.625542 -0.059909 0.200617 68 1 84
-0.115300 0.229599 -0.302765 32 143 140
0.105622 0.231579 -0.311262 134 212 73
0.612512 -0.045812 0.182956 68 1 84
-0.616005 -0.035940 0.353156 68 1 84
0.458920 -0.006618 -0.073113 68 1 84
0.699158 -0.264099 0.388180 68 1 84
0.199610 0.374738 -0.185263 62 72 136
-0.403603 0.146596 -0.099318 68 1 84
-0.589499 0.057729 0.317437 68 1 84
-0.467193 -0.242331 -0.034680 68 1 84
0.442891 0.434504 0.297008 68 1 84
0.598268 -0.392785 0.144793 68 1 84
0.502806 -0.423041 -0.090216 68 1 84
-0.656789 -0.273381 0.358235 68 1 84
0.620728 0.024923 0.488461 68 1 84
-0.293203 -0.382522 -0.146034 56 87 140
0.527169 0.050529 0.033119 68 1 84
-0.399239 0.332177 -0.042845 68 1 84
0.470643 -0.527867 -0.135576 47 106 141
0.270581 0.567882 0.031274 68 1 84
-0.402237 0.095355 -0.108159 68 1 84
-0.581186 0.119719 0.401915 68 1 84
0.120461 0.492355 -0.170231 71 18 101
-0.096592 -0.246428 -0.264723 67 58 131
0.357815 -0.184612 -0.123012 71 15 98
-0.003704 -0.123985 -0.467008 65 65 134
0.424298 0.445971 0.195894 68 1 84
-0.504759 0.285765 0.180173 68 1 84
-0.602546 -0.036007 0.489914 68 1 84
-0.500783 0.217211 0.097339 68 1 84
0.243183 0.575425 -0.017693 68 1 84
-0.617705 -0.128584 0.507468 68 1 84
-0.208468 0.030188 -0.209689 52 95 141
-0.399359 0.239015 -0.084266 68 1 84
0.081173 -0.151898 -0.325357 39 173 128
-0.533381 -0.138349 0.016430 68 1 84
0.420853 0.357904 0.026998 68 1 84
0.134386 0.021675 -0.324762 38 128 142
0.178401 -0.347349 -0.146892 54 91 140
-0.019960 0.392572 -0.237202 73 193 109
0.105655 -0.328274 -0.181342 31 147 139
0.581238 -0.438629 0.123955 68 1 84
-0.025710 -0.274998 -0.371791 56 87 140
0.304671 -0.316145 -0.156842 68 1 84
0.463956 0.056224 -0.053633 68 1 84
0.538788 -0.047583 0.012739 68 1 84
0.458273 0.348307 0.103203 68 1 84
0.283308 0.502151 -0.042915 68 1 84
0.377793 -0.095242 -0.130438 68 1 84
-0.403303 0.175812 -0.092949 68 1 84
-0.353417 0.367495 -0.082658 70 9 92
-0.442751 0.291456 0.015936 68 1 84
-0.143125 -0.454058 -0.224078 47 105 141
-0.555406 -0.060298 0.092278 68 1 84
-0.073123 0.406135 -0.222843 40 174 127
-0.541232 0.153452 0.177166 68 1 84
0.524113 -0.416705 -0.048701 55 89 140
-0.368679 -0.246059 -0.104786 68 1 84
0.417529 -0.448055 -0.174367 69 5 88
0.705876 -0.473290 0.458964 68 1 84
-0.472788 0.319282 0.123891 68 1 84
-0.579444 0.093836 0.462977 68 1 84
-0.402790 -0.127523 -0.113240 68 1 84
0.144094 0.628995 -0.091337 68 1 84
-0.392839 0.171229 -0.105621 68 1 84
0.654551 -0.058237 0.465055 68 1 84
0.619363 -0.155808 0.150905 68 1 84
0.316150 0.556367 0.134402 68 1 84
-0.561642 0.100337 0.217699 68 1 84
-0.332903 0.440903 -0.054366 68 1 84
-0.551318 0.132096 0.200326 68 1 84
-0.575411 0.151739 0.352363 68 1 84
-0.235425 0.013935 -0.199112 60 77 138
0.435582 0.432161 0.201987 68 1 84
0.393300 0.143688 -0.111876 72 25 107
0.557297 -0.021720 0.057893 68 1 84
0.647555 -0.187096 0.200631 68 1 84
-0.090839 -0.114198 -0.390110 67 58 131
0.458639 -0.442280 -0.146503 68 1 84
0.178218 0.154994 -0.257388 75 194 108
0.441473 0.303122 0.018945 68 1 84
0.370208 0.287081 -0.098540 66 62 133
-0.279728 -0.512544 -0.220362 63 71 136
-0.049890 0.270052 -0.314340 69 191 111
-0.648469 -0.288869 0.386200 68 1 84
-0.017628 -0.079913 -0.487695 59 81 138
0.425527 0.310520 -0.003644 69 6 90
-0.112591 -0.499432 -0.271337 52 95 141
0.267853 0.373267 -0.147386 69 53 128
0.462678 0.096802 -0.040669 68 1 84
-0.190021 0.045840 -0.220889 43 115 142
-0.110692 -0.273723 -0.207699 63 71 136
0.694894 -0.367313 0.373464 68 1 84
0.376888 -0.141062 -0.125830 71 15 98
-0.111213 0.549217 -0.190798 60 78 138
-0.420030 0.263707 -0.044243 68 1 84
0.401402 0.356710 -0.009512 68 1 84
-0.539091 0.238804 0.245148 68 1 84
0.605356 -0.421620 0.185884 68 1 84
-0.586353 0.089980 0.407866 68 1 84
-0.629460 -0.192668 0.486180 68 1 84
-0.565116 0.118429 0.240391 68 1 84
0.610115 0.018823 0.227643 68 1 84
0.650921 -0.339097 0.239552 68 1 84
-0.614394 -0.263866 0.213471 68 1 84
0.215019 0.617488 0.035644 68 1 84
-0.616579 -0.135951 0.517633 68 1 84
-0.472152 -0.373424 -0.035782 70 12 95
-0.302623 0.321235 -0.152883 60 78 138
-0.597897 0.016308 0.347111 68 1 84
0.038492 -0.230073 -0.381272 53 92 140
-0.157327 -0.064788 -0.230446 54 91 140
0.091919 0.431944 -0.201467 69 50 127
-0.330465 0.181795 -0.163591 72 34 115
0.069047 0.523422 -0.200545 54 91 140
-0.498130 -0.372863 0.000089 68 1 84
0.091764 0.189656 -0.326458 181 221 43
-0.500019 0.342246 0.453356 68 1 84
-0.551590 -0.178000 0.057203 68 1 84
0.650082 -0.041989 0.268092 68 1 84
0.076194 0.129607 -0.317015 253 231 36
0.296280 -0.238091 -0.155618 68 1 84
-0.583684 0.088460 0.430836 68 1 84
0.671527 -0.359395 0.292905 68 1 84
0.193242 -0.456396 -0.225499 51 96 141
0.223348 -0.519101 -0.263431 61 75 137
-0.288985 -0.504406 -0.212981 63 69 135
0.692319 -0.227984 0.470874 68 1 84
0.517687 -0.156498 -0.028389 68 1 84
0.214152 -0.479024 -0.238337 35 136 141
-0.062195 -0.318721 -0.293938 62 73 137
-0.256277 -0.469136 -0.203366 70 12 95
0.456678 -0.463630 -0.154940 68 1 84
0.467568 0.183479 -0.008733 71 18 101
0.453498 -0.269509 -0.040595 68 1 84
-0.623500 -0.474094 0.374938 68 1 84
-0.130219 -0.020570 -0.392704 63 69 135
0.706867 -0.385917 0.509069 68 1 84
-0.558915 0.209766 0.410262 68 1 84
-0.581209 -0.527452 0.253714 66 61 132
0.588743 -0.092513 0.097636 68 1 84
0.091545 0.489569 -0.189569 70 47 124
0.297555 0.329476 -0.150415 58 82 139
-0.037924 -0.139398 -0.447060 68 55 129
-0.627302 -0.219549 0.506011 68 1 84
0.338260 0.104504 -0.157140 71 40 120
-0.345092 0.061564 -0.154887 68 1 84
-0.305253 0.471617 -0.065224 69 5 88
-0.515102 0.287419 0.217118 68 1 84
0.584572 0.173827 0.380968 68 1 84
0.055245 -0.250470 -0.349133 62 188 115
0.573686 -0.450551 0.106119 68 3 87
0.090556 -0.003915 -0.409213 32 143 140
-0.639801 -0.198968 0.288025 68 1 84
-0.061230 -0.411682 -0.256447 45 111 142
-0.170061 -0.210783 -0.184451 71 17 99
-0.061638 -0.173659 -0.387128 65 66 134
-0.529944 -0.467853 0.051720 57 84 139
-0.064735 0.445748 -0.222926 34 138 141
-0.639355 -0.391380 0.338013 68 1 84
0.118566 0.626621 -0.111939 72 29 111
0.182011 0.611139 -0.074687 68 1 84
-0.510106 -0.365600 0.024837 71 24 106
-0.550637 0.081765 0.171506 68 1 84
0.290612 -0.250539 -0.163331 68 1 84
0.509589 -0.323083 -0.009929 68 1 84
0.701119 -0.390310 0.434133 68 1 84
-0.492215 0.288242 0.146026 68 1 84
0.238241 0.324974 -0.186514 53 93 140
-0.231489 0.604747 -0.054197 69 5 88
-0.288932 0.513272 -0.061164 68 2 85
-0.201229 0.058323 -0.218778 42 118 142
-0.550543 0.246773 0.361535 68 1 84
-0.231775 0.547929 -0.106738 70 14 97
-0.525221 -0.046262 0.029833 68 1 84
0.056094 -0.094449 -0.450325 38 128 142
-0.250651 -0.395340 -0.179167 59 80 138
-0.232889 0.154417 -0.239124 71 43 122
-0.641436 -0.091300 0.357130 68 1 84
-0.376679 0.405259 -0.012992 68 1 84
-0.256712 0.178058 -0.225637 63 71 136
-0.640978 -0.353214 0.307702 68 1 84
-0.555658 -0.404987 0.113458 53 92 140
0.537997 0.295580 0.397590 68 1 84
0.439340 0.438251 0.288172 68 1 84
-0.024708 -0.229155 -0.397854 63 71 136
0.594635 -0.006589 0.167093 68 1 84
0.620772 -0.092069 0.177054 68 1 84
0.583570 0.170714 0.479491 68 1 84
0.430508 0.444703 0.236726 68 1 84
0.655574 -0.131910 0.241756 68 1 84
0.582808 -0.055008 0.098373 68 1 84
0.205034 -0.176325 -0.170990 51 97 141
-0.427869 0.202741 -0.053951 68 1 84
-0.531945 0.182951 0.164585 68 1 84
-0.309667 0.126792 -0.177743 70 9 92
-0.317206 0.559543 0.157466 68 1 84
-0.260797 0.601607 0.004234 68 1 84
-0.249509 0.427958 -0.129549 71 44 123
0.578534 -0.154061 0.057858 68 1 84
0.583798 -0.069700 0.094153 68 1 84
0.383067 0.336758 -0.053038 71 37 117
-0.210455 -0.161061 -0.179248 72 30 112
-0.441408 -0.244883 -0.053612 68 1 84
0.214868 0.526791 -0.098815 69 8 91
0.291093 -0.488982 -0.229697 47 106 141
0.705624 -0.333487 0.509097 68 1 84
0.691697 -0.208720 0.409031 68 1 84
0.647951 -0.007739 0.334058 68 1 84
-0.209470 -0.336039 -0.141044 59 81 138
-0.424205 0.286948 -0.023707 68 1 84
-0.545198 -0.520372 0.120736 48 104 141
0.669278 -0.378949 0.297203 68 1 84
0.053229 0.011352 -0.424491 40 174 127
-0.507704 0.337109 0.333454 68 1 84
0.615182 -0.071223 0.173963 68 1 84
-0.274048 -0.345105 -0.141491 53 93 140
-0.109968 0.085525 -0.299281 43 116 142
-0.379182 0.275231 -0.100105 68 1 84
-0.128687 -0.026685 -0.395622 63 69 135
0.501721 0.346703 0.270685 68 1 84
-0.636630 -0.104702 0.309797 68 1 84
0.173988 -0.376515 -0.173367 49 100 141
0.224914 0.053283 -0.207776 39 126 142
-0.586810 -0.397472 0.194353 69 54 129
-0.387980 -0.025757 -0.124088 68 1 84
0.176101 -0.263686 -0.163408 50 98 141
-0.319637 0.350641 -0.125526 71 37 117
0.446096 -0.039963 -0.089475 68 1 84
-0.050189 0.439046 -0.226877 31 146 140
0.153863 -0.092855 -0.225243 36 134 141
0.231063 -0.349992 -0.157586 65 65 134
-0.522308 0.270695 0.219308 68 1 84
-0.501356 -0.532951 -0.028738 71 18 101
0.637349 -0.005744 0.438707 68 1 84
-0.513341 0.075567 0.059487 68 1 84
-0.352658 -0.117476 -0.137134 68 1 84
-0.512421 0.327895 0.426827 68 1 84
-0.492478 0.316027 0.185690 68 1 84
0.577473 0.197660 0.378888 68 1 84
0.026597 -0.127420 -0.453372 49 101 141
-0.116251 -0.501839 -0.271261 52 94 141
0.226017 0.548396 -0.074856 68 1 84
-0.023806 0.606411 -0.185801 44 114 142
-0.501422 0.337152 0.462671 68 1 84
0.517772 -0.486930 -0.061984 47 105 141
0.308426 0.547728 0.077397 68 1 84
-0.641369 -0.330287 0.452521 68 1 84
-0.221778 0.003171 -0.202162 61 74 137
0.411482 0.356902 0.008195 68 1 84
0.086713 -0.239651 -0.281995 47 106 141
-0.074316 0.034122 -0.348156 43 116 142
-0.301290 0.302630 -0.163262 67 58 131
0.583179 -0.387290 0.107200 68 1 84
-0.625096 -0.055319 0.378231 68 1 84
-0.369733 -0.027462 -0.136588 68 1 84
-0.177557 0.014046 -0.219847 46 108 142
-0.116874 0.000188 -0.400102 60 78 138
-0.200504 0.632786 -0.026347 69 8 91
0.319103 0.536719 0.076741 68 1 84
0.033430 0.129760 -0.348899 121 209 81
0.595470 -0.227149 0.097255 68 1 84
0.666717 -0.092309 0.311755 68 1 84
-0.643943 -0.353376 0.378060 68 1 84
-0.525835 0.293506 0.463822 68 1 84
0.083983 -0.288625 -0.245780 46 107 142
-0.175167 -0.083563 -0.217030 72 30 112
0.470249 0.242934 0.027500 68 1 84
0.447639 -0.310956 -0.055899 71 22 105
-0.548607 0.130771 0.190873 68 1 84
-0.009652 -0.378780 -0.298872 41 120 142
-0.535789 0.283753 0.347181 68 1 84
-0.278746 0.490664 -0.080697 68 1 84
-0.142818 -0.463955 -0.234018 59 81 138
-0.290015 -0.336051 -0.139963 62 73 137
0.287197 -0.303789 -0.160553 68 2 85
0.223671 0.229530 -0.232963 33 141 140
0.130764 0.030100 -0.331713 30 159 136
-0.066339 -0.141339 -0.412880 62 72 136
-0.491166 -0.418460 -0.051064 72 26 108
-0.490957 -0.377519 -0.015101 68 1 84
-0.480116 0.210883 0.045605 68 1 84
0.106711 -0.296213 -0.189166 32 143 140
-0.127360 -0.237649 -0.212677 61 76 137
-0.066641 -0.434613 -0.257823 52 94 141
0.372231 0.191461 -0.123815 70 49 126
-0.366502 0.410247 -0.025364 68 1 84
-0.467610 0.322738 0.110806 68 1 84
-0.139820 0.233602 -0.286114 36 134 141
0.447532 0.038925 -0.074780 68 1 84
0.597124 0.127749 0.435733 68 1 84
-0.578736 -0.460181 0.219226 61 75 137
0.113469 0.649446 -0.069795 68 1 84
0.121960 0.581045 -0.148258 71 43 122
0.227194 -0.441557 -0.212825 64 67 135
-0.197102 -0.052369 -0.207622 71 44 123
-0.662739 -0.249784 0.353790 68 1 84
0.029344 0.020509 -0.402431 35 168 131
-0.187544 -0.276421 -0.155761 71 21 103
0.598081 -0.026577 0.160904 68 1 84
0.556611 -0.373648 0.036012 72 33 114
-0.484350 -0.035494 -0.032135 68 1 84
0.362571 -0.332104 -0.135633 71 22 105
0.338743 0.352409 -0.103042 60 78 138
0.518000 0.027933 0.007606 68 1 84
-0.044086 -0.417856 -0.268385 54 90 140
0.010683 0.498590 -0.228815 39 125 142
0.297383 0.076073 -0.181259 63 71 136
0.265684 -0.108018 -0.164917 67 59 131
0.401782 0.276420 -0.063231 69 50 127
0.274377 0.540212 -0.015194 68 1 84
-0.227377 -0.203176 -0.159048 69 50 127
-0.311619 0.120347 -0.176107 68 1 84
-0.074644 0.015664 -0.446549 58 82 139
0.580577 -0.399138 0.105118 68 1 84
0.232012 0.548743 -0.067151 68 1 84
0.463198 -0.203016 -0.058438 68 1 84
-0.111385 -0.083619 -0.344365 49 100 141
0.247737 -0.239213 -0.161096 72 33 114
0.688136 -0.483803 0.400487 68 1 84
-0.073129 0.276786 -0.315035 41 175 127
0.451555 -0.253458 -0.045689 68 1 84
0.204714 0.504407 -0.116021 69 8 91
0.554850 0.086923 0.120554 68 1 84
-0.343683 -0.016647 -0.153364 68 1 84
0.364410 -0.363134 -0.175211 69 8 91
0.039957 0.014122 -0.390213 31 146 140
0.613159 0.055193 0.478470 68 1 84
0.590465 0.149592 0.470431 68 1 84
0.233350 0.606684 0.063358 68 1 84
-0.247701 -0.497458 -0.217961 71 37 117
0.426052 0.050876 -0.091204 68 1 84
-0.463563 -0.393263 -0.065607 69 53 128
0.021124 0.213292 -0.351633 194 223 34
-0.474924 0.101301 -0.002517 68 1 84
-0.233280 0.219361 -0.241489 59 80 138
0.106469 -0.472468 -0.263888 44 112 142
-0.173321 -0.120059 -0.211806 71 44 123
0.416032 -0.384386 -0.142740 69 5 88
-0.122992 0.449684 -0.193273 54 90 140
0.196984 -0.109521 -0.193887 41 121 142
0.472475 0.341768 0.134368 68 1 84
-0.329196 -0.402104 -0.177868 72 35 116
0.487298 0.345036 0.189022 68 1 84
-0.405768 -0.519809 -0.166924 52 95 141
0.639328 -0.389461 0.245053 68 1 84
0.524643 -0.079010 -0.017536 68 1 84
0.225971 -0.388697 -0.196904 58 83 139
-0.440199 0.352746 0.072576 68 1 84
-0.311837 -0.062688 -0.163560 68 1 84
0.005639 0.455360 -0.229287 36 133 141
0.694861 -0.374755 0.380159 68 1 84
-0.577667 0.063390 0.511678 68 1 84
-0.507912 0.178424 0.092319 68 1 84
-0.146605 -0.408955 -0.184180 48 103 141
0.099710 0.457807 -0.188507 69 53 128
-0.427905 0.136899 -0.071294 68 1 84
-0.642898 -0.340590 0.312223 68 1 84
0.600662 -0.071750 0.140514 68 1 84
-0.137327 0.446109 -0.185305 61 75 137
0.579621 0.176579 0.301443 68 1 84
-0.236861 -0.135385 -0.173879 70 14 97
0.505192 0.284197 0.148923 68 1 84
0.179748 0.570708 -0.113195 68 1 84
0.488308 0.335285 0.175428 68 1 84
-0.075363 -0.004693 -0.470169 62 72 136
0.504554 -0.056146 -0.037372 68 1 84
0.054728 0.309573 -0.311218 199 224 31
-0.220777 -0.085270 -0.191285 71 22 105
-0.470456 0.092051 -0.011477 68 1 84
-0.322787 0.055746 -0.168461 70 9 92
0.645953 -0.128018 0.218410 68 1 84
0.308377 -0.440422 -0.213881 63 71 136
0.184044 0.380867 -0.192994 45 110 142
0.464993 0.238146 0.013431 68 1 84
0.621222 -0.234448 0.151226 68 1 84
-0.407095 -0.560055 -0.161636 71 38 118
-0.456479 0.296708 0.050654 68 1 84
0.117680 0.315928 -0.270101 73 193 109
-0.194158 0.102331 -0.242744 51 97 141
0.583364 0.179855 0.424075 68 1 84
0.171079 -0.234383 -0.167810 35 136 141
-0.604502 -0.042846 0.279278 68 1 84
0.529414 0.314735 0.413726 68 1 84
-0.303239 0.567594 0.046156 68 1 84
0.238207 -0.195662 -0.159720 70 49 126
0.146471 0.525493 -0.149737 72 26 108
0.611126 -0.014429 0.202804 68 1 84
-0.390654 -0.523549 -0.176471 57 85 139
-0.305827 0.480819 -0.059226 68 1 84
-0.480994 -0.239814 -0.023666 68 1 84
-0.628184 -0.087229 0.416937 68 1 84
-0.401927 0.280239 -0.066346 68 1 84
-0.562575 0.191745 0.295077 68 1 84
0.636065 -0.016683 0.541191 68 1 84
-0.501922 -0.077131 -0.021607 68 1 84
-0.640953 -0.338164 0.463452 68 1 84
0.200559 0.576165 -0.087820 68 1 84
0.451792 0.108431 -0.051436 68 1 84
0.376846 -0.328911 -0.120777 71 37 117
0.610623 0.081009 0.432507 68 1 84
0.478682 0.379472 0.249948 68 1 84
0.567638 -0.091853 0.050514 68 1 84
0.580702 0.187992 0.443315 68 1 84
0.197444 0.251809 -0.244251 32 145 140
-0.493563 0.093099 0.026591 68 1 84
-0.028832 -0.374138 -0.293118 45 111 142
-0.505942 0.337899 0.436216 68 1 84
-0.105023 0.095603 -0.306720 41 120 142
0.239148 -0.264060 -0.168695 67 59 131
-0.534175 -0.450175 0.063891 39 126 142
-0.603105 -0.027740 0.290448 68 1 84
-0.646649 -0.316217 0.382972 68 1 84
0.471026 0.369596 0.179579 68 1 84
-0.488102 0.293621 0.139788 68 1 84
0.443003 -0.532327 -0.162503 69 5 88
0.162740 0.514322 -0.142042 71 24 106
-0.527780 -0.040437 0.038438 68 1 84
0.108844 -0.155861 -0.272062 33 141 140
-0.245723 -0.374926 -0.155718 49 100 141
-0.133903 0.198854 -0.324409 46 108 142
0.128547 0.048020 -0.260261 139 213 70
0.390539 0.484275 0.166472 68 1 84
-0.433206 -0.428730 -0.122857 68 1 84
0.650856 -0.054092 0.495260 68 1 84
-0.244463 -0.281070 -0.158221 68 1 84
0.582370 0.130249 0.246866 68 1 84
0.603812 0.107109 0.357699 68 1 84
0.686070 -0.492797 0.392150 68 1 84
0.309091 0.131680 -0.175610 67 60 132
-0.594189 0.004561 0.286199 68 1 84
0.705678 -0.331147 0.440894 68 1 84
0.319985 0.066594 -0.168381 60 77 138
0.079726 0.050310 -0.327534 116 208 84
-0.503875 -0.087629 -0.021564 68 1 84
-0.440733 0.308545 0.025670 68 1 84
-0.415635 0.451414 0.208336 68 1 84
-0.564173 -0.521060 0.183837 63 69 135
-0.437428 0.368200 0.088424 68 1 84
-0.577033 0.144357 0.349096 68 1 84
0.430360 -0.266921 -0.061072 68 1 84
-0.443198 -0.315755 -0.029308 71 39 119
0.224606 -0.371893 -0.171613 56 87 140
0.429304 0.340261 0.027952 68 1 84
0.576105 0.032819 0.142250 68 1 84
-0.143703 -0.026962 -0.343725 49 100 141
-0.305197 0.571868 0.131821 68 1 84
0.621107 -0.113263 0.169770 68 1 84
0.603703 0.110029 0.405154 68 1 84
-0.596777 -0.132866 0.196555 68 1 84
0.696094 -0.243412 0.424594 68 1 84
0.524510 0.091597 0.046550 71 18 101
0.248771 0.561421 -0.029730 68 1 84
-0.149310 -0.475970 -0.241043 39 126 142
0.486416 -0.414560 -0.107119 68 1 84
-0.101896 0.527302 -0.202846 56 86 139
0.665156 -0.104446 0.528262 68 1 84
-0.326487 0.551040 0.088515 68 1 84
-0.497204 -0.389869 -0.016004 68 1 84
0.710056 -0.487098 0.508482 68 1 84
-0.531089 0.280785 0.279052 68 1 84
-0.628688 -0.138884 0.454362 68 1 84
-0.048961 0.315010 -0.321993 146 215 65
-0.598422 0.019534 0.364827 68 1 84
-0.172903 0.634194 -0.066254 72 35 116
-0.570865 0.001535 0.199075 68 1 84
0.334227 -0.231774 -0.138531 71 21 103
0.298046 -0.078200 -0.160475 72 28 110
-0.458287 0.233951 0.010961 68 1 84
0.527358 -0.331703 0.005335 67 58 131
-0.417218 0.031951 -0.097752 68 1 84
0.057554 -0.415599 -0.265548 30 159 136
-0.353082 -0.175262 -0.127990 68 1 84
0.683343 -0.169059 0.441333 68 1 84
-0.241824 0.575423 -0.080140 68 1 84
0.291508 0.119800 -0.185710 50 99 141
-0.447577 0.382229 0.148394 68 1 84
0.078103 0.264079 -0.286052 215 226 25
-0.020962 -0.176048 -0.431332 66 61 132
0.662825 -0.064890 0.394891 68 1 84
-0.547046 0.178886 0.536041 68 1 84
0.206227 0.524002 -0.107934 68 1 84
0.626904 0.002125 0.250986 68 1 84
0.585646 0.166271 0.476616 68 1 84
-0.570903 -0.422359 0.160693 56 86 139
-0.531117 -0.510948 0.068142 44 114 142
-0.637870 -0.313387 0.288051 68 1 84
-0.425781 -0.377731 -0.079852 68 1 84
0.604842 0.038937 0.232535 68 1 84
0.349231 0.074343 -0.150002 71 39 119
0.203738 0.301426 -0.205757 36 132 141
0.666736 -0.080877 0.348532 68 1 84
0.463344 0.019373 -0.064692 68 1 84
0.221909 0.215324 -0.234877 31 146 140
0.257068 0.551280 -0.029761 68 1 84
-0.041592 0.040144 -0.403038 31 146 140
0.312237 0.463279 -0.040488 71 18 101
0.346650 -0.468687 -0.209991 64 67 135
-0.478632 -0.467956 -0.096555 66 61 132
-0.394907 0.335390 -0.048181 68 1 84
0.436784 0.440995 0.373168 68 1 84
0.709772 -0.444215 0.486784 68 1 84
0.533432 0.195279 0.139787 68 1 84
0.514894 0.059520 0.016072 68 1 84
-0.418906 -0.375462 -0.082327 70 9 92
-0.105534 -0.265715 -0.225169 61 76 137
0.699456 -0.313749 0.348278 68 1 84
0.545845 0.279961 0.439652 68 1 84
0.512872 0.345839 0.405137 68 1 84
0.704418 -0.310270 0.468404 68 1 84
-0.564086 0.201138 0.347461 68 1 84
0.335361 -0.181598 -0.133653 68 1 84
-0.165504 -0.373440 -0.151285 70 49 126
-0.027913 0.014458 -0.480399 30 160 135
-0.631341 -0.380713 0.295858 68 1 84
-0.376285 -0.052387 -0.130534 68 1 84
0.086459 0.293513 -0.290837 165 218 53
-0.442007 -0.252716 -0.049836 68 1 84
-0.163243 -0.060590 -0.225964 58 83 139
0.465144 0.364887 0.149181 68 1 84
0.659975 -0.055834 0.335552 68 1 84
-0.423763 -0.204561 -0.083105 68 1 84
-0.067859 -0.287984 -0.309243 60 77 138
-0.124077 0.065151 -0.296668 46 109 142
0.003777 0.370613 -0.256675 218 226 24
-0.428307 -0.394974 -0.098978 71 22 105
-0.635954 -0.198054 0.265902 68 1 84
-0.498567 -0.285949 0.019406 70 14 97
0.633822 -0.364788 0.217142 68 1 84
-0.508460 -0.136140 -0.022885 68 1 84
0.182396 -0.421411 -0.203605 63 69 135
-0.086380 0.113790 -0.331280 44 113 142
0.632326 0.005774 0.277529 68 1 84
-0.528259 0.272685 0.247249 68 1 84
-0.506581 0.125489 0.064271 68 1 84
-0.098456 -0.122480 -0.336255 39 124 142
0.131777 0.035019 -0.321836 32 143 140
0.343640 0.513330 0.084561 68 1 84
-0.359728 0.121198 -0.143140 69 6 90
-0.172185 -0.113657 -0.214341 72 25 107
0.329683 0.524099 0.073015 68 1 84
0.670133 -0.310615 0.261139 68 1 84
-0.139301 0.230129 -0.292105 46 108 142
-0.066233 0.592659 -0.186713 48 103 141
0.094502 0.234422 -0.312311 194 223 34
0.313282 0.335967 -0.135252 72 33 114
0.583838 0.109601 0.236404 68 1 84
0.556954 -0.442717 0.052294 61 75 137
-0.628508 -0.318317 0.258650 68 1 84
-0.642233 -0.382251 0.342393 68 1 84
-0.345641 0.532260 0.147748 68 1 84
-0.182972 -0.481441 -0.227079 64 67 135
-0.574377 -0.531734 0.231756 66 62 133
-0.525855 -0.351057 0.052950 61 75 137
-0.201321 -0.462860 -0.204861 60 77 138
0.408103 -0.124639 -0.114984 72 34 115
-0.435953 -0.542454 -0.139210 72 32 113
-0.228601 -0.547909 -0.249430 67 59 131
0.665025 -0.107278 0.278299 68 1 84
0.677556 -0.156709 0.499688 68 1 84
0.258025 0.247631 -0.208119 40 122 142
0.317076 0.196080 -0.164782 61 76 137
0.350991 0.150186 -0.145747 71 42 121
-0.579693 -0.222381 0.126066 68 1 84
-0.455890 -0.169125 -0.073224 68 1 84
0.007911 0.239887 -0.318241 103 204 92
-0.635337 -0.296590 0.506278 68 1 84
-0.137351 0.608053 -0.134098 71 42 121
-0.232732 0.590969 -0.074931 68 1 84
-0.031399 -0.422094 -0.275101 62 73 137
-0.656049 -0.270228 0.363502 68 1 84
-0.144892 0.067686 -0.260703 46 108 142
0.156318 -0.316870 -0.148242 35 137 141
0.191834 0.382509 -0.186768 57 85 139
-0.260632 -0.568261 -0.242819 72 34 115
0.322838 0.510796 0.032459 68 1 84
-0.486124 0.283358 0.118899 68 1 84
0.262325 0.446892 -0.104190 71 40 120
0.525595 -0.420145 -0.046863 56 87 140
-0.633211 -0.069884 0.360628 68 1 84
0.458978 0.413863 0.291507 68 1 84
0.677880 -0.166418 0.300524 68 1 84
0.634128 0.025335 0.329203 68 1 84
0.250601 -0.491766 -0.239066 36 133 141
0.501142 0.228075 0.083423 68 1 84
-0.479733 -0.011646 -0.030576 68 1 84
0.091629 0.439782 -0.197918 70 45 124
0.703370 -0.306376 0.388230 68 1 84
0.442695 0.254094 -0.016648 69 8 91
-0.082350 0.334296 -0.300539 47 179 123
0.125150 0.609276 -0.126260 71 15 98
-0.552219 0.132206 0.203306 68 1 84
0.094374 -0.081321 -0.329565 41 175 127
-0.522736 -0.257299 0.034419 71 40 120
0.645376 -0.097294 0.228815 68 1 84
0.560496 0.243313 0.433254 68 1 84
-0.598361 -0.042213 0.515864 68 1 84
0.585223 -0.310829 0.092833 68 1 84
-0.440675 -0.503360 -0.139055 72 34 115
0.230087 -0.082306 -0.184903 46 107 142
0.241121 -0.053042 -0.188083 53 93 140
-0.165878 -0.505395 -0.251788 49 102 141
-0.309692 0.449499 -0.075285 68 1 84
-0.583147 0.084028 0.297285 68 1 84
-0.580710 0.128887 0.381888 68 1 84
0.410443 0.432208 0.101848 68 1 84
0.028573 0.425485 -0.223489 41 120 142
-0.155577 -0.010860 -0.286513 59 80 138
0.173854 -0.464016 -0.236204 43 116 142
-0.237015 0.243971 -0.226437 53 92 140
0.334745 -0.517377 -0.228786 57 84 139
-0.547121 -0.409324 0.092723 39 125 142
0.409932 0.134578 -0.096693 71 18 101
0.186390 -0.249584 -0.163105 42 119 142
-0.235589 -0.137824 -0.173963 72 29 111
0.415624 0.383681 0.040509 68 1 84
0.688359 -0.208873 0.513374 68 1 84
-0.604589 -0.248454 0.191969 68 1 84
-0.562334 0.198345 0.403175 68 1 84
0.543210 0.284919 0.421511 68 1 84
-0.583363 -0.482210 0.263755 66 61 132
-0.357804 0.255585 -0.128123 68 1 84
-0.172056 0.524007 -0.158268 71 40 120
0.052556 0.018735 -0.358820 30 160 135
-0.085437 -0.191076 -0.315827 53 93 140
-0.079905 -0.318548 -0.236156 39 124 142
0.091939 -0.324236 -0.199483 31 148 139
0.572202 0.208168 0.466312 68 1 84
0.380332 -0.510421 -0.208346 55 89 140
-0.580810 0.090896 0.290191 68 1 84
0.435722 0.331308 0.032646 68 1 84
0.671715 -0.456435 0.343532 68 1 84
-0.486430 -0.006663 -0.019757 68 1 84
0.552997 0.256939 0.321063 68 1 84
-0.644996 -0.514457 0.527115 68 1 84
-0.544638 0.150546 0.187586 68 1 84
-0.433654 0.017996 -0.081192 68 1 84
0.315067 0.035220 -0.169441 64 68 135
-0.638738 -0.427656 0.426280 68 1 84
-0.523267 -0.480214 0.026604 49 101 141
-0.485311 -0.056648 -0.037783 68 1 84
-0.408320 0.226920 -0.075315 68 1 84
-0.640812 -0.139628 0.316499 68 1 84
0.536263 -0.289368 0.024554 68 1 84
-0.581104 -0.096234 0.168346 68 1 84
-0.401551 0.021354 -0.112897 68 1 84
0.679891 -0.314920 0.284499 68 1 84
-0.101132 0.235085 -0.301748 34 138 141
0.542750 -0.107303 0.003952 68 1 84
-0.206709 -0.170925 -0.178139 70 12 95
-0.316409 0.109238 -0.172531 70 9 92
-0.087447 -0.054837 -0.465903 68 55 129
-0.474747 0.297969 0.100015 68 1 84
-0.340611 0.405544 -0.071207 68 1 84
0.042837 -0.278839 -0.356240 41 120 142
-0.079427 0.003360 -0.458091 56 86 139
0.333850 0.337710 -0.115870 63 71 136
0.533763 0.080452 0.060331 68 1 84
-0.502840 -0.165539 -0.028705 68 1 84
0.560294 0.193319 0.231109 68 1 84
-0.492557 0.025878 0.002593 68 1 84
-0.253127 0.188413 -0.230013 67 60 132
-0.555250 -0.311780 0.094593 64 68 135
0.057252 -0.148725 -0.397073 31 147 139
0.704943 -0.337606 0.474274 68 1 84
-0.644604 -0.469931 0.486228 68 1 84
0.552472 0.263660 0.451654 68 1 84
0.544960 0.233121 0.223395 68 1 84
-0.102595 -0.197078 -0.282179 53 92 140
0.455489 -0.398861 -0.124393 68 1 84
0.590668 -0.103833 0.098108 68 1 84
0.087346 -0.052874 -0.421782 46 108 142
0.556331 0.119154 0.149084 68 1 84
