ply
format ascii 1.0
element vertex 1261
property float x
property float y
property float z
property uchar red
property uchar green
property uchar blue
end_header
0.626784 -0.422104 0.299422 34 167 132
0.540588 0.185650 0.157346 71 20 102
0.402191 -0.285169 -0.102002 67 58 131
0.351217 -0.153020 -0.171388 68 1 84
0.336968 0.417821 -0.040684 54 90 140
-0.391827 -0.187132 -0.129348 72 35 116
0.275480 -0.359558 -0.204024 68 1 84
0.580553 0.122968 0.291561 59 80 138
0.640477 -0.460728 0.389363 129 211 76
0.004746 0.206792 -0.292036 68 1 84
0.614278 -0.150734 0.174804 71 40 120
-0.169331 0.009996 -0.222678 68 1 84
0.422155 0.440379 0.151630 71 21 103
0.206110 -0.316876 -0.180921 68 1 84
0.093959 0.322598 -0.226182 68 1 84
0.589383 0.044047 0.220914 45 110 142
0.289295 0.527252 0.044405 54 184 119
0.640917 -0.492971 0.379748 157 217 58
-0.169536 0.557650 -0.097143 131 211 75
0.634482 -0.242711 0.457025 165 218 53
-0.716531 -0.509315 0.414769 75 194 108
0.367741 0.488010 0.119571 68 1 84
0.244612 0.485889 -0.090627 52 95 141
0.077391 -0.011485 -0.367280 68 1 84
-0.499263 -0.392580 -0.104312 72 34 115
-0.174264 -0.370206 -0.177485 71 43 122
0.129565 -0.122043 -0.247982 68 1 84
0.264021 -0.396766 -0.224526 68 1 84
0.111236 -0.089911 -0.268034 68 1 84
0.310402 0.530364 0.118032 70 45 124
-0.581392 -0.194323 0.018376 68 57 130
0.501380 -0.299040 -0.034567 63 69 135
0.354885 -0.463897 -0.238618 68 1 84
-0.311347 0.287637 -0.135387 68 1 84
0.376546 0.219777 -0.106989 68 1 84
0.524746 -0.307047 -0.007551 54 91 140
-0.079720 -0.012981 -0.402058 68 1 84
0.292493 0.475943 -0.037870 44 114 142
0.465653 0.409333 0.318777 70 11 94
0.035183 -0.037620 -0.460674 68 1 84
-0.276244 0.478519 -0.041407 35 136 141
0.488320 0.230910 0.050121 68 1 84
0.353239 -0.125364 -0.178625 68 1 84
0.636598 -0.189611 0.357930 36 133 141
0.502260 0.356726 0.330485 50 98 141
-0.073659 -0.212469 -0.339513 68 1 84
0.247483 -0.111400 -0.207407 68 1 84
-0.381120 0.470182 0.162080 68 1 84
-0.631937 -0.098596 0.213982 31 146 140
-0.186451 -0.400433 -0.213142 67 60 132
0.620422 -0.042703 0.362169 40 122 142
-0.613076 0.037334 0.355406 46 107 142
-0.524373 -0.003848 -0.043660 60 78 138
0.366906 0.301283 -0.081262 68 1 84
-0.206039 0.144945 -0.222803 68 1 84
-0.577859 -0.222525 0.015843 72 25 107
0.139848 -0.116045 -0.241482 68 1 84
-0.201340 0.305716 -0.161875 68 1 84
0.610550 -0.030412 0.248460 39 126 142
-0.513215 0.024065 -0.047258 68 57 130
-0.657365 -0.200950 0.472213 61 187 116
0.095141 0.554336 -0.185724 31 146 140
-0.220251 -0.312844 -0.168400 68 1 84
0.182302 -0.343740 -0.186901 68 1 84
-0.641088 -0.230779 0.181648 66 62 133
-0.657763 -0.181630 0.265207 51 96 141
0.367088 -0.140394 -0.169705 68 1 84
0.452949 0.227642 -0.010536 68 1 84
0.291547 -0.407470 -0.223928 68 1 84
0.618052 -0.043566 0.295866 40 122 142
0.030409 0.016605 -0.380413 68 1 84
0.605489 -0.047428 0.208678 53 93 140
0.538053 -0.497763 0.026976 30 160 135
0.367791 0.020643 -0.178215 68 1 84
-0.474813 0.362949 0.287319 68 1 84
-0.456666 -0.141144 -0.116032 68 1 84
-0.479000 -0.266881 -0.061184 63 69 135
0.370963 -0.443098 -0.219519 72 28 110
-0.093680 -0.298846 -0.246139 68 1 84
-0.315726 0.122721 -0.191284 68 1 84
0.137006 0.213235 -0.231689 68 1 84
0.437433 -0.018881 -0.123034 68 1 84
-0.013665 0.028279 -0.390332 68 1 84
0.200120 0.046346 -0.219785 68 1 84
-0.545249 0.231096 0.375426 68 1 84
-0.429943 0.421388 0.291326 68 1 84
0.568989 -0.018891 0.091768 68 1 84
0.466233 0.384629 0.165460 71 18 101
-0.607482 -0.414787 0.092400 46 108 142
-0.629626 -0.386668 0.159004 60 77 138
0.011098 0.475295 -0.219269 51 182 121
-0.493046 0.193188 0.032876 71 17 99
-0.093897 -0.114620 -0.373305 68 1 84
-0.590603 -0.365073 0.054863 71 24 106
-0.111106 0.138006 -0.262074 68 1 84
0.152749 -0.164903 -0.212111 68 1 84
0.340108 0.391380 -0.058387 71 40 120
-0.573350 0.031921 0.108092 51 96 141
0.440410 0.359558 0.052615 68 1 84
-0.076440 0.433190 -0.193885 85 198 102
-0.216689 -0.373489 -0.187881 67 60 132
0.612974 -0.237672 0.167705 37 131 141
-0.631096 -0.042570 0.393887 36 133 141
0.144856 -0.072594 -0.240587 68 1 84
-0.147281 -0.429877 -0.283897 71 20 102
0.052794 0.566930 -0.184660 32 143 140
-0.517752 0.244739 0.489424 30 151 138
-0.396242 0.331449 -0.030763 59 80 138
0.275465 0.238003 -0.175295 68 1 84
-0.113613 0.600134 -0.088871 68 1 84
-0.602000 -0.367003 0.079256 70 47 124
-0.467449 0.130759 -0.058615 70 14 97
-0.156785 0.241647 -0.187834 68 1 84
-0.335936 -0.345115 -0.186754 69 6 90
0.123102 0.260429 -0.216554 68 1 84
-0.176335 0.535454 -0.112911 246 230 31
0.479511 -0.091093 -0.097683 68 1 84
-0.254139 -0.290464 -0.171932 68 1 84
-0.591249 -0.123572 0.036575 62 72 136
0.626724 -0.305478 0.245277 38 128 142
0.639569 -0.505580 0.367196 154 216 60
-0.006167 0.373154 -0.201256 68 1 84
0.068520 -0.002373 -0.335153 68 1 84
-0.625278 -0.301027 0.138119 67 58 131
0.576964 -0.161426 0.039869 71 43 122
-0.325529 0.202746 -0.158817 68 1 84
0.468385 0.056874 -0.066519 68 1 84
0.122509 -0.005062 -0.274016 68 1 84
-0.079980 -0.082197 -0.432236 68 1 84
-0.114915 -0.027314 -0.355498 68 1 84
0.149827 -0.022841 -0.228793 68 1 84
0.601937 0.066231 0.309760 43 115 142
-0.068308 0.391602 -0.191736 50 99 141
-0.277273 0.237803 -0.172402 68 1 84
0.622364 -0.239348 0.197349 44 113 142
-0.553691 -0.156950 -0.023139 67 60 132
-0.124663 -0.079736 -0.274145 68 1 84
-0.238517 0.343884 -0.138531 50 98 141
-0.552010 0.027956 0.027022 70 49 126
-0.659109 -0.178009 0.395884 30 153 138
0.611848 -0.060875 0.468891 121 209 81
-0.008636 -0.157253 -0.426352 68 1 84
-0.606938 0.062999 0.316816 47 105 141
-0.115196 -0.198930 -0.261591 68 1 84
0.567681 -0.045968 0.058028 68 1 84
0.639580 -0.339056 0.468707 228 227 24
-0.655600 -0.141809 0.321800 39 124 142
0.617245 -0.027876 0.325413 45 111 142
-0.070846 0.614592 -0.091228 68 1 84
0.190145 0.230464 -0.180543 68 1 84
-0.588143 -0.297848 0.043232 70 48 125
-0.230726 0.252311 -0.179767 68 1 84
0.574885 0.135201 0.266955 67 58 131
0.223870 0.300926 -0.161580 68 1 84
-0.472027 0.106907 -0.064890 68 1 84
-0.509368 0.259064 0.498109 33 142 140
0.634684 -0.242174 0.266578 32 144 140
-0.572452 0.169553 0.355361 64 68 135
-0.270281 0.494918 -0.028435 30 155 137
0.529271 0.265152 0.205003 71 43 122
0.546917 -0.245286 0.003707 47 105 141
0.441314 0.436874 0.248363 68 1 84
0.093217 0.317614 -0.229983 68 1 84
0.364700 0.158365 -0.145603 68 1 84
0.551134 -0.183450 -0.005412 63 71 136
-0.388326 -0.241684 -0.120583 68 1 84
0.535301 0.284774 0.351833 43 115 142
-0.664615 -0.340312 0.248078 68 57 130
0.116678 0.258073 -0.222208 68 1 84
0.621675 -0.091400 0.306955 41 121 142
-0.083180 -0.098884 -0.418036 68 1 84
-0.447366 0.258621 -0.008141 66 64 133
0.115579 0.231710 -0.222117 68 1 84
0.582261 -0.512132 0.134978 87 198 101
0.312386 0.014316 -0.208501 68 1 84
-0.385525 0.068643 -0.177790 68 1 84
0.557996 -0.088677 0.011508 71 17 99
0.621289 -0.082445 0.325566 42 117 142
0.425013 0.233497 -0.043923 68 1 84
0.362716 0.502013 0.178353 68 1 84
-0.563179 -0.273454 0.005046 59 81 138
-0.679991 -0.293568 0.355717 57 85 139
0.639893 -0.390676 0.423590 162 218 55
0.636163 -0.174075 0.422187 94 201 97
0.639208 -0.398013 0.404757 112 206 86
0.437498 0.367305 0.054912 68 1 84
-0.061974 0.511982 -0.206718 61 187 116
-0.246321 0.366199 -0.126418 63 69 135
-0.496678 0.298511 0.473662 50 98 141
-0.444931 0.392313 0.382294 68 1 84
-0.411878 0.442131 0.237108 64 67 135
-0.029444 0.064409 -0.318725 68 1 84
0.518664 0.000467 -0.020287 68 1 84
0.021153 0.415503 -0.199310 33 141 140
0.516999 0.250088 0.135540 71 15 98
-0.665311 -0.234626 0.273258 46 109 142
0.354503 -0.502299 -0.240930 71 40 120
-0.552021 0.190107 0.424382 58 82 139
-0.511367 0.264614 0.483486 40 122 142
-0.644400 -0.260261 0.186947 71 43 122
0.255878 0.371373 -0.129010 70 11 94
0.314623 0.409273 -0.070914 70 48 125
0.636812 -0.267312 0.396082 98 202 95
-0.669577 -0.250866 0.431558 32 164 133
-0.520106 0.219063 0.125375 67 60 132
-0.484987 0.344748 0.207015 68 1 84
0.282455 -0.331003 -0.177820 68 1 84
0.337158 0.491879 0.057278 67 60 132
0.074351 0.159700 -0.288375 68 1 84
-0.013674 -0.116092 -0.452554 68 1 84
-0.140694 -0.145451 -0.253256 68 1 84
0.482690 0.300960 0.086298 68 1 84
-0.574224 -0.478531 0.015810 53 93 140
0.404956 0.080169 -0.136297 68 1 84
-0.166365 0.573043 -0.074001 30 155 137
0.073340 -0.005745 -0.344430 68 1 84
0.375668 -0.314978 -0.121047 68 2 85
-0.105400 0.470405 -0.189128 146 215 65
0.364459 -0.027990 -0.181668 68 1 84
0.596344 0.032867 0.462576 139 213 70
0.546478 0.232914 0.246797 71 24 106
0.433219 0.437515 0.193466 68 1 84
-0.266397 -0.007281 -0.226643 68 1 84
-0.268662 0.514167 0.004142 32 144 140
-0.656258 -0.200757 0.496953 146 215 65
0.560511 -0.014034 0.065040 68 1 84
-0.476581 -0.444161 -0.146434 61 74 137
0.158556 -0.097890 -0.235219 68 1 84
0.554908 -0.467365 0.060155 33 166 133
0.597310 -0.302076 0.130462 39 125 142
-0.574456 0.132108 0.274846 48 103 141
-0.357056 0.270255 -0.109382 68 1 84
-0.086667 0.383107 -0.191490 68 57 130
-0.618328 -0.144274 0.108428 46 109 142
0.321629 0.507848 0.062374 67 58 131
-0.676366 -0.396378 0.280040 54 91 140
-0.594230 -0.022858 0.111224 56 86 139
0.445458 -0.040100 -0.119619 68 1 84
0.544544 0.167312 0.156273 71 38 118
0.553411 -0.108428 -0.001646 70 49 126
-0.192573 -0.126787 -0.217178 68 1 84
0.443184 -0.514357 -0.124164 68 1 84
-0.633013 -0.111654 0.172358 53 93 140
0.448629 -0.066330 -0.122305 68 1 84
-0.603282 -0.087068 0.080819 52 95 141
0.559416 -0.388487 0.063930 34 138 141
0.308066 0.399424 -0.083595 69 50 127
0.563625 -0.036312 0.053699 68 1 84
0.549282 -0.075362 -0.001233 72 29 111
-0.188607 0.501777 -0.119412 64 189 114
0.405417 -0.487619 -0.186491 50 99 141
-0.690252 -0.342216 0.400754 49 102 141
0.582382 -0.419161 0.127077 38 127 142
0.167776 0.207437 -0.217189 68 1 84
-0.447902 0.191477 -0.050582 68 1 84
0.083504 0.027164 -0.275086 68 1 84
-0.645221 -0.141223 0.499785 139 213 70
-0.187043 -0.309564 -0.157631 68 1 84
-0.112466 -0.093256 -0.295728 68 1 84
0.468569 -0.359482 -0.074765 66 62 133
0.035358 0.089507 -0.299725 68 1 84
-0.123845 0.570531 -0.137319 53 183 120
0.190439 -0.417657 -0.237179 68 1 84
0.515087 0.319860 0.292862 61 75 137
0.494906 0.189510 0.041750 68 1 84
-0.513928 -0.422894 -0.087824 50 98 141
-0.339392 0.314638 -0.102451 68 2 85
-0.349291 -0.172825 -0.149389 68 1 84
-0.559606 -0.487843 -0.011780 55 89 140
0.201650 -0.034769 -0.230605 68 1 84
-0.499651 -0.164718 -0.075215 69 53 128
0.070581 -0.016110 -0.401876 68 1 84
-0.248834 0.092697 -0.211482 68 1 84
0.573120 0.114520 0.469513 146 215 65
-0.203085 -0.478311 -0.292972 68 1 84
0.530610 -0.540709 0.012887 37 130 142
0.535573 0.113296 0.093196 68 1 84
0.431942 -0.435419 -0.155614 62 72 136
0.156292 0.146657 -0.238820 68 1 84
0.019717 -0.011209 -0.450875 68 1 84
-0.360492 0.199738 -0.140415 71 24 106
0.074317 -0.058954 -0.435723 68 1 84
-0.671337 -0.314933 0.274649 53 93 140
0.230833 0.303911 -0.159089 68 1 84
-0.617950 -0.473752 0.110521 49 102 141
0.492893 -0.380379 -0.046678 72 34 115
-0.389910 0.443287 0.082319 72 34 115
-0.512002 -0.231880 -0.043395 61 75 137
0.589513 0.104906 0.306984 35 135 141
-0.373641 0.413591 0.008163 57 84 139
0.175203 0.414303 -0.159073 64 67 135
0.626127 -0.332144 0.252120 30 160 135
-0.040860 -0.212621 -0.375959 68 1 84
-0.622313 -0.009752 0.378564 55 88 140
0.548348 -0.071965 -0.001748 72 35 116
0.238810 0.550051 -0.009465 38 129 142
-0.581473 0.010784 0.108870 65 65 134
-0.546726 -0.336603 -0.018289 68 57 130
-0.420236 0.432221 0.290306 68 1 84
-0.571742 0.008955 0.063326 62 72 136
-0.301762 -0.493392 -0.276810 68 1 84
0.183756 -0.285465 -0.189671 68 1 84
-0.462452 0.287657 0.036224 46 108 142
0.606526 0.026724 0.305316 45 111 142
-0.472938 -0.244076 -0.065857 62 73 137
0.119051 0.292428 -0.222702 68 1 84
-0.528117 -0.392049 -0.059047 58 82 139
-0.484607 0.210483 0.027290 70 12 95
-0.628335 -0.233205 0.137599 45 110 142
-0.414171 0.355717 0.010239 56 87 140
0.130061 0.266527 -0.211624 68 1 84
-0.662204 -0.196589 0.284344 46 108 142
0.573224 0.130685 0.247663 55 89 140
0.560026 0.198267 0.299763 70 47 124
0.594176 -0.491599 0.169163 35 168 131
0.612142 -0.191372 0.154830 65 65 134
0.052235 0.010586 -0.324874 68 1 84
-0.078536 -0.114497 -0.412051 68 1 84
-0.500248 -0.068478 -0.089207 70 12 95
-0.463535 -0.059596 -0.123778 68 1 84
0.426682 -0.143585 -0.140504 68 1 84
0.597534 0.019794 0.231215 44 112 142
0.492319 0.312222 0.125495 70 45 124
-0.165192 -0.160314 -0.218809 68 1 84
-0.064986 0.464886 -0.205972 62 188 115
0.364589 0.268418 -0.098751 68 1 84
-0.627369 -0.305535 0.144910 59 81 138
0.090180 -0.035924 -0.397839 68 1 84
0.632418 -0.265014 0.250188 33 141 140
0.365126 0.055618 -0.174860 68 1 84
0.265666 -0.260411 -0.189401 68 1 84
-0.633018 -0.319350 0.161552 67 60 132
-0.537957 0.246590 0.378716 72 28 110
0.046564 0.613335 -0.107302 55 89 140
-0.462983 0.209691 -0.014522 69 6 90
-0.311350 0.270500 -0.142435 72 30 112
-0.318439 0.202710 -0.162376 68 1 84
-0.622534 -0.030851 0.252333 42 117 142
0.516433 0.271089 0.155444 68 1 84
-0.571485 -0.072207 0.009717 71 39 119
0.260396 0.515577 -0.034718 59 80 138
-0.314873 0.518723 0.165514 70 49 126
0.295839 0.225768 -0.169260 68 1 84
-0.212552 0.024583 -0.224151 68 1 84
0.612079 -0.113223 0.182400 60 77 138
0.440795 -0.107961 -0.132307 68 1 84
-0.234185 0.200166 -0.205221 68 1 84
-0.637808 -0.161632 0.167882 52 95 141
0.326257 -0.336036 -0.165777 68 1 84
-0.116289 0.028777 -0.274728 68 1 84
-0.117239 -0.351775 -0.195428 69 52 127
0.324236 -0.434455 -0.237993 68 1 84
-0.428047 0.392011 0.077666 68 1 84
0.038192 0.617504 -0.086881 71 37 117
-0.328105 -0.383970 -0.210130 68 3 87
0.637186 -0.210125 0.363693 30 152 138
0.527113 -0.375128 0.005475 51 97 141
-0.115866 -0.007288 -0.349694 68 1 84
-0.716754 -0.545252 0.431135 98 202 95
-0.359971 0.469825 0.077544 48 103 141
-0.292952 0.529918 0.133197 66 61 132
-0.390780 -0.221443 -0.119616 70 12 95
-0.308863 -0.164548 -0.159235 68 1 84
-0.534750 0.154671 0.114873 59 81 138
0.148831 0.105838 -0.236053 68 1 84
0.287897 0.503178 -0.006045 56 185 118
0.393925 -0.246001 -0.118201 72 34 115
-0.382221 0.176885 -0.135878 71 17 99
0.317296 -0.336755 -0.171705 68 1 84
0.346831 -0.278606 -0.140873 68 1 84
-0.634384 -0.050581 0.263376 55 88 140
0.482630 0.345143 0.142631 67 60 132
0.123601 -0.041574 -0.271429 68 1 84
-0.503342 -0.455730 -0.105118 54 90 140
-0.652477 -0.129282 0.361336 51 96 141
0.583710 -0.217341 0.063922 63 71 136
0.462502 0.198611 -0.009280 68 1 84
0.096641 0.165465 -0.276699 68 1 84
-0.038756 -0.474444 -0.313365 68 2 85
-0.486101 0.338802 0.185853 68 1 84
0.036124 0.405656 -0.196021 68 190 112
-0.285131 -0.202371 -0.161164 68 1 84
0.635861 -0.293405 0.446418 131 211 75
0.313555 0.171547 -0.172611 68 1 84
-0.274337 0.537051 0.089639 55 89 140
0.363508 -0.063052 -0.180863 68 1 84
0.599245 -0.058141 0.171223 65 66 134
0.595559 -0.539697 0.181190 236 228 26
-0.643070 -0.135620 0.210390 59 80 138
-0.418948 0.434831 0.214709 71 15 98
-0.111765 0.028020 -0.288283 68 1 84
0.243451 -0.058959 -0.221697 68 1 84
0.637882 -0.361413 0.403545 107 205 89
-0.635790 -0.064765 0.399699 46 109 142
0.361280 -0.313243 -0.127529 68 1 84
-0.640351 -0.083048 0.397715 55 88 140
-0.639478 -0.082311 0.406185 46 108 142
0.581614 0.023330 0.177208 67 58 131
-0.234045 0.507604 -0.064649 39 124 142
0.574081 -0.231429 0.047246 62 72 136
0.581621 -0.184022 0.052701 69 53 128
-0.613374 -0.458803 0.104121 36 132 141
0.253008 0.550614 0.035218 34 137 141
-0.126812 0.025476 -0.236497 68 1 84
-0.536037 0.221848 0.194829 66 64 133
-0.458483 0.324856 0.061236 67 59 131
-0.659561 -0.201418 0.438372 31 161 135
-0.363563 -0.038440 -0.190611 68 1 84
0.580789 0.103367 0.255436 48 104 141
-0.197105 0.326980 -0.160478 68 1 84
-0.527641 -0.142015 -0.054272 72 25 107
0.186169 -0.351328 -0.191913 68 1 84
0.052153 -0.237539 -0.304846 68 1 84
0.572252 0.080370 0.195099 71 43 122
0.371057 -0.316985 -0.124507 68 2 85
-0.274900 0.460133 -0.059770 50 99 141
0.149533 0.201634 -0.234256 68 1 84
-0.239907 -0.190509 -0.164674 68 1 84
-0.134709 0.466995 -0.172136 116 208 84
-0.147031 -0.263880 -0.170757 68 1 84
0.599676 0.044191 0.435134 54 184 119
0.408788 -0.488481 -0.181916 49 100 141
-0.603781 -0.010160 0.193595 53 92 140
-0.300099 -0.333065 -0.165769 69 54 129
0.604354 -0.040746 0.490059 159 217 56
-0.252264 0.260964 -0.172576 68 1 84
0.494531 0.350741 0.233847 72 28 110
-0.001177 0.053764 -0.340700 68 1 84
0.633313 -0.478610 0.337198 89 199 100
0.112312 0.210233 -0.249974 68 1 84
-0.541428 0.238446 0.262896 72 30 112
0.548088 0.089661 0.116592 68 1 84
0.595159 -0.119331 0.100983 71 17 99
0.163443 0.580661 -0.082671 70 49 126
0.355107 -0.043343 -0.186874 68 1 84
-0.259114 -0.164397 -0.165868 68 1 84
0.213985 -0.072448 -0.225191 68 1 84
-0.067242 0.100634 -0.282878 68 1 84
-0.644430 -0.126094 0.259129 49 100 141
0.587236 -0.293385 0.098813 44 114 142
0.100173 0.347317 -0.205455 68 1 84
-0.648748 -0.101494 0.307399 65 65 134
-0.645618 -0.127207 0.261720 50 98 141
-0.404748 0.448786 0.186814 68 1 84
-0.046400 0.434666 -0.201474 119 208 82
0.626923 -0.115995 0.351800 32 145 140
0.299527 0.513455 0.032483 33 167 132
-0.606908 -0.466873 0.088136 40 122 142
0.415126 -0.336848 -0.115740 69 52 127
-0.406170 0.033642 -0.167491 68 1 84
-0.396771 0.452640 0.141852 71 24 106
-0.481802 -0.315265 -0.079293 64 67 135
0.455015 0.287866 0.020908 68 1 84
0.025005 -0.432466 -0.301270 69 53 128
0.082649 -0.034345 -0.409347 68 1 84
0.581397 -0.535815 0.133971 40 174 127
-0.572802 0.113111 0.226351 35 137 141
0.367926 0.179533 -0.133740 68 1 84
0.478414 0.350717 0.137880 69 52 127
0.602739 -0.564159 0.213609 62 188 115
0.582969 -0.263380 0.077150 45 111 142
-0.645903 -0.133712 0.255422 53 92 140
0.186266 0.426100 -0.152194 72 35 116
-0.225274 0.546936 -0.008204 35 137 141
0.458558 -0.015331 -0.100883 68 1 84
-0.622393 -0.209017 0.115795 50 99 141
0.349557 -0.128225 -0.179522 68 1 84
0.074286 -0.056814 -0.435443 68 1 84
-0.231405 0.203158 -0.205238 68 1 84
-0.330999 0.507671 0.149120 59 80 138
-0.091513 -0.448858 -0.304350 68 1 84
0.612880 0.001272 0.376370 33 140 141
0.546609 -0.319861 0.024634 52 95 141
-0.244854 0.437407 -0.099045 50 99 141
0.334546 -0.369902 -0.188983 68 1 84
-0.409894 0.350880 0.000398 64 68 135
-0.656814 -0.283327 0.222337 51 96 141
-0.692054 -0.394110 0.346040 41 120 142
-0.075787 -0.275017 -0.302902 68 1 84
-0.214306 -0.011475 -0.228942 68 1 84
0.489905 0.373063 0.300138 60 77 138
0.421615 0.045814 -0.127551 68 1 84
-0.403936 0.330507 -0.021864 62 72 136
0.500541 0.361591 0.372533 51 96 141
0.165262 -0.132896 -0.222550 68 1 84
0.040369 0.570223 -0.182747 32 145 140
-0.168915 0.453113 -0.149221 109 206 88
-0.410396 -0.424313 -0.208714 68 1 84
-0.332651 -0.109556 -0.177820 68 1 84
0.528473 0.231276 0.154207 70 47 124
0.385796 -0.337498 -0.134336 68 1 84
-0.109684 0.517890 -0.182971 50 181 122
0.149164 0.570966 -0.125973 41 121 142
-0.636132 -0.115667 0.185756 55 89 140
-0.135025 -0.235977 -0.193353 68 1 84
0.578464 0.131631 0.432715 30 153 138
0.604712 -0.004369 0.454025 116 208 84
0.130820 -0.027582 -0.239146 68 1 84
-0.139939 0.454277 -0.168765 77 194 107
-0.033147 0.112075 -0.301136 68 1 84
0.319646 0.431059 -0.049039 53 93 140
-0.269212 0.286964 -0.154422 68 1 84
0.380295 0.372538 -0.024365 68 1 84
0.262960 0.543958 0.035345 37 130 142
-0.012790 -0.097731 -0.463318 68 1 84
0.390547 0.236545 -0.083474 68 1 84
0.364093 -0.138309 -0.171360 68 1 84
-0.020616 0.330200 -0.244053 68 1 84
0.574154 -0.349444 0.088604 49 102 141
-0.164021 0.047987 -0.220776 68 1 84
0.591700 0.059726 0.457378 61 187 116
0.317161 0.137423 -0.179931 68 1 84
0.612399 -0.016886 0.279220 40 122 142
0.012096 -0.164916 -0.414805 68 1 84
0.604628 -0.553709 0.219650 57 185 118
0.461918 0.372174 0.120662 68 1 84
-0.087694 -0.386413 -0.277268 68 1 84
0.171479 0.232988 -0.179577 68 1 84
0.073420 -0.381413 -0.245464 68 1 84
0.627957 -0.126567 0.287636 39 126 142
0.153398 -0.447180 -0.283415 68 1 84
0.347658 -0.290789 -0.134948 68 1 84
-0.457146 0.386023 0.331837 68 1 84
0.365056 -0.069820 -0.179784 68 1 84
-0.096147 0.259290 -0.234205 68 1 84
-0.593963 -0.003408 0.142333 59 81 138
0.562587 -0.036279 0.050655 68 1 84
0.610399 -0.001650 0.294544 40 122 142
0.637244 -0.331287 0.397087 119 208 82
-0.086132 -0.295489 -0.271092 68 1 84
0.238643 0.228818 -0.189577 68 1 84
-0.351543 -0.502943 -0.258730 68 1 84
-0.677306 -0.282964 0.430288 30 152 138
-0.272921 0.272945 -0.159972 68 1 84
-0.707531 -0.530926 0.351463 33 167 132
-0.232464 -0.471161 -0.283928 68 1 84
0.614145 -0.306965 0.205098 30 155 137
0.287124 -0.239424 -0.177024 68 1 84
0.073676 0.183063 -0.286027 68 1 84
-0.551438 0.184692 0.211680 70 48 125
-0.515388 -0.053031 -0.071126 66 61 132
-0.392834 -0.369258 -0.177370 68 1 84
0.463682 -0.115399 -0.114599 68 1 84
-0.353352 0.485592 0.114303 53 92 140
0.380154 0.490550 0.209984 68 1 84
0.477409 0.281694 0.058679 68 1 84
-0.452377 -0.180191 -0.101757 70 12 95
0.635254 -0.346377 0.342728 34 167 132
0.546218 0.206717 0.200922 66 64 133
-0.549338 0.155643 0.166185 52 94 141
0.181082 0.091895 -0.222818 68 1 84
0.488935 0.325723 0.132621 71 44 123
0.179326 -0.008617 -0.226782 68 1 84
0.608977 -0.358883 0.204602 34 137 141
-0.193287 -0.432456 -0.267862 71 18 101
-0.617763 -0.160666 0.102498 49 101 141
0.604979 -0.062695 0.189006 61 74 137
0.088362 -0.017275 -0.376960 68 1 84
0.608789 -0.147168 0.148406 71 39 119
-0.178335 0.105597 -0.226636 68 1 84
-0.405532 0.144700 -0.131064 68 1 84
-0.210270 0.363164 -0.144401 61 76 137
0.236124 0.494675 -0.093975 60 77 138
0.086665 -0.268241 -0.198665 68 1 84
0.534362 -0.171400 -0.031686 69 54 129
-0.451186 0.398349 0.211568 68 1 84
0.640824 -0.594912 0.416012 35 169 130
-0.026157 0.084926 -0.308694 68 1 84
-0.595619 -0.088780 0.056590 64 67 135
0.028753 0.270012 -0.267162 68 1 84
0.169926 -0.414405 -0.233339 68 1 84
0.644871 -0.531340 0.401510 189 222 38
0.534192 -0.464317 0.020106 31 150 139
0.115585 0.072046 -0.241210 68 1 84
-0.203244 -0.019575 -0.229714 68 1 84
0.321784 0.479760 0.011709 50 98 141
0.479600 0.382026 0.257846 57 85 139
-0.640197 -0.477827 0.160682 64 67 135
-0.045534 0.474761 -0.213128 59 186 117
0.416083 -0.334684 -0.113253 67 58 131
-0.386920 -0.420659 -0.216777 68 1 84
-0.567756 0.181261 0.334312 70 48 125
-0.527601 -0.100452 -0.059977 71 22 105
-0.560460 -0.148123 -0.015814 61 75 137
0.454893 -0.005805 -0.101833 68 1 84
-0.666251 -0.384511 0.250986 69 53 128
0.041030 0.176320 -0.299212 68 1 84
-0.716752 -0.549677 0.429092 103 204 92
-0.572270 0.136917 0.270842 51 96 141
0.249245 0.529722 -0.031152 56 87 140
0.452065 -0.517900 -0.109407 68 1 84
-0.041454 0.041751 -0.320619 68 1 84
-0.642668 -0.487808 0.161142 66 62 133
0.488451 0.376992 0.304421 61 74 137
-0.544884 0.006481 -0.005134 71 42 121
-0.677401 -0.362922 0.291242 51 96 141
0.104642 0.602313 -0.108753 69 54 129
0.120758 0.216719 -0.236689 68 1 84
0.243335 0.114745 -0.209317 68 1 84
-0.564474 -0.482021 -0.002514 53 92 140
0.353907 -0.462683 -0.238957 68 1 84
-0.165995 -0.460224 -0.296637 68 1 84
0.119872 -0.030878 -0.327991 68 1 84
-0.580254 0.006604 0.094447 62 73 137
0.437555 -0.377072 -0.123756 57 84 139
0.620940 -0.109601 0.242669 42 118 142
-0.440993 -0.328955 -0.122744 71 20 102
0.604774 0.005171 0.465161 173 220 48
-0.589654 -0.003316 0.121348 63 71 136
-0.437596 0.052805 -0.134710 68 1 84
-0.221617 0.127388 -0.216660 68 1 84
-0.466033 0.123426 -0.064700 68 1 84
0.043577 0.033115 -0.320975 68 1 84
-0.356758 -0.111028 -0.171565 68 1 84
-0.054102 -0.476874 -0.311821 68 1 84
0.223773 0.209631 -0.201889 68 1 84
0.037569 0.588249 -0.164187 53 93 140
-0.481700 -0.462713 -0.138726 71 40 120
0.433387 0.443903 0.294768 68 1 84
-0.661189 -0.226305 0.492674 116 208 84
-0.165208 0.587083 0.002159 47 105 141
-0.527710 -0.011261 -0.041834 53 92 140
0.474541 -0.188625 -0.092256 71 37 117
0.121878 0.580511 -0.139747 40 123 142
0.462014 0.367133 0.111943 68 1 84
0.623231 -0.471855 0.286574 64 189 114
-0.471303 -0.306838 -0.083052 68 57 130
-0.101196 -0.304033 -0.215857 68 1 84
0.495969 0.298106 0.120399 71 15 98
0.254546 0.261042 -0.170964 68 1 84
-0.429052 0.214898 -0.061278 68 1 84
0.532006 -0.435393 0.016103 45 110 142
-0.587930 -0.439133 0.047150 56 87 140
0.064001 -0.004708 -0.349284 68 1 84
-0.506508 0.240075 0.104674 67 60 132
0.523643 -0.156094 -0.047501 71 44 123
-0.668538 -0.482246 0.239188 32 143 140
0.393721 0.207280 -0.093324 68 1 84
-0.370807 0.198555 -0.133699 72 33 114
0.531218 -0.091553 -0.035451 71 20 102
0.072728 0.205733 -0.268182 68 1 84
-0.507247 0.303931 0.399386 68 1 84
0.556510 -0.380006 0.055784 37 131 141
0.128686 0.098338 -0.243270 68 1 84
0.573626 0.136310 0.448538 51 182 121
0.193776 0.415296 -0.148670 68 1 84
0.595444 0.073867 0.392685 38 127 142
-0.518816 0.293225 0.275226 72 28 110
0.273055 0.255021 -0.169581 68 1 84
-0.099861 -0.219626 -0.281594 68 1 84
-0.364686 0.485158 0.203775 68 1 84
0.253337 0.519562 -0.041023 70 49 126
-0.176263 0.076548 -0.222203 68 1 84
-0.602789 0.041840 0.267245 34 139 141
-0.539629 0.051529 0.018025 72 33 114
0.382586 0.477737 0.133041 68 1 84
0.103250 -0.403263 -0.245489 68 1 84
0.489608 0.286030 0.089749 68 1 84
-0.629201 -0.420518 0.154036 68 57 130
-0.258503 0.534009 0.033594 38 129 142
-0.230530 -0.429369 -0.245741 68 1 84
0.473382 0.189010 0.003241 68 1 84
-0.395279 0.456436 0.157693 68 1 84
0.252606 -0.330085 -0.180094 68 1 84
-0.367268 0.455267 0.059023 43 115 142
0.412265 0.235255 -0.058423 68 1 84
-0.281978 0.141025 -0.196048 68 1 84
-0.355377 -0.389373 -0.205518 68 1 84
0.608374 -0.261655 0.167664 37 130 142
0.383908 0.253832 -0.083438 68 1 84
-0.598165 -0.150376 0.048042 55 89 140
0.559504 -0.151977 0.005240 65 65 134
-0.637240 -0.107031 0.241876 42 117 142
-0.339203 0.463048 0.024035 46 109 142
-0.485177 0.288870 0.089964 70 14 97
0.135627 0.492299 -0.185270 49 101 141
0.617895 -0.540677 0.268038 77 194 107
0.566003 0.159820 0.250018 57 85 139
-0.549053 0.091075 0.094921 67 58 131
0.457014 -0.506711 -0.103057 71 24 106
0.580923 -0.410490 0.121180 35 136 141
0.000744 -0.198237 -0.393516 68 1 84
-0.130587 -0.090128 -0.266080 68 1 84
0.569857 -0.008863 0.107143 68 1 84
-0.062786 -0.430173 -0.301440 68 1 84
-0.520002 -0.209064 -0.043081 66 61 132
-0.447236 -0.469042 -0.186722 68 1 84
-0.385103 0.465739 0.261673 66 61 132
-0.612265 0.017235 0.415557 39 125 142
-0.706945 -0.422088 0.449760 57 185 118
0.010813 0.473557 -0.219184 54 184 119
-0.296672 -0.310829 -0.158992 68 1 84
-0.388125 0.418367 0.034707 72 34 115
-0.583757 0.124803 0.302873 40 123 142
-0.120598 0.195234 -0.260613 68 1 84
-0.529919 -0.474086 -0.060962 37 130 142
-0.124975 0.009794 -0.317893 68 1 84
0.403660 0.472905 0.232636 68 1 84
0.556642 -0.163954 0.000954 69 53 128
0.591629 0.092318 0.399267 45 111 142
0.629699 -0.137103 0.303152 35 136 141
0.227864 0.499732 -0.100168 69 50 127
0.564539 0.107133 0.190437 72 29 111
0.495078 0.160868 0.026529 68 1 84
-0.585914 -0.498904 0.034930 63 69 135
0.320103 0.499099 0.041211 54 90 140
-0.491859 -0.312572 -0.068329 69 54 129
-0.424110 -0.324713 -0.129719 70 9 92
0.496606 0.352381 0.272444 51 96 141
0.387173 0.376151 -0.013087 68 1 84
0.077648 -0.124523 -0.374053 68 1 84
-0.424673 0.428876 0.267806 71 39 119
0.125193 -0.031034 -0.267041 68 1 84
-0.210791 -0.086261 -0.220639 68 1 84
-0.548989 0.178336 0.454002 39 124 142
-0.370269 0.478591 0.243494 72 28 110
0.071345 -0.022353 -0.412898 68 1 84
0.561364 -0.544452 0.077341 30 151 138
0.601154 0.068208 0.361813 32 144 140
0.614552 -0.162481 0.171032 70 14 97
0.563914 -0.280333 0.042250 48 104 141
-0.519902 0.286627 0.356796 68 1 84
-0.586601 0.084252 0.465615 36 170 130
-0.475639 0.313883 0.093154 68 1 84
-0.194896 0.412153 -0.138263 109 206 88
0.116268 0.576193 -0.151147 37 130 142
-0.403489 -0.364719 -0.170280 68 1 84
-0.706802 -0.457941 0.374152 32 145 140
-0.251706 0.536759 0.026486 36 134 141
-0.278581 0.336531 -0.128125 68 2 85
0.424501 0.131516 -0.094475 68 1 84
0.555647 0.090460 0.142041 71 21 103
0.582880 0.124968 0.408682 40 123 142
0.383401 0.367451 -0.024432 68 1 84
-0.109690 -0.192509 -0.276662 68 1 84
0.331310 0.353526 -0.091898 68 1 84
-0.569135 0.123576 0.218037 39 126 142
-0.466627 0.057896 -0.097037 72 29 111
0.238498 0.443851 -0.115594 55 89 140
0.207753 -0.463409 -0.281743 68 1 84
-0.566192 0.117187 0.188902 56 86 139
-0.080477 0.062903 -0.262762 68 1 84
0.541621 -0.225851 -0.009670 61 74 137
0.422587 -0.230308 -0.108779 70 12 95
-0.601000 0.015640 0.226095 49 100 141
0.496383 0.347942 0.240933 70 12 95
-0.067776 -0.008506 -0.409841 68 1 84
0.082556 -0.116269 -0.365103 68 1 84
0.055477 0.605691 -0.130184 35 135 141
0.480662 0.389594 0.329929 61 76 137
-0.453998 0.071366 -0.107828 71 15 98
-0.491719 0.158220 0.002198 67 59 131
0.295277 0.481940 -0.025816 31 162 134
-0.666817 -0.540130 0.225005 57 85 139
0.634368 -0.241493 0.471563 170 219 50
0.485421 0.384329 0.333603 61 75 137
0.240870 -0.198036 -0.177441 68 1 84
0.624138 -0.225592 0.198323 45 111 142
-0.530497 -0.432838 -0.059911 60 77 138
0.224534 0.256891 -0.171620 68 1 84
-0.525798 0.201393 0.126623 57 85 139
0.530421 -0.112732 -0.039300 71 43 122
-0.365453 0.483787 0.219549 69 5 88
0.234482 0.336958 -0.150181 68 1 84
-0.346755 0.398190 -0.040056 49 101 141
0.512589 0.280729 0.153863 62 73 137
0.306366 -0.115621 -0.194001 68 1 84
-0.266180 -0.371082 -0.206035 68 1 84
-0.694042 -0.504992 0.307799 35 137 141
-0.330779 -0.308317 -0.154012 71 38 118
0.586806 -0.048183 0.133913 72 35 116
-0.405890 0.125989 -0.140384 70 12 95
-0.173893 -0.400250 -0.224449 69 6 90
-0.563011 -0.056700 -0.001391 71 43 122
0.261416 0.412471 -0.109801 56 87 140
-0.548604 -0.141139 -0.031606 72 29 111
-0.271057 0.057773 -0.219405 68 1 84
-0.026568 -0.035537 -0.465385 68 1 84
0.064175 -0.425434 -0.290572 68 1 84
0.577417 -0.130763 0.043859 72 32 113
-0.347033 -0.366513 -0.196715 68 1 84
-0.659627 -0.181336 0.281238 45 111 142
-0.009400 -0.083899 -0.468917 68 1 84
0.555048 0.204300 0.475733 41 175 127
0.498692 -0.253950 -0.048758 64 68 135
-0.360692 -0.178502 -0.144389 68 1 84
0.587593 -0.166300 0.067294 68 55 129
0.117613 0.366684 -0.190155 68 1 84
-0.015016 -0.105203 -0.458801 68 1 84
-0.167282 -0.076039 -0.239278 68 1 84
-0.507331 0.282405 0.156400 69 53 128
0.555913 0.160845 0.197093 71 20 102
0.051526 0.263009 -0.263697 68 1 84
-0.535731 -0.123459 -0.048691 71 17 99
0.481700 0.036730 -0.057072 68 1 84
0.620697 -0.286355 0.214590 40 122 142
0.633724 -0.377341 0.339789 30 152 138
-0.666108 -0.216034 0.296280 46 109 142
-0.339655 0.286651 -0.116414 70 9 92
-0.640049 -0.091710 0.423835 46 107 142
-0.450473 -0.149222 -0.116530 68 1 84
0.627957 -0.334441 0.267997 30 153 138
0.060549 0.342814 -0.222835 68 1 84
0.406794 0.465246 0.182154 70 12 95
0.037458 0.008539 -0.380191 68 1 84
0.111804 -0.171021 -0.247618 68 1 84
0.350491 -0.313346 -0.133927 68 1 84
0.411827 0.058271 -0.134984 68 1 84
-0.420032 -0.230611 -0.100772 71 42 121
-0.071889 -0.003278 -0.390554 68 1 84
0.507417 0.251237 0.109063 71 24 106
0.275328 0.542349 0.066261 50 98 141
-0.309785 -0.229781 -0.165752 68 1 84
-0.636507 -0.186059 0.165140 47 106 141
-0.326858 0.497945 0.080994 53 92 140
0.370577 0.251433 -0.099651 68 1 84
-0.633184 -0.075954 0.246586 31 147 139
0.212093 0.223659 -0.191687 68 1 84
0.500631 0.274715 0.109568 71 42 121
0.573155 -0.233658 0.046024 61 74 137
0.547611 0.071854 0.102509 68 1 84
0.040700 0.287947 -0.266193 68 1 84
0.527049 0.281690 0.235758 71 18 101
-0.507404 0.231962 0.099776 71 37 117
0.212235 0.468451 -0.129678 39 125 142
0.599164 -0.019326 0.209221 49 102 141
0.626554 -0.512138 0.300583 126 210 78
0.395978 0.298641 -0.049074 68 1 84
0.429767 -0.431251 -0.157877 54 90 140
0.567558 0.106940 0.500411 149 215 63
0.115659 -0.034936 -0.338984 68 1 84
-0.316814 0.188235 -0.168511 68 1 84
-0.573996 0.076079 0.178323 63 71 136
0.601597 -0.349044 0.164049 32 164 133
-0.479171 0.007925 -0.099943 70 48 125
-0.080979 -0.423839 -0.295210 68 1 84
-0.281805 0.536439 0.134722 67 60 132
-0.515732 -0.073664 -0.073125 68 1 84
-0.616632 -0.008724 0.258186 38 127 142
-0.110474 -0.058075 -0.350695 68 1 84
-0.156824 0.161114 -0.240285 68 1 84
0.086830 -0.434275 -0.294274 68 1 84
0.034735 0.159169 -0.300226 68 1 84
0.633587 -0.151806 0.429447 149 215 63
0.244477 -0.361833 -0.203781 68 1 84
0.121486 -0.002228 -0.295961 68 1 84
0.045270 -0.200158 -0.351412 68 1 84
-0.588650 -0.408088 0.049585 63 71 136
-0.606154 0.025820 0.482915 37 130 142
-0.211652 -0.384635 -0.191557 66 62 133
0.608516 -0.052178 0.472596 112 206 86
0.114736 -0.064240 -0.287743 68 1 84
-0.062174 -0.140928 -0.407687 68 1 84
-0.137630 0.536143 -0.154000 194 223 34
-0.669336 -0.531974 0.233757 39 124 142
-0.089563 -0.452286 -0.305765 68 1 84
-0.552691 0.198944 0.247919 72 33 114
0.618052 -0.065192 0.269566 39 124 142
0.599153 0.044075 0.272543 43 116 142
0.640506 -0.359321 0.460697 223 227 24
-0.474841 0.136441 -0.044032 68 1 84
-0.645304 -0.452888 0.190667 50 99 141
0.088541 -0.337430 -0.180316 68 1 84
-0.497926 -0.479193 -0.113577 39 124 142
0.239668 -0.315498 -0.180748 68 1 84
0.536377 -0.191681 -0.025396 66 64 133
0.388484 0.483767 0.198974 68 2 85
0.315246 0.496329 0.027972 69 53 128
-0.617038 -0.075546 0.138716 69 50 127
0.471065 0.289525 0.051337 68 1 84
-0.403820 -0.330568 -0.145324 68 1 84
-0.373416 0.128730 -0.164047 68 1 84
0.322255 0.404824 -0.066482 66 61 132
0.450198 0.422266 0.227599 68 1 84
-0.358653 -0.375944 -0.195950 68 1 84
0.398794 -0.341437 -0.130353 68 1 84
-0.528497 0.238998 0.183668 67 59 131
0.049579 0.118138 -0.292812 68 1 84
-0.618635 -0.014884 0.424887 41 121 142
-0.233828 0.373313 -0.129404 43 115 142
0.619054 -0.031570 0.354727 30 152 138
0.378892 -0.354264 -0.155002 68 1 84
-0.318454 0.462859 -0.006525 41 121 142
0.392571 -0.323301 -0.118457 70 12 95
0.026490 0.449560 -0.212800 91 200 98
0.445625 -0.107413 -0.128656 68 1 84
0.282223 0.132560 -0.194595 68 1 84
-0.297851 -0.220042 -0.164564 68 1 84
-0.217281 -0.125542 -0.205107 68 1 84
0.334374 0.353264 -0.089455 68 1 84
-0.405488 -0.461715 -0.221385 68 1 84
0.579674 0.071676 0.213950 69 54 129
0.127401 0.510994 -0.187532 54 91 140
-0.458377 0.386033 0.189335 68 1 84
-0.527506 0.201133 0.503912 66 190 113
0.488601 0.142929 0.005151 68 1 84
0.305504 0.510991 0.038432 30 158 136
-0.587392 -0.314647 0.044481 69 6 90
-0.665209 -0.196488 0.338866 38 128 142
0.509225 -0.211382 -0.052158 64 68 135
0.088163 0.158806 -0.280886 68 1 84
-0.190230 -0.070100 -0.230682 68 1 84
-0.025970 -0.441548 -0.309333 68 1 84
0.579420 -0.320036 0.089751 38 128 142
0.572891 -0.339289 0.082393 44 112 142
0.387064 0.224812 -0.092964 68 1 84
0.190857 0.576175 -0.027789 69 8 91
-0.670997 -0.257044 0.297099 40 123 142
-0.589156 -0.116513 0.033364 62 72 136
-0.654822 -0.178552 0.452227 41 175 127
-0.245869 0.548980 0.065292 47 106 141
0.631236 -0.387051 0.320569 30 152 138
0.310520 0.393382 -0.085070 72 33 114
-0.030183 0.591552 -0.160233 68 1 84
0.445929 -0.321002 -0.081907 66 62 133
-0.150686 -0.060277 -0.244531 68 1 84
-0.591309 0.087935 0.281070 44 113 142
0.285320 -0.308927 -0.174550 68 1 84
0.603445 -0.487754 0.207032 59 186 117
0.165924 0.168213 -0.233959 68 1 84
0.304998 0.487967 -0.001815 36 133 141
0.573746 -0.560003 0.111308 35 136 141
0.302676 -0.336587 -0.176164 68 1 84
-0.259541 -0.297352 -0.169579 68 1 84
-0.486391 0.341187 0.200135 68 1 84
-0.691539 -0.365670 0.367911 40 122 142
0.085138 0.503321 -0.209445 52 95 141
0.208769 0.419608 -0.140218 71 18 101
0.069271 -0.117970 -0.414102 68 1 84
0.091465 0.277439 -0.247633 68 1 84
-0.467305 0.114879 -0.067516 68 1 84
0.517681 0.176971 0.086484 68 1 84
0.131072 -0.051570 -0.244425 68 1 84
-0.109780 0.406329 -0.180406 103 204 92
0.491032 0.039680 -0.043460 68 1 84
0.504135 0.338587 0.277968 58 82 139
0.602559 -0.290944 0.155652 40 122 142
-0.133430 0.108649 -0.243876 68 1 84
-0.592970 0.081975 0.445816 35 135 141
0.592570 0.044931 0.235738 48 103 141
-0.035367 0.563523 -0.187646 33 142 140
-0.109290 -0.334981 -0.197197 67 60 132
-0.367024 -0.482423 -0.249641 68 1 84
0.117531 -0.334707 -0.169228 68 1 84
0.340253 0.393500 -0.056698 72 25 107
-0.266785 0.498702 -0.028384 31 161 135
0.407830 -0.437493 -0.183810 44 114 142
-0.566018 -0.053350 0.005312 67 59 131
-0.104349 -0.106742 -0.318439 68 1 84
0.068544 0.134084 -0.286621 68 1 84
-0.478025 -0.376368 -0.124266 68 1 84
-0.176275 -0.233965 -0.168867 68 1 84
-0.389820 0.454147 0.117199 61 76 137
0.608396 -0.043489 0.226159 49 101 141
-0.656114 -0.168093 0.411040 31 148 139
-0.495638 0.098469 -0.033671 70 45 124
-0.404680 -0.220121 -0.112239 68 1 84
-0.593791 0.095608 0.360748 46 108 142
-0.107334 0.351405 -0.200720 68 1 84
0.436872 -0.417428 -0.144987 56 87 140
0.361351 0.493050 0.116013 68 1 84
0.107080 -0.069200 -0.322042 68 1 84
-0.319169 0.511034 0.113856 65 66 134
-0.482838 -0.362359 -0.108963 70 12 95
-0.042686 -0.397831 -0.296246 68 1 84
0.508018 0.336149 0.300412 60 78 138
-0.624347 -0.235909 0.122838 47 105 141
-0.667945 -0.213518 0.338060 48 103 141
0.091759 -0.215002 -0.243584 68 1 84
-0.061749 -0.062115 -0.454619 68 1 84
-0.026869 0.315131 -0.256045 68 1 84
-0.434548 -0.169469 -0.115957 68 1 84
0.567009 -0.258391 0.041920 49 101 141
-0.406269 -0.354506 -0.161162 68 1 84
-0.021231 -0.036156 -0.467359 68 1 84
-0.447425 0.374858 0.103509 68 1 84
-0.518644 0.256312 0.165467 68 57 130
-0.666641 -0.246091 0.463253 134 212 73
0.569285 0.020991 0.133841 69 5 88
-0.408942 0.061059 -0.161312 68 1 84
0.534432 0.294165 0.385020 50 98 141
-0.469439 0.357482 0.415333 68 1 84
0.602888 -0.039945 0.204909 52 95 141
0.498065 0.209029 0.058386 68 1 84
-0.147583 -0.442933 -0.294578 68 1 84
0.564382 0.177163 0.293033 72 25 107
-0.471716 -0.386907 -0.139184 68 1 84
0.182920 -0.467988 -0.292518 68 1 84
-0.705766 -0.424945 0.403763 31 162 134
-0.300607 0.456990 -0.035884 38 129 142
0.298476 -0.350287 -0.192458 68 1 84
-0.328871 -0.224370 -0.156104 68 1 84
0.161920 -0.386374 -0.212709 68 1 84
-0.532587 -0.200948 -0.035083 72 34 115
-0.067172 0.084352 -0.279345 68 1 84
-0.612335 -0.136777 0.087648 53 93 140
0.108547 -0.174793 -0.249451 68 1 84
0.282902 0.439624 -0.081793 64 67 135
-0.103559 0.028907 -0.287803 68 1 84
-0.636900 -0.115407 0.212207 37 131 141
0.591900 -0.054655 0.146948 71 21 103
0.637244 -0.338897 0.388191 100 203 93
0.089769 0.314205 -0.234410 68 1 84
-0.069805 -0.425006 -0.298109 68 1 84
0.438426 0.409862 0.123246 68 1 84
0.306848 0.205850 -0.167479 68 1 84
-0.354393 0.442668 0.016889 39 125 142
0.571559 0.150241 0.289194 67 58 131
-0.511815 -0.317012 -0.051838 56 86 139
0.409469 -0.327763 -0.112444 70 45 124
-0.375766 0.438612 0.044866 45 111 142
-0.461272 -0.298623 -0.084914 68 55 129
-0.187929 0.251641 -0.174542 68 1 84
0.410721 -0.176368 -0.140887 68 1 84
-0.596765 -0.207202 0.047157 65 65 134
-0.138930 0.525766 -0.158290 151 216 62
0.497087 -0.334749 -0.035982 66 61 132
0.291035 -0.089756 -0.204400 68 1 84
0.592839 -0.245451 0.097151 42 117 142
-0.548300 0.229253 0.345962 68 2 85
-0.347971 -0.035924 -0.198349 68 1 84
-0.508189 0.303356 0.218411 72 33 114
-0.339930 -0.141772 -0.162206 68 1 84
-0.422351 0.138130 -0.115889 69 6 90
0.282547 0.542434 0.088613 60 78 138
0.598848 -0.047729 0.180826 69 53 128
-0.689303 -0.342704 0.384536 55 88 140
0.294907 0.422896 -0.080699 55 88 140
-0.493869 0.242248 0.071488 59 80 138
-0.385887 -0.384428 -0.191935 68 1 84
0.250361 -0.470582 -0.278003 68 1 84
-0.486139 0.240867 0.051780 67 58 131
0.474562 0.339153 0.108262 72 35 116
-0.303691 -0.044787 -0.212858 68 1 84
-0.195548 0.483442 -0.120098 96 201 96
-0.671804 -0.326029 0.274561 62 72 136
0.139205 -0.355067 -0.184561 68 1 84
0.607406 -0.561406 0.232371 81 196 104
0.278082 -0.020947 -0.219432 68 1 84
0.448525 -0.252640 -0.083538 71 21 103
0.608772 -0.020239 0.420342 31 163 134
0.545566 0.249703 0.283550 64 67 135
-0.612696 0.004444 0.490456 31 148 139
0.526333 0.173829 0.107676 68 1 84
0.547635 0.230197 0.480818 33 167 132
-0.289905 -0.377886 -0.212784 68 1 84
-0.566622 -0.199605 -0.000795 65 65 134
-0.266702 -0.181712 -0.162320 69 8 91
-0.217576 0.366301 -0.139901 38 128 142
-0.691685 -0.378663 0.355750 43 115 142
-0.615921 -0.009612 0.498268 33 167 132
-0.536243 -0.394254 -0.046166 69 53 128
-0.661256 -0.216230 0.259759 54 91 140
0.607018 -0.384471 0.198059 38 128 142
0.177016 -0.419244 -0.237481 68 1 84
0.530455 0.260449 0.201344 72 29 111
0.537494 0.285256 0.410804 36 133 141
-0.230099 -0.246343 -0.176039 68 1 84
0.096246 -0.138297 -0.281452 68 1 84
0.104565 0.213700 -0.247522 68 1 84
0.346289 -0.235076 -0.149961 68 1 84
-0.011497 0.580635 -0.174050 68 1 84
0.063938 0.195139 -0.282984 68 1 84
-0.133670 0.029645 -0.227645 68 1 84
-0.228196 -0.441280 -0.264316 70 12 95
0.373077 0.465968 0.077085 68 1 84
-0.578636 0.120817 0.276611 47 105 141
0.357127 0.036070 -0.183231 68 1 84
0.268494 0.300147 -0.151560 68 1 84
-0.649907 -0.468760 0.193082 54 90 140
-0.077641 0.245125 -0.241495 68 1 84
0.446041 -0.445756 -0.133136 44 113 142
-0.491747 0.337564 0.274530 68 1 84
0.230305 -0.249669 -0.191693 68 1 84
-0.507696 0.138804 0.023908 65 66 134
-0.070703 0.151395 -0.289958 68 1 84
-0.581475 0.120482 0.392573 42 119 142
-0.624218 -0.155339 0.128823 44 113 142
0.098815 0.287880 -0.241342 68 1 84
-0.356662 0.201931 -0.141903 72 25 107
-0.633074 -0.313979 0.160957 60 77 138
-0.625146 -0.304878 0.138164 68 57 130
0.531290 0.161349 0.111749 68 1 84
0.166090 -0.272937 -0.187945 68 1 84
0.631710 -0.140405 0.331941 44 114 142
0.471677 -0.054218 -0.098652 68 1 84
0.441303 -0.227378 -0.098850 71 40 120
0.580492 -0.425890 0.122992 34 139 141
-0.572395 -0.331949 0.020382 72 34 115
0.283362 -0.109050 -0.200733 68 1 84
-0.152855 0.408961 -0.162332 114 207 85
-0.278061 0.170520 -0.192093 68 1 84
-0.093338 0.391815 -0.186683 68 57 130
0.200592 -0.176199 -0.186372 68 1 84
0.365834 0.493020 0.130318 68 1 84
-0.529981 0.134525 0.080637 70 45 124
-0.671410 -0.278986 0.285905 50 99 141
0.374553 0.488013 0.142207 68 1 84
-0.464092 0.252707 0.015536 71 21 103
-0.704468 -0.446028 0.371342 32 143 140
-0.590902 -0.375217 0.055578 68 57 130
0.515256 -0.004088 -0.027970 68 1 84
-0.302521 0.095323 -0.204648 68 1 84
0.095726 0.500477 -0.206086 51 97 141
-0.655444 -0.498994 0.199289 50 98 141
0.329370 0.018426 -0.200747 68 1 84
0.547074 -0.101896 -0.012037 68 55 129
-0.068417 0.002394 -0.352573 68 1 84
0.109062 -0.071711 -0.298961 68 1 84
0.115071 0.037298 -0.230847 68 1 84
0.013826 0.564360 -0.191198 36 132 141
0.578278 0.107704 0.246556 55 89 140
0.162710 0.583330 -0.073763 67 60 132
0.446883 -0.335693 -0.087965 71 37 117
-0.470122 -0.348793 -0.113549 70 45 124
-0.378497 0.100577 -0.173512 68 1 84
0.521122 -0.444252 -0.002556 49 101 141
-0.244714 0.520225 -0.029451 38 129 142
0.529194 -0.038193 -0.021053 68 1 84
-0.665359 -0.219704 0.285347 50 98 141
0.145554 0.233970 -0.195413 68 1 84
-0.414181 0.425396 0.109627 71 37 117
0.422842 -0.503761 -0.158455 57 84 139
-0.332164 0.356535 -0.085745 68 1 84
0.528889 0.218249 0.146207 70 14 97
-0.114897 -0.129014 -0.290247 68 1 84
0.308621 -0.087280 -0.200140 68 1 84
-0.407293 0.241923 -0.071458 68 1 84
0.312772 0.525040 0.096862 54 91 140
-0.285923 0.528986 0.086833 47 106 141
-0.613477 -0.022339 0.235464 31 146 140
-0.279698 0.537919 0.137998 68 57 130
0.322253 -0.071665 -0.198905 68 1 84
0.013897 -0.357547 -0.286257 68 1 84
0.551397 -0.511491 0.053784 37 171 129
0.598196 0.009532 0.480136 162 218 55
-0.476285 0.219072 0.015805 68 1 84
-0.256888 0.534051 0.030379 33 142 140
-0.654856 -0.314987 0.214492 69 50 127
-0.613016 -0.036179 0.211145 56 86 139
-0.246836 0.089376 -0.212062 68 1 84
-0.124902 -0.376201 -0.235159 68 1 84
-0.418078 0.435830 0.218734 72 33 114
0.561107 0.154889 0.484783 57 185 118
-0.618662 -0.203341 0.101587 51 96 141
-0.107921 -0.287772 -0.199340 68 1 84
0.397041 0.139823 -0.122478 68 1 84
0.146243 -0.236963 -0.182618 68 1 84
-0.217259 0.558789 0.013959 30 151 138
-0.651081 -0.156023 0.447131 32 165 133
-0.659508 -0.276052 0.233348 62 72 136
-0.528621 0.118217 0.060336 68 1 84
0.497216 -0.453876 -0.043583 69 53 128
0.575947 0.151523 0.346465 59 81 138
-0.009061 0.039051 -0.367024 68 1 84
-0.658426 -0.185562 0.420457 33 142 140
-0.575955 -0.071055 0.018955 66 62 133
-0.490751 0.004868 -0.086544 69 52 127
0.437677 0.428980 0.180476 68 2 85
-0.601522 -0.475104 0.074309 32 145 140
0.057546 -0.295069 -0.235139 68 1 84
0.336102 -0.452611 -0.244404 72 30 112
0.412596 0.050184 -0.136155 68 1 84
0.390365 0.481508 0.185308 68 1 84
-0.544562 0.103034 0.094727 72 25 107
0.642483 -0.426726 0.447037 183 221 41
0.577298 -0.555757 0.121993 36 170 130
-0.237275 0.543236 0.011371 30 157 136
-0.415749 -0.164926 -0.126682 68 1 84
0.397351 -0.208055 -0.133566 68 1 84
0.442708 -0.472641 -0.130570 48 104 141
0.457925 -0.128936 -0.119296 68 1 84
-0.024488 0.303674 -0.263204 68 1 84
0.403955 -0.346239 -0.131241 69 6 90
0.501025 0.133456 0.022913 68 1 84
0.032323 0.014653 -0.376289 68 1 84
-0.558021 0.031162 0.046812 54 91 140
0.386060 -0.202857 -0.140977 68 1 84
-0.310441 -0.459286 -0.262109 68 1 84
0.539485 0.276886 0.433948 30 159 136
-0.704408 -0.498310 0.345506 35 137 141
0.644168 -0.466454 0.443370 139 213 70
0.526938 -0.520390 0.006855 47 105 141
0.509075 -0.007270 -0.038495 68 1 84
-0.692338 -0.372691 0.366173 32 144 140
-0.585071 0.131266 0.342505 52 94 141
0.577637 -0.399495 0.110528 36 134 141
0.293234 -0.360121 -0.202965 68 1 84
-0.074989 0.161065 -0.288478 68 1 84
-0.378491 0.231380 -0.109569 68 1 84
0.608183 -0.443521 0.218084 31 147 139
0.511076 -0.215839 -0.048934 60 77 138
-0.389338 0.439686 0.072753 59 81 138
-0.214650 0.446727 -0.116152 34 137 141
-0.669986 -0.260286 0.479604 114 207 85
-0.611219 0.008588 0.258714 38 127 142
0.240192 0.552382 -0.000533 30 156 137
0.440185 -0.456278 -0.141384 58 83 139
0.463153 0.411169 0.266465 68 1 84
0.180182 -0.468110 -0.293527 68 1 84
0.238036 -0.045510 -0.225230 68 1 84
0.636730 -0.315445 0.435538 157 217 58
0.295462 0.460277 -0.051125 36 133 141
-0.007691 0.238745 -0.258895 68 1 84
0.627690 -0.074984 0.416124 71 192 110
0.629776 -0.173425 0.238319 49 101 141
-0.272302 0.527909 0.046792 34 139 141
-0.504572 0.121366 -0.000071 71 39 119
-0.568430 0.180551 0.357160 65 65 134
-0.517741 -0.473763 -0.080936 31 148 139
-0.576700 0.099633 0.225654 41 120 142
0.584486 0.041850 0.201390 60 78 138
0.169290 0.475934 -0.162729 53 93 140
-0.517125 0.024798 -0.040974 70 47 124
0.472195 -0.329708 -0.061712 69 53 128
0.606844 0.015200 0.396236 30 160 135
0.261861 -0.042921 -0.220762 68 1 84
0.604916 -0.507131 0.214233 85 198 102
0.606974 -0.341559 0.191158 42 118 142
0.498327 -0.184628 -0.070771 71 37 117
-0.102387 -0.257666 -0.242242 68 1 84
-0.544942 0.185106 0.459996 41 120 142
0.160711 0.309152 -0.186286 68 1 84
-0.408723 -0.095578 -0.156487 68 1 84
0.515172 -0.516768 -0.013033 38 129 142
-0.499049 0.277273 0.120516 71 37 117
-0.672084 -0.436913 0.259308 39 126 142
0.375723 0.100044 -0.156394 68 1 84
-0.451003 -0.316579 -0.105154 58 83 139
-0.656010 -0.457134 0.213348 59 80 138
-0.677492 -0.275714 0.366427 52 94 141
-0.629185 -0.055532 0.452500 35 137 141
-0.577184 -0.016844 0.053867 46 107 142
0.617860 -0.042977 0.292005 39 124 142
-0.586328 0.064486 0.224551 36 134 141
-0.668358 -0.238072 0.414055 34 137 141
-0.711616 -0.502543 0.377020 31 149 139
0.223974 0.388296 -0.139234 50 98 141
-0.538563 0.255626 0.296103 68 2 85
0.601787 0.064623 0.362179 42 119 142
-0.339125 0.228436 -0.141340 68 1 84
0.425557 0.415510 0.098564 68 1 84
-0.161975 -0.056084 -0.239210 68 1 84
-0.259148 -0.434453 -0.245076 68 1 84
0.480760 -0.163683 -0.094027 72 29 111
-0.514230 -0.104782 -0.074583 71 20 102
0.296545 -0.392348 -0.214429 68 1 84
-0.547826 0.006781 0.000734 68 55 129
-0.507124 -0.272729 -0.043398 54 90 140
0.554798 0.222976 0.308536 57 85 139
0.490011 0.337856 0.156923 62 72 136
0.047287 -0.030786 -0.449664 68 1 84
-0.016047 -0.317630 -0.312738 68 1 84
-0.462684 0.314912 0.060160 66 61 132
-0.332532 0.428892 -0.028718 51 96 141
0.192575 -0.483528 -0.298712 68 1 84
-0.022301 0.487333 -0.217241 35 169 130
0.633552 -0.187602 0.270350 43 116 142
-0.545861 0.236551 0.284747 68 1 84
0.269375 -0.115770 -0.201244 68 1 84
-0.588615 -0.068703 0.048691 51 96 141
