ply
format ascii 1.0
element vertex 1262
property float x
property float y
property float z
property uchar red
property uchar green
property uchar blue
end_header
0.029594 0.230450 -0.281268 68 1 84
0.093600 -0.070118 -0.403831 69 50 127
-0.155715 0.040600 -0.206195 68 1 84
-0.608766 0.094996 0.196333 38 129 142
-0.268303 0.192610 -0.179816 68 1 84
-0.329053 0.080905 -0.189161 68 1 84
0.198893 0.083810 -0.185093 68 1 84
0.606098 0.003935 0.301474 58 82 139
0.331395 -0.173347 -0.140060 70 49 126
-0.646244 -0.207902 0.245235 68 1 84
-0.025696 -0.159075 -0.347770 71 44 123
-0.044446 -0.099427 -0.349319 70 48 125
-0.062163 0.084590 -0.290561 68 1 84
-0.263530 0.113030 -0.200768 68 1 84
-0.540961 0.298660 0.137553 100 203 93
-0.113010 -0.003409 -0.240888 68 1 84
0.176569 0.125084 -0.196824 68 1 84
-0.552796 0.199832 0.090972 32 144 140
0.587943 0.096213 0.343592 56 185 118
0.513916 0.199937 0.511134 100 203 93
-0.192017 -0.311778 -0.173404 48 103 141
0.531970 0.310513 0.352532 50 181 122
0.565760 -0.468419 -0.047051 68 1 84
-0.498582 0.385446 0.168547 81 196 104
-0.097633 0.285156 -0.208503 68 1 84
0.296324 0.078650 -0.177363 68 1 84
-0.536280 -0.080838 -0.048714 71 20 102
-0.264092 0.478313 -0.087408 45 110 142
-0.654921 -0.461508 0.270712 68 1 84
0.294090 -0.196954 -0.152407 65 65 134
0.573131 -0.026454 0.469349 69 8 91
0.580110 -0.203694 0.030408 68 1 84
0.449182 -0.348464 -0.117010 62 73 137
-0.446758 -0.344935 -0.100919 71 39 119
0.322798 0.139670 -0.161340 68 1 84
-0.498023 -0.034817 -0.089108 71 22 105
-0.288933 0.292721 -0.138608 68 1 84
0.454836 0.274445 0.004963 62 72 136
-0.148902 -0.435891 -0.274678 48 104 141
0.423603 -0.105128 -0.118925 53 92 140
0.208852 -0.080867 -0.206599 68 1 84
0.522783 0.049711 -0.038189 53 92 140
0.540805 0.163126 0.076883 61 75 137
0.553736 0.249207 0.365833 33 167 132
-0.417912 -0.463985 -0.186950 68 1 84
-0.568696 -0.416472 0.043042 68 1 84
-0.604254 -0.375597 0.106090 68 1 84
0.018127 0.065488 -0.442881 48 103 141
-0.574143 0.042097 0.062339 46 107 142
0.622279 -0.272962 0.466338 68 1 84
-0.090277 0.000167 -0.316388 68 1 84
-0.415068 0.138665 -0.125800 54 91 140
-0.624746 -0.210446 0.382165 68 1 84
-0.285750 -0.302653 -0.184746 58 82 139
0.272904 0.355234 -0.105250 68 1 84
0.615144 -0.114142 0.086488 68 1 84
0.591424 -0.159542 0.511013 68 1 84
0.604471 0.025969 0.178030 62 73 137
-0.289881 0.259787 -0.149250 68 1 84
0.475628 0.363548 0.414493 61 187 116
-0.140970 0.217193 -0.220331 68 1 84
-0.595925 0.224035 0.343064 49 100 141
-0.406786 -0.129368 -0.146327 70 12 95
0.620173 -0.213131 0.411136 68 1 84
-0.690321 -0.487836 0.414395 68 1 84
-0.249885 0.387527 -0.125661 69 5 88
-0.270297 0.557179 0.040595 36 170 130
-0.481511 -0.078833 -0.106932 71 21 103
0.121142 0.080311 -0.339413 68 1 84
-0.329002 0.148566 -0.173460 68 1 84
-0.279736 0.246229 -0.157662 68 1 84
-0.085112 -0.170812 -0.232654 68 1 84
0.529604 -0.517377 -0.111241 68 1 84
-0.067843 0.361343 -0.215321 68 1 84
-0.624598 -0.425462 0.186242 68 1 84
-0.346621 0.133399 -0.170877 71 43 122
0.203995 -0.408809 -0.255027 35 135 141
0.132832 0.078202 -0.348937 68 1 84
0.502797 -0.126415 -0.072213 71 38 118
-0.036828 0.092763 -0.293074 68 1 84
0.153993 -0.165128 -0.248766 68 1 84
0.055232 0.512182 -0.185654 68 1 84
0.539345 0.278385 0.211476 35 135 141
-0.625421 -0.217832 0.383476 68 1 84
-0.258247 -0.167653 -0.172065 71 43 122
-0.574579 0.229368 0.417262 33 142 140
0.525319 0.254784 0.129380 48 103 141
-0.553363 -0.189848 -0.013344 68 1 84
-0.301908 0.269984 -0.141163 69 8 91
-0.370172 0.057561 -0.174951 69 53 128
0.564102 0.183934 0.396769 30 153 138
-0.051269 0.112494 -0.266741 68 1 84
0.628481 -0.071462 0.255292 68 1 84
0.169544 -0.075593 -0.258562 68 1 84
0.057223 0.238512 -0.280170 68 1 84
0.017579 0.143208 -0.301544 68 1 84
0.611581 -0.046221 0.097768 72 25 107
0.474666 0.113766 -0.070573 54 91 140
0.122167 0.166347 -0.238028 68 1 84
-0.495623 0.271813 0.036501 35 137 141
-0.597959 0.199607 0.367712 45 111 142
-0.438097 0.211992 -0.068084 57 85 139
-0.606258 0.196870 0.253659 35 135 141
-0.626907 -0.331639 0.162357 68 1 84
-0.616303 -0.334680 0.129608 68 1 84
-0.515440 -0.212367 -0.049420 68 1 84
0.382428 0.319833 -0.048772 68 1 84
-0.411681 0.429200 0.047657 89 199 100
0.618442 -0.061708 0.310738 68 1 84
0.211055 -0.468828 -0.294682 37 130 142
-0.261890 -0.489460 -0.282385 56 185 118
0.614316 -0.186289 0.087877 68 1 84
-0.585718 0.009449 0.077432 66 61 132
0.656860 -0.312030 0.417593 68 1 84
-0.539178 0.321558 0.399461 183 221 41
0.254269 0.274361 -0.154185 68 1 84
-0.437929 0.079818 -0.124598 54 91 140
-0.155716 -0.231467 -0.177715 71 15 98
-0.338422 0.509128 0.055510 50 181 122
0.624712 -0.242894 0.118855 68 1 84
0.515572 0.348891 0.278297 34 138 141
-0.523983 0.062637 -0.028118 54 90 140
-0.413544 -0.374843 -0.149577 68 1 84
-0.268425 -0.424146 -0.253832 36 170 130
0.429259 0.358588 0.039063 69 50 127
-0.598271 -0.135518 0.059641 68 1 84
-0.649138 -0.360708 0.285944 68 1 84
0.590809 0.095821 0.269711 43 116 142
0.450859 0.180440 -0.066876 70 12 95
-0.439379 0.019561 -0.134574 70 48 125
0.080761 0.047503 -0.443956 47 105 141
-0.674072 -0.472952 0.355298 68 1 84
0.659200 -0.530548 0.301844 68 1 84
-0.631586 -0.399330 0.214231 68 1 84
0.056813 -0.215382 -0.349403 62 73 137
0.326543 -0.015356 -0.164884 65 66 134
0.497567 -0.354479 -0.091969 45 111 142
-0.350186 0.489672 0.036397 54 184 119
0.097503 -0.066168 -0.403355 70 49 126
-0.458963 -0.273986 -0.073865 71 37 117
-0.315596 -0.216375 -0.163975 60 78 138
0.627209 -0.072790 0.271810 68 1 84
-0.451392 0.409929 0.092291 37 171 129
0.045911 0.288167 -0.230424 68 1 84
0.627655 -0.182697 0.358361 68 1 84
-0.239184 -0.364690 -0.241655 38 129 142
0.592053 -0.157940 0.484904 68 1 84
-0.274904 0.422274 -0.102067 39 125 142
0.429815 0.436898 0.145396 52 95 141
-0.240169 -0.101226 -0.187941 68 1 84
0.186584 0.182078 -0.204231 68 1 84
-0.605951 -0.449224 0.132329 68 1 84
-0.616996 0.022999 0.217448 68 1 84
-0.619214 0.060847 0.246443 71 24 106
0.404031 0.463365 0.320372 72 29 111
0.285200 0.335506 -0.109696 68 1 84
0.555988 -0.343748 -0.014156 68 1 84
0.557640 0.248465 0.339308 38 172 129
0.325097 0.323191 -0.094727 68 1 84
0.381715 0.482450 0.121041 71 40 120
-0.404671 -0.492184 -0.202890 68 1 84
0.450018 0.423998 0.323906 33 141 140
0.597848 -0.071392 0.415652 71 17 99
-0.424363 0.443707 0.097218 46 178 124
-0.348865 -0.540122 -0.245184 70 9 92
0.417788 0.450345 0.315105 38 127 142
-0.614844 0.096011 0.228613 69 53 128
0.374889 0.343476 -0.041312 70 45 124
-0.456586 0.433767 0.180520 33 167 132
-0.622894 -0.189657 0.133710 68 1 84
0.377053 -0.416577 -0.203413 38 127 142
-0.507224 0.364216 0.145371 50 181 122
-0.605373 -0.420072 0.121202 68 1 84
0.574905 0.149675 0.212901 42 117 142
0.648537 -0.255437 0.238054 68 1 84
-0.574529 -0.263408 0.032447 68 1 84
-0.153728 0.406668 -0.167850 68 1 84
0.239437 -0.112246 -0.176376 68 1 84
0.568411 -0.491562 -0.042238 68 1 84
-0.342156 0.523164 0.145463 54 184 119
-0.646675 -0.237864 0.255279 68 1 84
-0.576108 -0.410430 0.056190 68 1 84
-0.489162 -0.302612 -0.051918 68 1 84
-0.608050 -0.195590 0.088231 68 1 84
0.112363 0.111354 -0.258347 68 1 84
-0.012427 -0.332298 -0.282075 55 88 140
0.523088 0.335648 0.284166 37 171 129
0.491953 0.362012 0.174883 46 109 142
0.413309 0.303568 -0.027348 68 1 84
-0.591621 0.252557 0.290311 30 155 137
0.273603 0.246658 -0.157321 68 1 84
0.177362 0.048543 -0.257371 71 37 117
0.341389 -0.049929 -0.153520 71 44 123
-0.604058 0.186535 0.224403 38 128 142
-0.468991 0.399632 0.113797 41 175 127
0.273317 0.508059 -0.032991 42 118 142
-0.284107 0.216287 -0.166165 68 1 84
-0.015896 0.255066 -0.275878 68 1 84
-0.659636 -0.390031 0.403653 68 1 84
0.136934 0.141925 -0.221312 68 1 84
0.532682 0.293379 0.205946 38 127 142
-0.328096 -0.349882 -0.188127 45 111 142
0.642980 -0.480213 0.195043 68 1 84
-0.658219 -0.476242 0.280841 68 1 84
0.432975 0.033291 -0.125216 31 148 139
0.316044 0.529693 0.078239 63 69 135
-0.669976 -0.533480 0.303691 68 1 84
-0.458861 0.003707 -0.120647 70 47 124
-0.046820 0.598920 -0.168208 58 82 139
0.377397 0.207210 -0.116092 72 30 112
0.506595 0.172406 0.007471 69 54 129
0.192366 -0.177957 -0.186764 68 1 84
0.651027 -0.393217 0.247785 68 1 84
-0.558596 0.286486 0.392707 39 173 128
0.118660 -0.114452 -0.362193 69 50 127
-0.629285 -0.240260 0.157169 68 1 84
-0.668049 -0.448599 0.368406 68 1 84
0.080351 -0.244312 -0.323671 57 84 139
0.166600 0.377703 -0.155946 68 1 84
-0.289735 -0.075925 -0.190022 68 1 84
0.522371 -0.477286 -0.122956 68 1 84
0.664908 -0.547746 0.336361 68 1 84
0.239293 0.585047 0.076078 33 141 140
0.557795 -0.014957 0.505806 69 53 128
-0.663402 -0.586842 0.286903 68 1 84
-0.032867 0.626387 -0.135247 71 40 120
-0.553838 -0.154923 -0.020455 68 1 84
0.649106 -0.363848 0.239410 68 1 84
0.317711 -0.448279 -0.239499 47 106 141
-0.434500 0.271849 -0.037632 30 151 138
-0.371512 -0.262358 -0.135964 70 11 94
-0.583403 0.182594 0.426464 40 122 142
0.206707 -0.033971 -0.207438 68 1 84
0.212842 -0.226097 -0.168265 68 1 84
-0.611221 0.097914 0.371947 68 1 84
-0.136042 0.155602 -0.223490 68 1 84
0.136537 -0.013539 -0.396299 68 57 130
-0.545663 -0.114424 -0.036741 68 1 84
0.138529 -0.214157 -0.242170 68 1 84
-0.156483 0.409711 -0.166402 68 1 84
-0.646540 -0.238889 0.254202 68 1 84
0.164637 0.208942 -0.216763 68 1 84
-0.562607 0.284010 0.379582 37 131 141
-0.605099 -0.289735 0.093497 68 1 84
-0.397419 0.392748 -0.006354 31 147 139
-0.659352 -0.487368 0.284051 68 1 84
-0.639032 -0.202918 0.311832 68 1 84
-0.582228 -0.153935 0.024967 68 1 84
0.018950 -0.157187 -0.381860 58 82 139
-0.585269 -0.038941 0.048109 72 33 114
0.567395 0.014788 0.015673 60 77 138
0.550244 -0.128581 -0.027804 72 35 116
-0.640663 -0.327345 0.358324 68 1 84
-0.195104 -0.331272 -0.176727 53 93 140
0.536171 -0.396874 -0.079762 61 74 137
0.092023 -0.451538 -0.314169 69 52 127
0.304626 0.494074 -0.001905 35 137 141
-0.153235 0.568700 -0.137155 46 108 142
-0.345356 0.033050 -0.187586 68 1 84
-0.625674 -0.052382 0.245199 68 1 84
-0.602575 0.208785 0.241715 44 114 142
0.548384 0.065084 0.011109 46 107 142
-0.155684 0.483330 -0.162061 62 72 136
-0.337827 0.404908 -0.060232 35 137 141
-0.059752 0.273305 -0.230747 68 1 84
0.127897 -0.096041 -0.354005 72 29 111
-0.602206 -0.476879 0.127979 68 1 84
0.134102 -0.247574 -0.235917 68 1 84
-0.528473 0.125884 0.011536 39 126 142
0.643506 -0.480892 0.198078 68 1 84
-0.679353 -0.496869 0.347784 68 1 84
0.144667 -0.275230 -0.210735 68 1 84
0.341504 0.517940 0.113011 57 84 139
0.588231 -0.105293 0.501180 68 1 84
0.276050 -0.271581 -0.168234 68 1 84
0.088960 0.326429 -0.228443 68 1 84
0.405134 0.440695 0.093981 42 119 142
0.100526 -0.080330 -0.395960 70 45 124
-0.075383 0.099338 -0.246456 68 1 84
0.612485 -0.374090 0.080283 68 1 84
0.597940 -0.002268 0.081748 70 9 92
0.340676 -0.475334 -0.247296 44 112 142
-0.508511 0.094424 -0.037309 51 96 141
-0.605347 0.204651 0.282292 46 109 142
0.128824 0.435708 -0.163293 72 30 112
-0.252327 -0.153704 -0.174424 58 83 139
-0.507318 -0.041608 -0.079784 70 48 125
0.048917 0.030340 -0.448770 49 102 141
-0.096819 0.606315 -0.140743 41 120 142
-0.299156 -0.076106 -0.188375 68 1 84
-0.001708 -0.395679 -0.298747 54 91 140
-0.233241 0.575254 0.008435 144 214 67
-0.249125 -0.410013 -0.258598 30 158 136
-0.635546 -0.163809 0.313811 68 1 84
0.169343 0.340884 -0.162769 68 1 84
-0.625762 -0.015422 0.314492 68 1 84
0.487739 0.317960 0.103904 57 85 139
0.435862 0.446689 0.215331 43 115 142
-0.470150 0.425895 0.298166 178 221 44
-0.132462 -0.299328 -0.167639 68 1 84
0.632720 -0.086644 0.215788 68 1 84
0.068896 -0.353605 -0.300039 64 68 135
0.497654 0.304422 0.454112 40 174 127
0.174110 -0.007454 -0.243902 68 1 84
0.464804 0.170994 -0.055835 70 49 126
0.572828 0.045974 0.437844 36 132 141
-0.159483 0.360581 -0.169117 68 1 84
0.147207 0.014834 -0.390297 62 73 137
0.005780 -0.249916 -0.317794 46 108 142
0.098415 0.523780 -0.171057 56 87 140
0.125758 -0.010248 -0.410613 61 74 137
-0.618255 -0.245803 0.121032 68 1 84
0.089712 0.076638 -0.425661 48 103 141
-0.532047 -0.419017 -0.022094 68 1 84
0.422095 -0.124716 -0.115662 54 91 140
-0.496330 0.263437 0.032872 30 153 138
0.203256 0.194491 -0.196470 68 1 84
-0.649204 -0.391832 0.353675 68 1 84
0.529452 -0.512551 -0.111695 68 1 84
0.407211 -0.354622 -0.159683 39 126 142
0.651952 -0.306347 0.445775 68 1 84
0.055162 -0.158380 -0.383373 63 71 136
0.445821 -0.374404 -0.140955 49 101 141
0.085057 0.104623 -0.294315 68 1 84
-0.419429 -0.325636 -0.106074 69 50 127
0.314729 0.337212 -0.094377 68 1 84
-0.464919 0.190531 -0.048184 43 115 142
0.666922 -0.459935 0.404719 68 1 84
-0.612017 -0.367146 0.124426 68 1 84
0.577891 0.147677 0.357190 30 156 137
0.214571 -0.480444 -0.295835 41 120 142
-0.110237 -0.047839 -0.241551 68 1 84
0.476256 -0.173917 -0.076840 62 73 137
0.356110 -0.142676 -0.133509 61 76 137
0.560212 -0.459649 -0.058622 68 1 84
-0.275314 0.547200 0.013079 73 193 109
0.638188 -0.399360 0.177018 68 1 84
0.293337 0.525532 0.017847 70 47 124
-0.360543 0.454785 0.004386 46 178 124
-0.604191 -0.037528 0.394292 68 1 84
-0.012833 0.637900 -0.106362 71 21 103
0.341057 0.061199 -0.165003 70 12 95
-0.573050 -0.063023 0.011641 68 1 84
0.487813 -0.347465 -0.092945 51 96 141
0.104553 0.247485 -0.258029 68 1 84
-0.265494 0.514301 -0.061505 42 176 126
0.304949 0.308693 -0.114484 68 1 84
0.478735 -0.317695 -0.074551 61 75 137
-0.259912 0.465488 -0.097280 44 112 142
-0.093062 0.591607 -0.158794 47 106 141
-0.044930 -0.184532 -0.293319 70 12 95
-0.150370 0.583694 -0.126124 34 137 141
-0.339742 0.372541 -0.078504 53 93 140
0.594879 -0.121900 0.038367 72 28 110
-0.596701 0.149392 0.404214 71 24 106
-0.062752 0.345833 -0.227942 68 1 84
0.552402 0.240227 0.215537 44 114 142
0.649498 -0.210387 0.250078 68 1 84
0.594725 -0.113111 0.037173 68 1 84
0.501928 -0.375495 -0.106005 52 94 141
-0.189503 0.596963 -0.023322 73 193 109
-0.640892 -0.320322 0.360575 68 1 84
0.352477 0.513920 0.140246 63 69 135
0.516686 0.224431 0.075996 51 96 141
0.552412 0.003757 -0.015249 64 67 135
-0.225546 0.161649 -0.197438 68 1 84
0.272515 -0.406201 -0.218234 52 95 141
0.288997 0.136456 -0.169629 68 1 84
-0.000041 -0.312315 -0.290559 61 76 137
0.635166 -0.527377 0.136282 68 1 84
0.640665 -0.426924 0.195403 68 1 84
-0.572775 -0.044191 0.015464 69 52 127
-0.616257 -0.199278 0.407188 68 1 84
0.080016 0.591770 -0.157190 54 90 140
-0.531738 0.142598 0.026229 43 115 142
-0.203749 0.553873 -0.101082 39 125 142
-0.531921 0.106475 0.007508 38 128 142
-0.106686 -0.207328 -0.190066 68 1 84
0.540148 0.274775 0.209383 33 142 140
0.391314 -0.307845 -0.127412 55 89 140
-0.499102 -0.083403 -0.090325 71 22 105
0.585020 0.124926 0.252214 54 91 140
0.637602 -0.145526 0.312341 67 59 131
0.006531 -0.331808 -0.292177 70 49 126
0.211012 -0.325966 -0.180836 72 32 113
-0.680541 -0.535897 0.330546 68 1 84
0.240493 0.584356 0.075761 31 146 140
0.656241 -0.495703 0.281004 68 1 84
0.099622 0.174489 -0.255345 68 1 84
-0.603473 0.018594 0.149131 71 37 117
0.188674 0.482067 -0.126695 66 62 133
-0.575826 0.249084 0.388151 31 148 139
-0.560529 -0.530075 0.041296 68 1 84
-0.053917 0.172342 -0.263550 68 1 84
0.598932 -0.040878 0.387150 69 6 90
-0.511839 -0.205263 -0.055062 68 1 84
0.100933 0.296028 -0.210100 68 1 84
0.080080 0.161165 -0.271337 68 1 84
-0.445549 -0.227680 -0.092517 71 24 106
-0.612109 0.093537 0.212594 59 81 138
-0.377497 -0.172997 -0.140099 69 54 129
0.510875 -0.099409 -0.071363 52 94 141
0.321741 -0.311915 -0.150487 71 15 98
-0.616916 -0.100396 0.130911 68 1 84
0.160247 -0.297850 -0.196747 68 1 84
-0.451737 0.391807 0.067812 53 183 120
0.362885 -0.338368 -0.164639 53 93 140
0.215155 -0.460927 -0.290425 30 154 137
0.082236 -0.053072 -0.416788 69 52 127
0.633450 -0.352581 0.146253 68 1 84
0.646003 -0.480314 0.213722 68 1 84
-0.487182 0.189756 -0.017427 30 152 138
-0.459330 -0.232128 -0.083751 68 1 84
-0.183682 0.147554 -0.207410 68 1 84
0.532979 -0.400088 -0.086302 63 71 136
0.293555 -0.038965 -0.169629 57 85 139
0.112104 0.275476 -0.228287 68 1 84
0.303754 0.493951 -0.003376 37 131 141
-0.021565 0.155633 -0.284269 68 1 84
0.187759 -0.017187 -0.220289 68 1 84
-0.635651 -0.291250 0.199120 68 1 84
-0.228236 0.432246 -0.129489 72 29 111
0.322920 0.438966 -0.024023 31 147 139
0.420033 0.442283 0.359338 70 47 124
0.547768 0.037190 -0.007107 71 42 121
-0.625789 -0.293293 0.149794 68 1 84
0.655780 -0.367784 0.301085 68 1 84
-0.496990 0.347628 0.097380 31 161 135
0.577227 0.119966 0.173686 69 5 88
0.657421 -0.332769 0.511266 68 1 84
-0.592526 0.243034 0.316142 39 124 142
-0.579544 0.272525 0.225038 35 135 141
-0.610338 -0.035574 0.147558 69 5 88
0.332293 0.527069 0.218341 66 61 132
-0.202353 0.555565 -0.101222 38 129 142
0.145025 0.237474 -0.229047 68 1 84
0.419938 0.115916 -0.118742 68 57 130
0.218921 -0.474268 -0.293312 48 104 141
-0.078816 0.507917 -0.187342 49 102 141
0.093569 0.096639 -0.288096 68 1 84
-0.121288 -0.173245 -0.196270 68 1 84
0.598720 -0.410976 0.037483 68 1 84
0.499952 -0.101773 -0.079896 61 75 137
0.598523 -0.198832 0.507086 68 1 84
0.152201 0.039287 -0.374587 71 43 122
-0.306928 0.089765 -0.195555 68 1 84
0.333216 -0.123850 -0.141878 68 55 129
-0.264195 0.190986 -0.181600 68 1 84
-0.595516 0.047917 0.450891 68 1 84
-0.084078 0.189965 -0.250010 68 1 84
-0.626639 -0.259067 0.423947 68 1 84
-0.242236 -0.214593 -0.179312 72 29 111
-0.312942 -0.377821 -0.215139 46 108 142
-0.201054 -0.190721 -0.175714 70 45 124
0.589501 -0.141778 0.030958 68 1 84
0.584553 -0.054739 0.021661 71 18 101
-0.467515 0.106343 -0.086696 51 97 141
-0.635621 -0.200099 0.326565 68 1 84
-0.439903 -0.215183 -0.099132 71 24 106
0.640115 -0.268959 0.175138 68 1 84
-0.233998 -0.365175 -0.245191 38 128 142
-0.392096 0.348252 -0.042659 31 146 140
-0.356150 -0.530549 -0.241111 70 14 97
-0.595450 0.041465 0.454313 68 1 84
-0.241370 0.197209 -0.186653 68 1 84
0.543718 0.265126 0.388231 39 173 128
0.462432 -0.004759 -0.108480 46 107 142
0.241709 0.051623 -0.184204 71 38 118
0.539871 0.259077 0.182887 38 129 142
0.656717 -0.484872 0.290503 68 1 84
-0.351190 -0.449368 -0.234223 70 47 124
0.513151 -0.400875 -0.112281 65 65 134
0.467124 0.096021 -0.085085 56 87 140
-0.494632 0.283576 0.041873 38 127 142
0.233267 0.168419 -0.180746 68 1 84
-0.107953 0.458124 -0.176091 68 2 85
0.192554 0.155178 -0.196441 68 1 84
0.538007 -0.276994 -0.010034 68 1 84
0.600023 -0.093287 0.415582 68 1 84
0.311674 -0.149196 -0.146556 71 42 121
0.273100 0.564865 0.084336 41 120 142
0.598393 0.002226 0.355442 70 45 124
0.345114 0.466915 0.027469 44 112 142
-0.048568 -0.180547 -0.289153 68 1 84
0.460813 0.322379 0.056986 60 78 138
-0.491666 0.405446 0.259819 50 181 122
-0.590480 -0.119230 0.040734 68 1 84
-0.556661 0.171730 0.084840 39 126 142
0.063591 0.236391 -0.279064 68 1 84
-0.653324 -0.445069 0.282730 68 1 84
-0.243980 -0.221191 -0.181605 70 12 95
-0.002998 0.478754 -0.190593 50 99 141
-0.638671 -0.293551 0.219475 68 1 84
-0.563217 0.276904 0.171062 31 163 134
0.640703 -0.282580 0.388411 68 1 84
-0.354022 -0.025704 -0.184465 70 48 125
0.198401 -0.280159 -0.166918 68 1 84
0.265706 0.280445 -0.147341 68 1 84
-0.395370 0.363052 -0.029474 31 162 134
-0.395587 0.392980 -0.008351 31 148 139
0.605781 -0.501601 0.044746 68 1 84
-0.631015 -0.258306 0.390697 68 1 84
0.001557 -0.392431 -0.298925 54 90 140
0.510430 0.237999 0.487805 165 218 53
0.349442 -0.503605 -0.253532 68 1 84
0.091997 -0.055960 -0.410854 64 68 135
-0.292533 -0.380037 -0.232095 44 177 125
0.493713 0.293601 0.478816 141 214 68
0.570084 -0.203199 0.017007 68 1 84
-0.290178 -0.112136 -0.179156 70 47 124
0.392187 0.208259 -0.106072 68 1 84
-0.612464 0.004166 0.184294 72 30 112
-0.614058 0.108910 0.357205 70 11 94
0.574475 0.159360 0.223392 36 132 141
-0.597638 -0.267531 0.073198 68 1 84
-0.526206 -0.168812 -0.051333 68 1 84
0.256636 -0.350122 -0.186606 72 32 113
0.642830 -0.303589 0.499592 68 1 84
0.617703 -0.376268 0.093932 68 1 84
0.067959 -0.291129 -0.307286 67 60 132
0.650179 -0.322464 0.253261 68 1 84
-0.146465 0.450564 -0.166664 69 5 88
-0.689906 -0.592397 0.350328 68 1 84
-0.274279 0.294528 -0.141888 68 1 84
0.038648 -0.387915 -0.304344 60 78 138
0.484401 -0.312191 -0.067245 63 71 136
-0.054800 0.025235 -0.404048 65 65 134
-0.494823 -0.162622 -0.081956 68 1 84
-0.496102 0.065713 -0.065573 46 107 142
-0.324519 0.493496 -0.000274 89 199 100
0.615491 -0.059833 0.104618 72 34 115
-0.410153 0.368739 -0.008104 39 173 128
-0.196261 -0.028218 -0.205966 68 1 84
-0.197864 -0.206262 -0.177745 68 55 129
-0.461256 0.431697 0.198606 30 153 138
0.650760 -0.282392 0.259987 68 1 84
0.017556 0.111024 -0.382602 68 1 84
-0.623539 -0.065249 0.203976 68 1 84
-0.270819 -0.095461 -0.186924 62 73 137
0.142494 -0.279094 -0.214405 68 1 84
0.211695 0.383958 -0.127086 68 1 84
0.602123 -0.015172 0.350472 68 1 84
0.109315 0.141410 -0.244760 68 1 84
0.428986 -0.263681 -0.096513 71 37 117
-0.073111 0.045914 -0.368817 68 1 84
-0.294584 0.535097 0.024841 35 168 131
0.558352 -0.507827 -0.062439 68 1 84
-0.604935 0.116087 0.388454 68 1 84
0.151888 -0.043049 -0.317320 71 42 121
-0.580328 -0.003198 0.052353 71 17 99
0.500660 -0.358096 -0.092852 48 104 141
0.166371 0.596731 -0.088824 54 90 140
0.148856 0.165681 -0.221341 68 1 84
0.285228 0.558332 0.096391 40 123 142
0.474972 0.385411 0.371716 50 181 122
0.319350 -0.457279 -0.245330 46 109 142
-0.615889 0.013602 0.363306 68 1 84
-0.398457 0.483335 0.182328 30 155 137
0.129200 -0.168246 -0.305403 70 47 124
-0.568859 -0.010444 0.021031 71 37 117
-0.559237 0.309793 0.332953 35 135 141
0.467761 -0.520286 -0.183395 68 3 87
0.388144 0.125254 -0.136395 65 65 134
-0.204746 0.306979 -0.143172 68 1 84
-0.606193 -0.514618 0.147814 68 1 84
-0.602155 -0.448591 0.120935 68 1 84
-0.658172 -0.479476 0.270015 68 1 84
0.152843 0.025932 -0.377174 70 48 125
-0.688134 -0.601064 0.346753 68 1 84
-0.060106 -0.171935 -0.272497 68 1 84
0.335283 0.520967 0.104882 51 96 141
-0.614663 -0.277464 0.114291 68 1 84
-0.242973 -0.207915 -0.177232 72 34 115
-0.001517 0.603245 -0.168763 66 64 133
0.531544 0.315649 0.266159 44 113 142
0.634237 -0.129636 0.310770 70 14 97
0.121876 0.219248 -0.245079 68 1 84
-0.452962 0.443384 0.255258 66 190 113
0.606131 -0.341471 0.073385 68 1 84
0.140096 0.413931 -0.163928 69 8 91
0.410454 -0.038519 -0.135080 56 86 139
0.636952 -0.338116 0.161168 68 1 84
0.334069 -0.211320 -0.148169 62 72 136
0.115125 -0.404844 -0.298378 69 52 127
-0.594181 -0.017793 0.088238 67 60 132
0.579406 -0.021044 0.449889 72 29 111
-0.620156 -0.026096 0.359749 68 1 84
0.623724 -0.071040 0.141325 68 1 84
0.163464 0.614531 -0.036227 30 153 138
0.514115 0.244268 0.475723 71 192 110
0.248976 0.575011 0.039954 62 72 136
-0.564079 0.306977 0.228774 30 153 138
0.309096 -0.018040 -0.168703 72 26 108
0.388283 -0.180594 -0.120129 54 91 140
-0.292307 -0.495214 -0.274070 46 109 142
-0.472693 0.393592 0.111585 35 168 131
-0.495675 0.065850 -0.066075 46 107 142
0.247252 -0.106737 -0.174070 68 1 84
-0.710712 -0.572532 0.408770 68 1 84
0.670344 -0.448330 0.464479 68 1 84
-0.486457 -0.365178 -0.068667 68 1 84
0.175525 0.613223 0.012781 46 107 142
-0.576209 0.258855 0.189953 50 181 122
0.265873 0.342383 -0.111573 68 1 84
-0.492050 -0.178221 -0.079648 68 1 84
0.619933 -0.104584 0.343245 68 1 84
0.286391 -0.260788 -0.170088 68 1 84
0.597047 -0.115103 0.042004 68 1 84
0.193947 -0.269465 -0.168931 68 1 84
-0.587516 0.263722 0.265273 32 144 140
-0.043213 -0.409198 -0.292553 41 121 142
-0.400167 0.454801 0.066262 73 193 109
-0.381042 -0.359343 -0.158039 67 58 131
0.594385 -0.045408 0.413023 68 1 84
0.413556 0.441655 0.113114 69 53 128
0.556085 -0.387991 -0.042340 68 1 84
0.258828 -0.459654 -0.270810 52 94 141
0.656273 -0.310781 0.439666 68 1 84
0.404032 -0.358953 -0.163945 34 139 141
-0.491876 0.377158 0.128449 50 181 122
-0.558273 -0.423730 0.023493 68 1 84
0.635521 -0.148445 0.160534 68 1 84
0.263056 -0.440260 -0.253501 39 124 142
-0.549310 0.295744 0.416782 121 209 81
0.529074 0.318690 0.344534 35 169 130
0.158682 0.109007 -0.202163 68 1 84
-0.577425 -0.009651 0.041147 70 49 126
-0.620036 0.037214 0.244905 68 1 84
0.152747 -0.043785 -0.312182 69 54 129
0.652433 -0.300629 0.320019 68 1 84
-0.276596 -0.085198 -0.189028 71 20 102
0.588811 0.080526 0.182466 59 80 138
-0.580292 0.231873 0.393849 38 129 142
0.595987 0.057099 0.198999 49 102 141
-0.319281 -0.361407 -0.203986 40 123 142
0.073184 -0.265465 -0.316615 59 80 138
-0.135348 0.509601 -0.169640 51 96 141
-0.625706 -0.131630 0.154923 68 1 84
0.635708 -0.260127 0.384024 68 1 84
-0.351118 0.253421 -0.119014 54 91 140
-0.492684 -0.184309 -0.077426 68 1 84
-0.294403 -0.480774 -0.268320 42 119 142
0.522227 0.161031 0.511940 37 171 129
0.416177 0.081620 -0.129185 67 60 132
0.539669 0.120786 0.488435 30 156 137
-0.542585 0.023449 -0.013819 68 57 130
-0.612988 0.164652 0.287387 42 119 142
-0.538818 0.348241 0.228928 33 166 133
0.506418 0.252865 0.080393 65 65 134
0.346995 0.519504 0.153488 55 88 140
0.301608 0.237018 -0.145627 68 1 84
0.617960 -0.175925 0.095754 68 1 84
-0.038689 -0.265549 -0.252334 70 45 124
0.510184 0.208175 0.044909 67 59 131
-0.593556 -0.003475 0.461656 68 1 84
-0.590886 0.228732 0.361721 44 112 142
-0.445781 0.222629 -0.053114 62 72 136
-0.596237 -0.196844 0.059236 68 1 84
-0.049602 0.601931 -0.165097 58 83 139
-0.149661 0.098166 -0.210444 68 1 84
-0.644260 -0.198382 0.277587 68 1 84
0.607753 -0.087176 0.069093 68 1 84
-0.134505 -0.372426 -0.222945 60 77 138
-0.209913 0.314317 -0.142832 68 1 84
0.435715 0.388518 0.081289 72 34 115
0.200444 -0.051554 -0.214307 68 1 84
0.524040 -0.345589 -0.060295 65 66 134
-0.527779 -0.544370 -0.025795 68 1 84
0.283289 0.551505 0.054360 70 48 125
-0.513611 -0.349348 -0.031117 68 1 84
-0.087050 0.579290 -0.170481 37 131 141
0.255302 0.314101 -0.125095 68 1 84
0.661667 -0.528190 0.322043 68 1 84
0.636325 -0.242731 0.370967 68 1 84
0.572156 0.091117 0.418523 35 168 131
0.513042 -0.005026 -0.066659 54 91 140
-0.273578 -0.338421 -0.189381 45 111 142
-0.500872 -0.338588 -0.044044 68 1 84
-0.142056 -0.290545 -0.168552 68 1 84
0.013846 0.159105 -0.289190 68 1 84
0.040724 0.477391 -0.184763 68 1 84
-0.587201 0.206689 0.397532 38 129 142
0.216548 0.428727 -0.118058 62 72 136
0.111257 -0.137064 -0.360354 67 58 131
0.283824 -0.110010 -0.157437 72 26 108
-0.032749 0.074957 -0.387862 68 1 84
-0.301486 0.545060 0.093375 47 179 123
0.559027 0.218633 0.218911 49 100 141
0.151858 0.351450 -0.176506 68 1 84
0.112900 -0.205401 -0.311139 70 45 124
0.528352 0.251899 0.134772 46 109 142
0.486848 -0.383337 -0.123819 46 109 142
-0.605435 -0.453722 0.132121 68 1 84
0.611273 0.000420 0.170367 66 62 133
-0.648159 -0.388159 0.282156 68 1 84
0.602867 -0.099759 0.054940 70 12 95
0.632158 -0.290511 0.475885 68 1 84
0.186795 0.153521 -0.198935 68 1 84
-0.261358 -0.523111 -0.291125 40 122 142
-0.116790 0.148804 -0.229997 68 1 84
0.655446 -0.251888 0.284699 68 1 84
-0.576182 -0.209241 0.023378 68 1 84
-0.619149 -0.011688 0.215120 68 1 84
-0.120907 0.480213 -0.174239 52 95 141
-0.607888 -0.082289 0.101709 68 1 84
-0.622561 -0.509549 0.192984 68 1 84
0.551218 0.184563 0.437746 44 177 125
-0.154920 -0.246911 -0.179010 68 1 84
-0.117673 0.455152 -0.173896 69 54 129
-0.621504 -0.232529 0.391390 68 1 84
-0.183129 -0.471161 -0.295774 45 111 142
-0.559458 -0.171860 -0.008926 68 1 84
0.168435 0.087515 -0.199974 68 1 84
-0.276322 0.013143 -0.205343 68 1 84
-0.586476 0.186264 0.415030 41 121 142
-0.194671 0.410531 -0.149729 70 11 94
-0.041427 0.354210 -0.230301 68 1 84
-0.523886 0.350682 0.383264 121 209 81
-0.586919 -0.038787 0.429427 68 1 84
0.174225 -0.358840 -0.229759 54 91 140
-0.230540 0.569583 -0.026106 81 196 104
0.543172 -0.334384 -0.027076 68 1 84
-0.652494 -0.334116 0.431081 68 1 84
-0.174336 0.333201 -0.160002 68 1 84
-0.640180 -0.494775 0.224184 68 1 84
0.500671 -0.379103 -0.109993 46 107 142
0.367507 -0.440971 -0.220430 66 64 133
-0.456510 -0.385370 -0.115889 68 1 84
-0.138845 -0.290301 -0.168641 68 3 87
-0.173690 0.374629 -0.161950 68 1 84
-0.330788 0.529551 0.124493 85 198 102
0.141461 0.107810 -0.219822 68 1 84
-0.077430 0.007260 -0.357318 68 1 84
-0.394396 -0.520971 -0.209443 68 1 84
0.590810 0.084938 0.223179 53 92 140
-0.611546 -0.339863 0.117470 68 1 84
-0.159315 -0.118861 -0.197277 68 1 84
0.428236 -0.089992 -0.120307 51 97 141
-0.402624 0.230951 -0.091736 44 113 142
-0.392283 0.230445 -0.100402 33 141 140
-0.618641 -0.277677 0.125381 68 1 84
0.378027 0.286550 -0.072906 64 68 135
-0.508741 0.246049 0.041535 30 156 137
-0.263189 0.047690 -0.207749 68 1 84
-0.487091 -0.094390 -0.101142 70 11 94
-0.499677 -0.080904 -0.089733 72 32 113
0.144665 0.211770 -0.229288 68 1 84
-0.445210 -0.329030 -0.092574 65 66 134
0.298072 0.015808 -0.175086 72 33 114
0.480886 0.370913 0.156619 64 67 135
0.158180 -0.311045 -0.204219 68 1 84
-0.266241 0.538283 -0.027720 85 198 102
0.618543 -0.263040 0.469208 68 1 84
0.492347 0.381874 0.243684 41 120 142
-0.265693 0.316304 -0.136775 68 1 84
0.591459 -0.444101 0.012654 68 1 84
0.147372 -0.321824 -0.230338 68 1 84
-0.344181 -0.263708 -0.162324 55 88 140
0.383595 0.279876 -0.072084 71 40 120
0.031453 -0.345414 -0.300242 71 15 98
0.509720 0.297763 0.437827 40 174 127
0.459373 0.388384 0.408225 61 187 116
-0.442447 0.434836 0.125795 68 190 112
0.277741 -0.306029 -0.162024 68 1 84
-0.233642 0.317683 -0.139158 72 32 113
0.435772 0.431815 0.150854 64 68 135
0.467128 0.411063 0.311625 53 93 140
-0.458227 0.421644 0.135448 85 198 102
0.033329 0.118918 -0.363170 68 1 84
-0.152032 -0.261247 -0.178355 68 1 84
-0.596054 0.071820 0.438287 68 1 84
-0.423989 0.142605 -0.116580 56 86 139
-0.293081 -0.489426 -0.271790 47 106 141
-0.075814 -0.116468 -0.281849 68 1 84
-0.562213 0.285242 0.378563 35 136 141
0.543899 -0.245124 -0.004380 68 1 84
0.285497 0.043310 -0.178998 72 35 116
0.597785 0.008510 0.093688 70 9 92
-0.230939 -0.363167 -0.230204 30 152 138
0.439898 -0.328057 -0.105618 62 73 137
0.635095 -0.396027 0.159191 68 1 84
-0.478080 0.385434 0.109528 39 173 128
-0.209575 0.476907 -0.131271 71 37 117
0.399080 0.196881 -0.106379 70 12 95
-0.222530 0.462618 -0.126239 50 98 141
0.583272 0.141355 0.287178 39 126 142
0.445705 0.426868 0.326709 36 133 141
-0.575345 -0.089939 0.011364 68 3 87
-0.222023 -0.409571 -0.258236 33 142 140
0.625960 -0.423449 0.118622 68 1 84
0.244264 0.405701 -0.105309 53 92 140
-0.622511 -0.259864 0.135072 68 1 84
0.189968 0.594482 -0.051975 32 144 140
0.318829 0.502404 0.029589 30 156 137
0.495436 0.378631 0.314847 39 126 142
0.636482 -0.135269 0.174973 68 1 84
-0.330974 -0.319149 -0.164259 55 88 140
-0.442102 0.199159 -0.070946 39 124 142
0.566759 0.181129 0.206940 49 102 141
-0.221154 0.191872 -0.193694 68 1 84
0.187657 0.575870 -0.087310 40 122 142
0.350173 -0.426264 -0.215564 54 90 140
-0.636832 -0.574526 0.225137 68 1 84
0.561019 0.123077 0.438071 33 166 133
-0.428839 0.449169 0.128112 68 190 112
0.303945 0.268628 -0.134033 68 1 84
-0.414910 -0.335818 -0.115758 61 76 137
0.544941 0.181505 0.454255 33 166 133
0.575328 -0.090434 0.001739 68 55 129
-0.619609 -0.020628 0.213101 68 2 85
0.109953 0.117053 -0.255781 68 1 84
0.560511 0.060931 0.460822 44 112 142
0.473432 0.408146 0.260425 36 134 141
0.178029 -0.079100 -0.243650 68 1 84
0.383922 -0.343765 -0.167922 37 131 141
-0.023702 0.494504 -0.191918 67 58 131
0.529052 0.313856 0.359816 48 180 122
-0.472651 -0.063632 -0.114689 70 48 125
0.625379 -0.383454 0.117355 68 1 84
0.597709 0.007305 0.355215 71 40 120
-0.611766 0.172188 0.286411 41 120 142
-0.511357 0.105666 -0.027545 46 108 142
0.126406 0.507531 -0.157732 64 67 135
-0.449624 0.197603 -0.063025 39 126 142
0.276266 0.086406 -0.179732 68 1 84
-0.643824 -0.342506 0.322962 68 1 84
0.563332 -0.417440 -0.043611 68 1 84
-0.327514 0.305044 -0.116405 64 68 135
-0.492580 0.388434 0.156056 48 180 122
0.615959 -0.029489 0.278039 72 33 114
0.056006 -0.120285 -0.399637 57 85 139
-0.435647 0.409454 0.062006 42 176 126
-0.159187 -0.170804 -0.182492 72 35 116
0.627816 -0.074874 0.165746 68 1 84
0.366022 0.304603 -0.072998 72 25 107
-0.185165 0.261724 -0.162943 68 1 84
0.501666 0.270096 0.086634 68 55 129
0.596569 -0.335057 0.056721 68 1 84
0.560443 -0.277845 0.013242 68 1 84
0.139164 -0.060306 -0.352725 71 44 123
0.040161 0.169901 -0.282795 68 1 84
-0.203101 0.365948 -0.149399 68 1 84
0.283125 0.559315 0.091532 49 102 141
0.507946 0.359795 0.250475 41 120 142
0.133294 -0.154486 -0.308312 72 29 111
-0.608613 0.046789 0.181499 70 49 126
-0.528659 -0.280122 -0.019966 68 1 84
0.448538 -0.218465 -0.082433 70 12 95
-0.493039 0.395372 0.179350 46 178 124
0.053995 0.106023 -0.406150 71 43 122
-0.110851 -0.484932 -0.318787 69 5 88
0.369632 0.387069 -0.014876 66 64 133
0.143692 -0.067890 -0.333063 69 50 127
-0.178494 0.543932 -0.132383 35 135 141
-0.420089 0.452570 0.110167 31 161 135
0.565263 0.118925 0.427591 38 172 129
0.085323 0.094081 -0.364501 68 1 84
-0.602309 0.217842 0.265227 31 149 139
0.602250 -0.265751 0.073364 68 1 84
0.408114 0.017636 -0.140614 45 111 142
-0.564917 -0.397028 0.034084 68 1 84
-0.159575 0.343860 -0.169631 68 1 84
-0.200176 -0.100896 -0.193237 71 42 121
-0.189283 0.409411 -0.152324 68 1 84
0.011904 0.281522 -0.243765 68 1 84
0.001290 -0.096624 -0.398586 57 84 139
0.125176 0.368947 -0.189380 68 1 84
-0.029336 -0.275810 -0.267703 66 62 133
0.216813 0.534596 -0.085335 33 140 141
-0.237825 -0.066683 -0.197267 71 40 120
-0.616060 0.138934 0.314370 56 87 140
0.625775 -0.323469 0.121906 68 1 84
0.547394 0.266939 0.367788 54 184 119
-0.232373 -0.181282 -0.174476 69 54 129
-0.506051 0.311598 0.079324 32 143 140
-0.425934 -0.498759 -0.178946 68 1 84
0.122477 0.563422 -0.150117 53 92 140
-0.084207 0.062759 -0.337002 68 1 84
-0.555246 -0.548438 0.029420 68 1 84
-0.093382 0.615541 -0.127005 33 141 140
-0.608926 -0.131128 0.091396 68 1 84
0.218548 -0.095578 -0.195146 68 1 84
0.660308 -0.508210 0.316983 68 1 84
-0.373978 0.489646 0.089879 40 174 127
-0.651674 -0.366145 0.387751 68 1 84
-0.218093 0.341412 -0.143079 68 1 84
-0.016632 -0.007074 -0.431777 61 74 137
0.288701 -0.085961 -0.160492 72 34 115
0.013563 0.479516 -0.189267 71 38 118
0.570419 0.065843 0.059610 49 101 141
0.248827 0.573403 0.032194 57 85 139
0.472302 0.351860 0.450245 253 231 36
0.071863 -0.344635 -0.299672 72 28 110
-0.615425 -0.376125 0.136985 68 1 84
-0.610018 -0.221879 0.095422 68 1 84
-0.321623 -0.388770 -0.215016 40 123 142
0.425517 0.347709 0.022602 70 49 126
-0.613192 -0.432338 0.149452 68 1 84
0.377625 -0.466889 -0.230367 71 40 120
0.505361 0.308867 0.135188 56 86 139
0.626508 -0.109507 0.321510 68 1 84
-0.558479 -0.185407 -0.007491 68 1 84
-0.343936 0.517258 0.101816 37 171 129
-0.092504 0.463299 -0.179800 71 15 98
0.623064 -0.397474 0.108490 68 1 84
0.513234 -0.177207 -0.049681 71 17 99
0.086674 0.024322 -0.442679 44 114 142
-0.077237 -0.151846 -0.257681 68 1 84
-0.632786 -0.103690 0.289912 68 1 84
-0.242003 -0.196073 -0.174349 64 67 135
0.112644 -0.020171 -0.416169 65 65 134
0.235394 0.194204 -0.180649 68 1 84
-0.372426 -0.058590 -0.174353 69 5 88
0.180403 -0.288119 -0.178205 68 1 84
-0.615592 -0.189462 0.109557 68 1 84
0.131806 0.533106 -0.153297 63 71 136
-0.551812 -0.310887 0.009732 68 1 84
-0.636434 -0.222003 0.187734 68 1 84
0.200488 -0.347967 -0.198709 62 72 136
-0.420010 -0.023553 -0.151460 69 53 128
-0.089276 0.567975 -0.175426 43 115 142
-0.248968 0.562692 -0.002592 66 190 113
-0.648776 -0.349380 0.289323 68 1 84
0.139176 0.002167 -0.400787 64 67 135
0.568189 0.194143 0.363954 77 194 107
0.156294 -0.416260 -0.289194 50 98 141
-0.041672 -0.281643 -0.243432 71 22 105
0.539731 -0.402437 -0.077630 69 50 127
-0.653541 -0.391290 0.382323 68 1 84
-0.018963 -0.010057 -0.429475 63 69 135
-0.252849 0.387046 -0.124343 71 17 99
0.637120 -0.400007 0.170689 68 1 84
0.236855 -0.135511 -0.172034 68 1 84
0.249009 -0.111706 -0.172036 68 1 84
0.471209 0.023012 -0.098968 65 66 134
-0.514897 0.371835 0.343702 112 206 86
0.656112 -0.400320 0.348318 68 1 84
0.431037 -0.154656 -0.106158 62 72 136
-0.484492 0.408610 0.195726 53 183 120
-0.086745 0.325439 -0.223320 68 1 84
-0.601774 0.007405 0.417496 68 1 84
0.230146 -0.182799 -0.163420 68 1 84
-0.633979 -0.126386 0.307830 68 1 84
0.635953 -0.255698 0.156777 68 1 84
-0.589777 -0.216241 0.048234 68 1 84
0.448930 0.135953 -0.088598 72 28 110
-0.105022 0.049099 -0.295843 68 1 84
-0.477255 -0.386000 -0.089413 68 1 84
-0.462893 0.188666 -0.051855 37 130 142
-0.078485 0.287661 -0.218219 68 1 84
0.136518 0.058365 -0.389952 71 15 98
-0.314704 -0.442202 -0.246051 50 99 141
0.532738 0.204144 0.467197 112 206 86
-0.493202 -0.369784 -0.061658 68 1 84
-0.403606 0.286017 -0.064057 49 100 141
0.489093 0.153319 -0.033467 68 55 129
-0.632142 -0.102214 0.321993 68 1 84
0.404896 0.469776 0.262139 30 156 137
0.222209 -0.276694 -0.163859 68 1 84
0.576700 -0.324979 0.026934 68 1 84
-0.479235 -0.370232 -0.080131 68 1 84
-0.271393 0.438057 -0.098372 64 68 135
0.630846 -0.132729 0.141393 68 1 84
-0.319518 -0.489968 -0.261359 46 108 142
-0.063083 0.337539 -0.232080 68 1 84
-0.208183 -0.423831 -0.259357 41 120 142
0.511643 -0.410693 -0.119316 46 109 142
0.187804 0.036533 -0.200620 68 1 84
0.330144 0.431782 -0.022040 37 131 141
0.408396 0.368148 0.017075 70 49 126
-0.262973 0.325636 -0.134754 68 3 87
0.281744 0.125347 -0.172891 68 1 84
0.044638 -0.232551 -0.341084 58 83 139
0.488977 0.169464 -0.023634 67 59 131
-0.594659 0.122885 0.152041 60 78 138
0.236003 -0.479887 -0.289129 54 91 140
-0.621051 0.061133 0.309241 68 1 84
-0.622108 -0.332960 0.146590 68 1 84
-0.630402 -0.222945 0.161463 68 1 84
-0.625445 -0.105110 0.170032 68 1 84
-0.484151 -0.087712 -0.104198 72 32 113
0.020488 0.286191 -0.237496 68 1 84
-0.635431 -0.252660 0.361906 68 1 84
0.296698 0.045130 -0.177201 71 42 121
-0.424895 0.448902 0.113356 36 170 130
0.642125 -0.290696 0.402582 68 1 84
-0.071896 -0.427143 -0.296011 60 77 138
0.563831 -0.066447 -0.015810 48 103 141
0.573697 0.093611 0.105397 40 122 142
-0.325172 0.105215 -0.186391 68 1 84
0.506210 -0.233761 -0.039355 68 1 84
-0.171465 -0.379688 -0.233577 32 145 140
-0.518288 0.376476 0.266793 35 168 131
0.547747 0.057535 0.005166 45 111 142
0.346937 -0.450576 -0.231855 58 83 139
-0.572217 0.200581 0.130360 34 137 141
-0.015204 -0.060124 -0.404752 54 90 140
0.164705 0.571750 -0.115749 66 64 133
0.430984 -0.234576 -0.094931 57 85 139
0.434021 0.436220 0.325395 37 131 141
0.127221 -0.174375 -0.304239 69 54 129
0.580490 -0.097190 0.010455 69 6 90
-0.197688 0.232598 -0.186546 68 1 84
0.527562 0.326934 0.305802 30 158 136
-0.546703 0.320503 0.182050 32 145 140
0.110181 0.080327 -0.399514 47 105 141
-0.174731 0.393579 -0.160346 68 1 84
0.564548 -0.139881 -0.007672 69 5 88
0.592211 0.088305 0.298520 34 139 141
0.580428 -0.255096 0.038531 68 1 84
0.652409 -0.284895 0.277447 68 1 84
-0.026826 0.497893 -0.192324 69 52 127
0.103589 0.583588 -0.150776 56 86 139
-0.202665 -0.433158 -0.262482 42 118 142
-0.592210 -0.107410 0.045687 68 1 84
-0.620223 -0.030364 0.360303 68 1 84
-0.142627 0.195722 -0.221669 68 1 84
-0.578749 0.274402 0.225174 35 135 141
0.090006 -0.130968 -0.382916 66 64 133
0.531013 0.182372 0.069003 55 89 140
0.114220 0.148743 -0.240469 68 1 84
-0.593393 -0.466045 0.102709 68 1 84
-0.624975 -0.071412 0.361409 68 1 84
-0.599950 -0.558592 0.133202 68 1 84
0.130953 -0.108276 -0.341887 70 12 95
0.215586 -0.404311 -0.243242 49 101 141
-0.500585 -0.373517 -0.053165 68 1 84
0.403224 -0.113414 -0.123860 40 123 142
-0.573037 0.221535 0.429310 35 136 141
-0.258107 0.219206 -0.174889 68 1 84
-0.691777 -0.597374 0.355761 68 1 84
-0.260480 0.169552 -0.188581 68 1 84
0.509176 0.253960 0.087960 51 97 141
0.416568 0.381687 0.042905 65 66 134
-0.649873 -0.381708 0.326552 68 1 84
0.584884 -0.024394 0.031305 72 34 115
0.398997 0.015688 -0.144736 64 68 135
0.654583 -0.390372 0.269928 68 1 84
0.597765 0.053704 0.216767 56 87 140
-0.127867 0.348878 -0.188095 68 1 84
0.394557 0.141940 -0.128987 72 35 116
-0.069793 0.367270 -0.210535 68 1 84
0.315827 0.540893 0.164214 50 98 141
-0.183058 0.466464 -0.149994 71 39 119
0.586868 0.073094 0.369519 30 153 138
-0.595185 0.117122 0.151966 49 102 141
-0.101358 0.019170 -0.298415 68 1 84
0.140087 -0.026950 -0.381267 68 55 129
0.261847 -0.098481 -0.168700 68 3 87
-0.529814 0.361516 0.240010 30 158 136
0.196151 0.198654 -0.200087 68 1 84
0.165214 0.272501 -0.201229 68 1 84
-0.218366 -0.370664 -0.253643 30 155 137
0.317591 0.127834 -0.165609 68 1 84
-0.619615 -0.165674 0.451590 68 1 84
0.469958 -0.257017 -0.061539 68 1 84
-0.046331 -0.253876 -0.241325 71 24 106
-0.173561 -0.040318 -0.206834 68 1 84
0.534229 0.313054 0.302915 44 177 125
0.493025 0.341458 0.413587 33 166 133
0.146777 0.497640 -0.148143 62 73 137
0.277113 0.563665 0.097398 52 94 141
0.327203 0.414090 -0.038076 47 105 141
0.582783 0.068678 0.392612 46 178 124
0.479208 -0.329498 -0.083086 40 123 142
-0.637771 -0.282556 0.405880 68 1 84
-0.633089 -0.383287 0.219855 68 1 84
-0.551583 -0.418312 0.010881 68 1 84
0.614249 -0.008002 0.178861 70 47 124
-0.568056 0.290978 0.342637 30 156 137
-0.106378 0.423372 -0.180352 71 44 123
0.401071 0.083444 -0.137488 72 26 108
-0.635827 -0.144368 0.296174 68 1 84
-0.273154 -0.002490 -0.204604 68 1 84
0.549339 -0.473418 -0.079436 68 1 84
0.278631 -0.456490 -0.260210 46 108 142
-0.336716 0.434064 -0.041370 33 142 140
-0.597048 -0.129560 0.056273 68 1 84
-0.335794 -0.485333 -0.252438 54 90 140
0.426020 0.226234 -0.066206 64 68 135
0.161519 0.006606 -0.334503 72 26 108
-0.482410 0.230201 -0.002049 30 152 138
0.478392 -0.346337 -0.097888 61 74 137
-0.618995 -0.170344 0.120153 68 1 84
-0.031499 0.632756 -0.121124 71 39 119
0.587047 -0.136301 0.535813 30 158 136
-0.658493 -0.373589 0.403720 68 1 84
-0.624182 -0.220102 0.138633 68 1 84
-0.049080 -0.239572 -0.242468 66 61 132
0.232703 0.174911 -0.181269 68 1 84
0.576808 0.162138 0.250108 31 148 139
0.225013 0.592245 0.066589 30 155 137
-0.532292 0.354269 0.316868 43 177 125
-0.470234 0.132776 -0.072204 54 91 140
0.485441 0.350495 0.415510 114 207 85
-0.190791 0.173921 -0.205108 68 1 84
0.519419 0.332422 0.224803 45 111 142
0.271138 0.508492 -0.035800 48 104 141
-0.690144 -0.562709 0.350285 68 1 84
0.226153 0.579898 -0.011921 40 122 142
-0.121145 0.086619 -0.213462 68 1 84
-0.637286 -0.360340 0.232760 68 1 84
0.663083 -0.473774 0.359983 68 1 84
-0.345070 0.521073 0.144856 48 180 122
0.646545 -0.464532 0.222490 68 1 84
0.615146 -0.123023 0.085704 68 1 84
0.480652 0.339081 0.112926 57 85 139
0.608196 -0.213710 0.471256 68 1 84
0.506343 0.356223 0.224783 49 101 141
-0.305123 -0.317040 -0.179539 69 53 128
0.224903 -0.000030 -0.193018 68 1 84
0.071711 0.642388 -0.079136 67 59 131
-0.217743 0.325354 -0.142182 68 1 84
-0.622662 0.023521 0.283251 68 1 84
-0.569826 -0.421126 0.045785 68 1 84
-0.632990 -0.262423 0.176481 68 1 84
0.647452 -0.457055 0.228655 68 1 84
-0.052097 -0.323208 -0.236933 53 92 140
0.499410 -0.386114 -0.116561 60 78 138
0.239559 -0.343872 -0.183914 71 40 120
0.511120 -0.477903 -0.138653 70 12 95
-0.640012 -0.190289 0.299734 68 1 84
-0.318346 -0.437278 -0.242632 45 110 142
0.516130 -0.294650 -0.035320 71 17 99
0.337818 -0.307697 -0.145493 71 22 105
-0.193808 0.587430 -0.059487 35 137 141
0.460445 -0.326717 -0.091215 43 115 142
-0.646339 -0.238046 0.250378 68 1 84
0.605178 -0.056106 0.368871 70 49 126
-0.450845 0.236937 -0.038620 41 120 142
-0.593178 0.115843 0.146075 49 100 141
0.395747 -0.045559 -0.138901 50 98 141
-0.501460 0.389616 0.195542 36 170 130
-0.514301 0.034396 -0.052357 47 106 141
0.026078 -0.183052 -0.369785 59 80 138
-0.624380 -0.104694 0.163968 68 1 84
0.414083 -0.306536 -0.110582 64 67 135
-0.360608 -0.175048 -0.145658 66 62 133
0.600235 -0.053104 0.390789 71 24 106
0.583655 -0.085852 0.495372 68 1 84
-0.639692 -0.251916 0.215757 68 1 84
-0.312876 0.341141 -0.111004 70 49 126
0.413585 0.465576 0.187281 54 90 140
0.230703 -0.304700 -0.162357 68 1 84
0.649689 -0.413305 0.240408 68 1 84
0.136185 0.081326 -0.336166 68 1 84
-0.339550 -0.191435 -0.149678 65 65 134
-0.558737 0.299615 0.360620 30 153 138
0.404700 -0.154881 -0.116589 44 112 142
0.015047 -0.030297 -0.430513 63 71 136
0.129112 -0.019404 -0.401747 70 45 124
0.572894 0.169444 0.227595 31 148 139
0.105762 0.283657 -0.212599 68 1 84
-0.338716 0.074364 -0.186359 68 1 84
-0.038526 0.580704 -0.181410 64 67 135
-0.333401 -0.047704 -0.188500 71 24 106
-0.621907 -0.130729 0.390697 68 1 84
0.319985 -0.076502 -0.152674 55 89 140
-0.147682 0.165873 -0.220003 68 1 84
-0.625279 -0.379921 0.174387 68 1 84
-0.086911 0.098425 -0.231048 68 1 84
-0.304241 0.054113 -0.199400 68 1 84
0.238621 -0.308720 -0.163475 68 1 84
-0.426651 0.460907 0.194425 35 136 141
0.255256 0.569285 0.034984 50 99 141
-0.075187 0.374507 -0.204083 68 1 84
0.243053 0.262277 -0.163215 68 1 84
-0.096605 -0.022334 -0.270536 68 1 84
-0.635683 -0.254473 0.362135 68 1 84
0.138657 -0.039607 -0.372986 72 34 115
0.317586 0.538779 0.189721 70 48 125
0.398974 0.468953 0.135638 67 59 131
-0.550551 0.299659 0.401633 109 206 88
-0.016638 0.047446 -0.436120 71 40 120
0.095662 0.156493 -0.258176 68 1 84
-0.074177 -0.020168 -0.341970 68 1 84
0.050110 0.446496 -0.180540 68 1 84
0.412420 -0.180176 -0.109257 46 109 142
0.354812 0.420755 -0.003468 63 69 135
0.455561 0.335811 0.060789 65 65 134
0.607505 -0.247249 0.082002 68 1 84
-0.677158 -0.486160 0.350841 68 1 84
-0.623942 -0.405028 0.178861 68 1 84
0.621265 -0.163387 0.103390 68 1 84
-0.266654 0.548701 -0.003262 83 197 103
-0.191428 0.380036 -0.153656 68 1 84
-0.347029 0.409162 -0.048797 60 77 138
0.237388 -0.059073 -0.187866 68 1 84
0.588677 -0.034928 0.429286 71 20 102
0.467271 -0.226839 -0.068282 71 22 105
-0.135070 0.585466 -0.136555 34 137 141
-0.211692 0.456608 -0.134716 55 88 140
0.559622 0.094510 0.450593 56 185 118
0.040846 0.065247 -0.445544 61 74 137
0.602759 0.017864 0.133188 69 5 88
0.251158 0.103886 -0.180294 68 1 84
-0.588425 0.256677 0.310689 35 135 141
-0.499951 -0.102882 -0.088615 72 26 108
-0.623167 0.013323 0.286597 68 1 84
0.117229 0.364344 -0.198073 68 1 84
0.656193 -0.437243 0.295024 68 1 84
-0.582132 -0.224859 0.036344 68 1 84
0.087774 -0.258759 -0.311452 56 86 139
-0.528857 0.343915 0.169088 40 174 127
-0.147361 -0.130144 -0.198928 68 1 84
0.107887 -0.163208 -0.348452 70 47 124
-0.650348 -0.450741 0.264083 68 1 84
-0.610602 0.035693 0.186210 71 37 117
0.362652 -0.293405 -0.141768 47 105 141
-0.185246 -0.465769 -0.291360 48 103 141
0.621394 -0.192060 0.106841 68 1 84
-0.642997 -0.211414 0.295768 68 1 84
-0.681341 -0.496987 0.354466 68 1 84
-0.270809 0.009260 -0.205837 68 1 84
-0.346260 0.155622 -0.164170 71 17 99
-0.143076 0.080940 -0.208591 68 1 84
-0.643345 -0.271149 0.321437 68 1 84
0.354067 0.511133 0.130984 72 28 110
-0.514697 0.340365 0.125547 48 180 122
-0.078795 -0.374287 -0.249038 59 80 138
-0.553678 -0.516526 0.025425 68 1 84
-0.629527 -0.118651 0.181468 68 1 84
-0.081492 -0.053348 -0.291222 68 1 84
0.668219 -0.396954 0.439720 68 1 84
-0.645653 -0.316758 0.303451 68 1 84
0.594497 -0.118145 0.443742 68 1 84
0.575478 -0.337674 0.019718 68 1 84
-0.610775 0.047958 0.191572 70 45 124
-0.616323 0.093007 0.349624 72 30 112
-0.631132 -0.392914 0.210526 68 1 84
0.252214 0.195404 -0.173292 68 1 84
-0.607528 0.070903 0.385287 68 1 84
0.239217 0.533183 -0.058899 41 120 142
0.100768 0.083641 -0.313642 68 1 84
0.160942 -0.188520 -0.220771 68 1 84
0.597436 -0.230671 0.061563 68 1 84
0.266173 -0.473627 -0.275948 41 121 142
-0.627286 -0.489491 0.200901 68 1 84
-0.444392 -0.092957 -0.135381 69 5 88
-0.032591 0.405801 -0.194770 68 1 84
0.535121 -0.341025 -0.042491 70 11 94
0.070151 -0.389967 -0.303782 66 61 132
0.427183 -0.384017 -0.160070 50 98 141
-0.626477 -0.118765 0.164489 68 1 84
0.255619 -0.045889 -0.180867 68 1 84
-0.655562 -0.363912 0.399166 68 1 84
-0.496723 0.399605 0.274555 33 166 133
0.492256 -0.143516 -0.075076 70 49 126
0.018549 -0.465628 -0.317362 68 1 84
-0.290220 0.212833 -0.164819 68 3 87
0.663404 -0.436661 0.398533 68 1 84
-0.596512 -0.158028 0.056636 68 1 84
-0.389880 -0.486985 -0.216579 71 24 106
-0.524081 0.318525 0.120456 48 180 122
-0.481160 -0.236322 -0.068835 68 1 84
0.165393 0.074408 -0.307465 67 58 131
0.572188 0.186043 0.254614 31 162 134
-0.109977 -0.393560 -0.248865 56 87 140
-0.636325 -0.373504 0.234724 68 1 84
-0.657315 -0.420593 0.352600 68 1 84
0.637319 -0.170870 0.163436 68 1 84
0.027931 0.400088 -0.196672 68 1 84
