ply
format ascii 1.0
element vertex 1263
property float x
property float y
property float z
property uchar red
property uchar green
property uchar blue
end_header
-0.499887 0.290476 0.384716 68 1 84
0.361546 0.475332 0.106238 68 1 84
-0.580137 0.027717 0.312392 72 28 110
-0.596703 -0.304215 0.068472 64 68 135
-0.261622 0.115624 -0.172343 68 1 84
0.187910 0.207804 -0.229646 61 74 137
0.142674 0.114329 -0.239743 68 1 84
0.476265 0.204308 0.037700 72 29 111
0.658837 -0.269761 0.421698 32 164 133
-0.582116 0.010383 0.288396 68 1 84
0.526237 0.227341 0.164036 68 1 84
-0.413799 0.381976 0.137261 68 1 84
-0.525042 -0.020552 0.043421 68 1 84
0.477880 -0.072150 -0.070338 30 153 138
-0.504458 -0.314457 -0.111639 65 65 134
0.447741 0.381141 0.157330 68 1 84
0.218640 0.526876 -0.101255 68 1 84
0.535877 -0.056863 0.008656 34 139 141
0.606396 0.066376 0.404204 69 5 88
0.586114 0.117203 0.496363 68 1 84
-0.106632 -0.148976 -0.317041 68 1 84
-0.485892 -0.034824 -0.025785 68 1 84
-0.645468 -0.238514 0.313403 36 133 141
-0.382760 0.206172 -0.067493 68 1 84
-0.029773 0.533413 -0.206375 68 1 84
0.029148 -0.303940 -0.368603 68 1 84
-0.273789 -0.034928 -0.171865 68 1 84
-0.655201 -0.517489 0.179612 41 121 142
-0.611746 -0.246174 0.131940 61 76 137
-0.363022 0.243231 -0.080084 68 1 84
0.461852 -0.032406 -0.073076 53 183 120
0.635879 -0.319770 0.162393 42 117 142
0.397709 -0.321605 -0.228962 68 1 84
0.232143 0.098237 -0.187699 68 1 84
-0.564933 -0.020746 0.161503 71 38 118
0.360003 -0.372218 -0.295612 68 1 84
-0.102085 0.137256 -0.285013 57 85 139
-0.526431 0.230652 0.308448 68 1 84
-0.407603 0.211413 -0.034815 68 1 84
0.226118 -0.007365 -0.196626 68 1 84
-0.543275 -0.041758 0.068768 70 11 94
-0.593512 -0.191497 0.109963 70 48 125
0.603915 0.075105 0.378890 65 65 134
-0.267048 0.109020 -0.170236 68 1 84
0.358614 0.004664 -0.139586 41 121 142
-0.443305 0.195722 0.017175 71 21 103
-0.161142 0.234153 -0.249864 39 124 142
-0.300574 -0.304210 -0.222350 68 1 84
0.412711 0.089448 -0.086507 57 84 139
-0.586263 -0.090941 0.165057 55 88 140
-0.307603 0.325264 -0.095697 68 1 84
-0.328646 0.472384 0.050301 68 1 84
0.074284 0.080983 -0.367184 30 155 137
0.304322 0.535445 0.123541 68 1 84
0.608406 -0.442992 0.074796 40 122 142
-0.128388 -0.098828 -0.298336 68 1 84
0.215515 -0.371364 -0.335350 68 1 84
0.497584 0.315585 0.191370 68 1 84
0.051222 0.059293 -0.470610 162 218 55
-0.231891 0.133359 -0.189204 68 1 84
-0.212637 -0.098704 -0.198680 68 1 84
-0.570515 0.077522 0.369922 71 42 121
0.342956 0.495015 0.099756 68 1 84
-0.695235 -0.450796 0.400523 69 191 111
-0.079866 0.082729 -0.442034 105 204 91
-0.514472 -0.431036 -0.194058 69 52 127
0.466902 0.023456 -0.049069 46 109 142
-0.627052 -0.342263 0.135281 62 72 136
0.557169 -0.028958 0.062223 35 168 131
0.106406 0.262220 -0.279577 64 189 114
0.252970 0.281002 -0.136426 69 52 127
-0.011172 -0.211042 -0.399751 72 34 115
0.282194 0.352274 -0.101895 67 58 131
0.434444 0.366380 0.106618 68 1 84
0.293830 0.096843 -0.162955 60 78 138
-0.601066 -0.063738 0.291495 61 74 137
-0.063559 0.278565 -0.275245 67 59 131
-0.392714 -0.030932 -0.108638 68 1 84
-0.299396 0.508405 0.212706 68 1 84
-0.645426 -0.240375 0.351272 42 119 142
-0.574744 0.043797 0.464440 56 86 139
-0.680201 -0.562373 0.271625 36 134 141
0.640209 -0.112585 0.429795 34 138 141
-0.222283 0.471173 -0.096831 68 1 84
0.577786 -0.306092 0.012883 39 126 142
0.669717 -0.523545 0.293976 30 159 136
-0.683351 -0.504500 0.304235 39 125 142
0.672794 -0.417222 0.332405 81 196 104
-0.378887 -0.060723 -0.122153 68 1 84
0.555934 -0.419852 -0.074846 61 75 137
-0.148001 0.614586 -0.050331 68 1 84
0.260267 -0.158420 -0.185720 68 1 84
-0.165299 -0.355296 -0.367023 68 1 84
-0.418929 0.389943 0.358772 68 1 84
-0.526248 0.128132 0.560538 68 1 84
0.441121 -0.197354 -0.113400 66 64 133
0.517365 0.148621 0.084850 66 61 132
-0.228427 -0.050654 -0.192028 68 1 84
-0.051665 -0.041852 -0.460289 46 107 142
-0.303719 -0.370573 -0.313301 68 2 85
0.499346 0.093882 0.023439 67 60 132
-0.158168 0.407928 -0.161743 68 1 84
-0.090369 -0.064056 -0.392800 42 117 142
0.035211 -0.232872 -0.378419 70 11 94
0.136958 0.519037 -0.175937 68 1 84
-0.309005 0.130254 -0.146007 68 1 84
0.521757 -0.085620 -0.023477 41 120 142
-0.500164 0.032890 0.032449 68 2 85
0.164008 0.093665 -0.222891 68 1 84
-0.580447 -0.478615 -0.037402 40 123 142
0.699611 -0.533474 0.389438 41 175 127
0.388122 -0.128718 -0.137954 70 12 95
0.482564 0.339936 0.184265 68 1 84
-0.695364 -0.476728 0.391246 87 198 101
0.245793 0.410047 -0.106368 68 1 84
-0.070078 0.050430 -0.477270 181 221 43
-0.480616 0.180208 0.079694 71 15 98
0.480799 -0.095135 -0.073214 30 158 136
-0.689918 -0.398658 0.428482 37 171 129
0.263017 0.527261 -0.036891 68 1 84
0.390779 -0.362617 -0.274244 68 1 84
-0.384947 -0.359468 -0.281028 68 1 84
0.444165 0.100496 -0.049028 67 58 131
-0.278345 -0.224785 -0.213283 68 1 84
0.569588 0.156767 0.235936 68 1 84
-0.146733 0.522140 -0.158351 68 1 84
0.581873 0.096718 0.530343 68 1 84
-0.181396 0.221792 -0.234217 37 130 142
-0.456042 0.075957 -0.013571 68 1 84
-0.637181 -0.314259 0.179184 41 120 142
0.472572 -0.111825 -0.084034 33 140 141
0.258637 0.498460 -0.063811 68 1 84
0.343201 -0.146329 -0.158943 68 1 84
0.486447 0.258524 0.096408 68 1 84
0.306979 0.530857 0.093694 68 1 84
0.691383 -0.448969 0.433857 37 131 141
-0.670634 -0.340119 0.426710 30 156 137
0.233189 0.450100 -0.104084 68 1 84
0.478119 -0.060942 -0.066399 32 165 133
-0.216349 0.278881 -0.163215 68 1 84
-0.671094 -0.397807 0.320463 66 190 113
0.146093 -0.059381 -0.262855 71 43 122
-0.435310 0.340301 0.128422 68 1 84
0.275287 -0.432615 -0.379747 68 1 84
-0.178919 -0.032465 -0.225912 68 1 84
-0.273373 0.162157 -0.167026 68 1 84
0.194580 0.426001 -0.140905 68 1 84
-0.108160 -0.157698 -0.309699 68 1 84
-0.235576 0.082315 -0.183906 68 1 84
0.615311 0.004009 0.332913 56 86 139
0.663876 -0.286555 0.496291 30 154 137
-0.660610 -0.295087 0.344462 32 143 140
-0.110827 -0.168886 -0.297612 68 1 84
0.297038 -0.191619 -0.196086 68 1 84
0.670456 -0.585484 0.276717 39 126 142
0.573311 0.200487 0.420547 68 1 84
-0.530661 -0.063117 0.029782 68 1 84
-0.529674 0.094269 0.147067 71 37 117
-0.179650 -0.010642 -0.220896 68 1 84
-0.607529 -0.054384 0.574567 69 5 88
0.259543 0.062645 -0.178856 68 1 84
-0.324354 0.455575 0.018628 68 1 84
0.344141 0.148522 -0.128931 69 54 129
0.532770 -0.181232 -0.032538 37 131 141
0.549702 -0.426200 -0.093778 60 78 138
-0.672403 -0.374323 0.371900 44 177 125
0.129567 0.419051 -0.178731 68 1 84
0.327833 -0.026501 -0.155602 72 28 110
0.062711 0.358257 -0.244678 38 129 142
-0.381457 0.218168 -0.065824 68 1 84
-0.544184 0.123209 0.229682 72 26 108
0.383741 0.472503 0.205694 68 1 84
-0.115954 -0.096500 -0.323131 68 1 84
-0.429059 -0.340594 -0.243830 71 44 123
-0.323826 0.497606 0.140854 68 1 84
0.016229 0.018582 -0.492734 41 175 127
0.526194 -0.124163 -0.028662 49 102 141
-0.134282 -0.130071 -0.272230 68 1 84
0.515671 -0.292434 -0.068729 49 100 141
-0.215955 -0.035375 -0.198679 68 1 84
0.427960 0.306261 0.025473 68 1 84
0.656315 -0.494316 0.224850 34 167 132
-0.597699 -0.025276 0.540694 72 26 108
-0.282764 0.121315 -0.162141 68 1 84
-0.602385 -0.383130 0.055123 67 60 132
0.464782 0.340413 0.140886 68 1 84
0.486590 -0.116552 -0.072454 33 140 141
0.175916 -0.191428 -0.208195 68 1 84
0.662245 -0.293766 0.348888 31 162 134
-0.466894 0.310714 0.489127 68 1 84
0.304002 -0.266661 -0.214730 68 1 84
-0.470362 0.290754 0.160890 68 1 84
-0.462208 -0.040532 -0.055737 68 1 84
0.238167 0.574132 -0.001646 68 1 84
0.384318 -0.324510 -0.250396 68 1 84
-0.436368 -0.197300 -0.108330 68 1 84
0.161085 0.157545 -0.240719 68 1 84
0.662163 -0.285692 0.456306 31 163 134
0.252956 0.444252 -0.087600 68 1 84
0.553298 -0.300309 -0.026904 38 127 142
-0.428221 0.379676 0.192784 68 1 84
-0.630316 -0.165715 0.391466 49 100 141
-0.098687 0.081786 -0.380815 31 148 139
0.591233 0.103113 0.288795 67 59 131
0.200025 0.275749 -0.180886 65 65 134
-0.551364 0.153754 0.360585 72 29 111
-0.484780 0.300656 0.241433 68 1 84
-0.573376 -0.318980 0.009574 72 29 111
0.062343 0.595703 -0.167069 68 1 84
0.116197 -0.191543 -0.269634 68 1 84
-0.692989 -0.518039 0.348952 30 158 136
-0.679100 -0.470259 0.302043 36 134 141
0.514359 0.172047 0.092642 72 29 111
-0.222646 0.129267 -0.194514 68 1 84
0.261743 -0.339801 -0.279860 68 1 84
-0.110093 -0.166027 -0.301157 68 1 84
-0.522225 -0.054705 0.019111 68 1 84
0.356956 0.176395 -0.113986 63 69 135
-0.348102 0.102321 -0.123668 70 12 95
-0.560475 0.111458 0.418672 61 75 137
-0.426975 0.165713 -0.021396 68 2 85
-0.596293 -0.012754 0.488796 63 69 135
-0.431155 -0.136613 -0.101938 68 1 84
-0.665771 -0.357569 0.332235 37 130 142
-0.066105 0.127387 -0.336191 53 92 140
-0.423135 -0.188246 -0.117769 68 1 84
0.636913 -0.102527 0.338771 36 133 141
0.615298 -0.341913 0.096228 31 148 139
-0.105647 0.231700 -0.288105 45 110 142
-0.172330 -0.256085 -0.200653 68 1 84
0.608315 -0.209074 0.098361 30 153 138
0.047717 0.090562 -0.446322 146 215 65
0.136810 -0.331142 -0.286470 68 1 84
-0.402077 0.292241 -0.000282 68 1 84
-0.155287 -0.141907 -0.238142 68 1 84
-0.583015 -0.358620 0.013992 69 53 128
-0.458422 0.349230 0.360576 68 1 84
0.623561 -0.018902 0.460290 44 114 142
-0.576598 -0.227551 0.052133 71 38 118
-0.590464 -0.016800 0.557961 68 1 84
-0.225759 0.273169 -0.166469 68 1 84
0.492396 0.358701 0.362992 68 1 84
-0.465395 0.062566 -0.007017 68 1 84
0.269879 -0.351445 -0.293581 68 1 84
-0.052004 0.133553 -0.347020 48 104 141
0.526297 0.252324 0.191418 68 1 84
-0.603999 -0.065924 0.324452 57 84 139
0.157984 -0.326205 -0.256535 68 1 84
0.242193 -0.377588 -0.330337 68 1 84
0.425687 0.429352 0.327483 68 1 84
0.461751 -0.411764 -0.249719 67 59 131
0.670784 -0.232292 0.487272 87 198 101
0.060614 -0.076049 -0.412177 46 107 142
0.603955 0.063323 0.335735 71 39 119
-0.068658 0.188354 -0.305012 44 113 142
0.287562 0.526131 0.013981 68 1 84
0.656694 -0.238493 0.384271 61 187 116
0.296927 -0.447503 -0.375524 68 1 84
-0.506825 -0.116917 -0.029625 68 1 84
-0.129410 0.483676 -0.168931 68 1 84
0.629183 -0.288492 0.141627 30 151 138
-0.156022 -0.107627 -0.247009 68 1 84
-0.580052 0.027710 0.311320 72 25 107
-0.089027 -0.313074 -0.345845 68 1 84
-0.639792 -0.368646 0.170193 46 109 142
-0.423120 -0.173389 -0.113219 68 1 84
-0.163698 0.063028 -0.273895 39 125 142
-0.239018 0.459954 -0.085180 68 1 84
-0.253475 -0.314098 -0.248261 68 1 84
-0.232166 0.282973 -0.148727 68 1 84
0.010106 0.124116 -0.411428 107 205 89
-0.243540 -0.223279 -0.211946 68 1 84
0.140424 0.022278 -0.325038 48 103 141
0.471649 0.365197 0.194111 68 1 84
-0.647629 -0.269601 0.503080 62 72 136
-0.560268 0.058605 0.227705 68 1 84
0.598535 -0.233528 0.067148 31 147 139
0.666482 -0.528442 0.279735 31 161 135
0.404669 -0.317274 -0.200959 68 1 84
0.123237 0.265045 -0.266581 53 183 120
0.511343 -0.442212 -0.183717 47 105 141
0.624677 -0.241680 0.135750 41 120 142
-0.625537 -0.146813 0.443033 49 102 141
0.121955 -0.017388 -0.320095 69 53 128
-0.607491 -0.039583 0.525190 72 34 115
0.455847 -0.105015 -0.096968 34 138 141
0.190752 -0.371642 -0.364431 68 1 84
-0.646854 -0.259000 0.496229 30 154 137
0.660244 -0.284773 0.433937 30 156 137
-0.646641 -0.392513 0.187485 45 110 142
0.603732 -0.532646 0.048727 53 92 140
-0.599719 -0.197564 0.125078 69 54 129
0.335353 -0.051416 -0.152505 68 1 84
-0.532426 -0.072962 0.027910 68 1 84
0.198697 -0.104866 -0.208285 68 1 84
0.575448 0.182129 0.301619 68 1 84
0.215532 -0.408975 -0.387504 68 1 84
0.267731 -0.190790 -0.197235 68 1 84
0.197759 0.585791 -0.072123 68 1 84
0.563799 0.046817 0.127481 34 138 141
-0.136146 -0.059575 -0.291898 68 1 84
0.674339 -0.368192 0.419469 40 123 142
-0.608912 -0.077694 0.364408 60 78 138
0.642707 -0.265370 0.195882 36 170 130
-0.063881 0.462651 -0.197229 68 1 84
0.001106 -0.030521 -0.477609 33 140 141
0.673538 -0.367455 0.385765 43 177 125
-0.241237 -0.115328 -0.184101 68 1 84
0.657639 -0.266786 0.297382 34 167 132
0.391483 -0.272156 -0.189012 68 1 84
0.156757 -0.162097 -0.231217 68 1 84
-0.342764 0.461790 0.306632 68 1 84
0.662180 -0.575429 0.244564 34 138 141
0.512086 0.332344 0.308123 68 1 84
-0.141362 0.342222 -0.205849 35 136 141
-0.197033 0.188349 -0.222928 44 114 142
-0.448013 0.341708 0.178586 68 1 84
0.065682 0.147178 -0.318377 40 122 142
-0.623531 -0.137197 0.387437 44 114 142
0.182079 0.553193 -0.128595 68 1 84
0.330794 0.096129 -0.145522 41 121 142
-0.097801 -0.252173 -0.265129 68 1 84
0.656132 -0.244055 0.295157 31 149 139
0.572793 -0.472293 -0.036011 71 22 105
-0.309745 -0.171511 -0.181615 68 1 84
-0.105659 -0.329306 -0.359663 68 1 84
-0.046762 0.445778 -0.196784 68 1 84
-0.247012 0.441336 -0.083889 68 1 84
-0.553409 0.110319 0.256946 68 1 84
0.405458 0.302783 -0.014189 69 5 88
-0.175239 0.594086 -0.074953 68 1 84
-0.429939 0.336042 0.105470 68 1 84
0.042303 0.039702 -0.482601 57 185 118
0.406313 0.270568 -0.033629 68 1 84
0.407913 0.305463 -0.008293 71 18 101
0.054737 -0.083663 -0.415399 48 104 141
-0.002356 0.254294 -0.312805 44 177 125
-0.019638 0.146280 -0.344947 30 153 138
0.507652 0.310711 0.484881 68 1 84
0.199536 -0.068443 -0.209724 68 1 84
0.521436 0.260091 0.186245 68 1 84
-0.360931 0.263801 -0.075183 68 1 84
0.663736 -0.322333 0.429248 30 158 136
0.248551 0.295460 -0.129267 71 40 120
-0.331541 0.399850 -0.021373 68 1 84
0.283347 -0.160982 -0.181394 68 1 84
0.373751 0.223142 -0.087136 57 84 139
-0.465788 -0.023198 -0.045038 68 1 84
-0.405813 0.362402 0.077091 68 1 84
0.452696 0.305416 0.070931 68 1 84
-0.455419 -0.358778 -0.235488 68 1 84
-0.540993 -0.324323 -0.059693 69 50 127
-0.397330 0.213981 -0.047823 68 1 84
-0.539062 0.022939 0.114434 71 43 122
0.465830 0.392578 0.285321 68 1 84
0.148009 0.551811 -0.158202 68 1 84
-0.133403 -0.033331 -0.297539 68 1 84
0.408060 0.451983 0.240063 68 1 84
0.451635 0.149494 -0.024923 71 42 121
-0.301763 -0.221839 -0.211238 68 1 84
0.121168 -0.275055 -0.231586 68 1 84
-0.459598 0.342586 0.411884 68 1 84
0.256309 0.570920 0.094183 68 1 84
0.031341 0.139415 -0.343449 37 171 129
0.495143 0.333123 0.470321 68 1 84
-0.694511 -0.489149 0.375299 46 178 124
0.137370 0.005077 -0.307889 42 118 142
-0.045667 0.118302 -0.400448 47 179 123
-0.201592 -0.027361 -0.207357 68 1 84
-0.665959 -0.453550 0.246977 39 126 142
0.339542 -0.247882 -0.212416 68 1 84
-0.201949 0.043071 -0.200042 68 1 84
0.668756 -0.398830 0.317908 62 188 115
0.449857 0.193313 -0.010930 71 21 103
-0.132174 -0.193238 -0.243278 68 1 84
-0.558177 0.118840 0.315645 70 9 92
-0.449849 0.299125 0.108738 68 1 84
0.567932 -0.082082 0.055998 38 128 142
0.213165 -0.213404 -0.205344 68 1 84
-0.420682 -0.189566 -0.121193 68 1 84
0.082807 0.461084 -0.194468 68 1 84
-0.018815 -0.313360 -0.376299 68 1 84
0.574704 -0.013007 0.115983 32 144 140
0.656050 -0.318788 0.275839 30 156 137
0.638259 -0.095809 0.386961 31 146 140
0.030108 0.590560 -0.175017 68 1 84
0.011424 0.616240 -0.146649 68 1 84
-0.624557 -0.146586 0.320813 47 105 141
-0.466497 -0.140521 -0.075706 68 1 84
-0.618757 -0.200673 0.179194 48 103 141
0.080143 -0.124652 -0.355277 66 64 133
0.656462 -0.229622 0.409082 87 198 101
0.494731 0.200529 0.069993 71 22 105
0.135202 -0.330449 -0.286117 68 1 84
-0.346975 -0.444994 -0.348739 68 1 84
0.088094 -0.002212 -0.419738 31 150 139
-0.627370 -0.142656 0.462906 44 114 142
-0.539298 -0.469452 -0.139590 59 81 138
0.155166 0.023729 -0.236120 66 64 133
0.293834 0.543535 0.126743 68 1 84
0.390112 0.241908 -0.065631 71 39 119
-0.560743 0.031537 0.201891 68 1 84
0.163501 0.024179 -0.223789 71 17 99
-0.510162 -0.215884 -0.040177 68 1 84
0.595389 -0.094412 0.119117 39 126 142
0.198482 0.019715 -0.204260 68 2 85
-0.262690 0.094795 -0.172256 68 1 84
-0.605801 -0.077195 0.431337 56 87 140
-0.494706 -0.126831 -0.046622 68 1 84
0.455032 0.392988 0.392837 68 1 84
-0.298238 0.352093 -0.086392 68 1 84
0.365046 -0.319054 -0.227688 68 1 84
0.154986 0.328790 -0.216787 49 102 141
0.672627 -0.495936 0.311880 35 168 131
-0.193664 0.355532 -0.154164 68 1 84
0.562545 0.061457 0.134243 40 122 142
-0.012053 0.632765 -0.100304 68 1 84
0.046131 0.093592 -0.360912 39 125 142
0.222633 0.299291 -0.145274 63 69 135
0.663018 -0.461461 0.273051 30 153 138
0.589706 -0.094785 0.101834 34 137 141
-0.473148 0.091982 0.018987 68 1 84
0.531304 -0.187805 -0.035074 40 122 142
-0.118403 0.349325 -0.219396 33 140 141
-0.092022 0.630280 -0.065007 68 1 84
-0.615649 -0.188451 0.179655 42 117 142
-0.222179 0.136894 -0.196381 68 1 84
-0.637319 -0.205682 0.445287 37 131 141
-0.400623 0.228059 -0.039114 68 1 84
-0.579683 -0.029814 0.212754 63 69 135
0.495904 0.027653 -0.011297 52 94 141
0.610802 -0.133665 0.140696 35 135 141
-0.404500 0.415811 0.243348 68 1 84
-0.139513 0.053316 -0.372356 32 144 140
-0.099194 0.049788 -0.439961 83 197 103
0.548037 0.025619 0.077036 44 112 142
-0.183455 0.421275 -0.142484 68 1 84
-0.279089 0.531721 0.047343 68 1 84
-0.102949 -0.033787 -0.378399 46 108 142
-0.102435 0.628344 -0.057840 68 1 84
-0.571417 -0.300866 0.012883 65 66 134
0.674276 -0.370660 0.386069 51 182 121
0.487341 0.112991 0.013234 61 74 137
0.607570 -0.090618 0.163480 34 137 141
0.246958 0.230545 -0.182992 34 138 141
0.618015 -0.254376 0.111359 43 116 142
-0.542245 0.175952 0.296392 69 5 88
0.137050 -0.150984 -0.257991 68 1 84
0.656836 -0.239333 0.315699 32 165 133
-0.182750 0.188894 -0.232939 47 106 141
0.589348 0.141590 0.433466 68 1 84
-0.246729 -0.388795 -0.369950 68 1 84
0.192478 0.091809 -0.207191 68 1 84
0.603114 -0.021511 0.210050 34 167 132
0.209893 -0.126058 -0.200948 68 1 84
0.092058 -0.233194 -0.282126 68 1 84
0.541878 -0.357883 -0.078747 65 66 134
0.644097 -0.287595 0.197492 30 159 136
0.658322 -0.265837 0.408966 36 170 130
-0.041285 0.449716 -0.199533 68 1 84
0.389937 -0.430060 -0.318492 68 1 84
-0.636299 -0.207994 0.424087 41 121 142
-0.081953 -0.214177 -0.334725 68 1 84
-0.387499 0.430436 0.165077 68 1 84
0.129809 -0.300414 -0.239341 68 1 84
-0.302801 0.511970 0.069510 68 1 84
-0.572104 0.070256 0.377352 72 25 107
-0.055649 -0.260627 -0.360471 68 1 84
-0.313557 0.095832 -0.148087 68 1 84
-0.462395 0.086641 -0.000431 71 17 99
0.653967 -0.226000 0.291546 37 171 129
-0.580939 -0.470155 -0.033943 45 111 142
0.632353 -0.065002 0.384925 34 137 141
0.290817 0.495786 -0.017678 68 1 84
-0.061617 0.081908 -0.468996 210 225 27
-0.086847 0.236761 -0.297266 38 127 142
0.481292 0.111162 0.003388 71 42 121
-0.637557 -0.242355 0.219778 48 104 141
-0.550407 -0.007059 0.121942 71 42 121
0.047929 0.089194 -0.382624 33 141 140
0.366689 0.485309 0.208265 68 1 84
0.639045 -0.100034 0.382155 41 120 142
-0.332726 0.475494 0.067748 68 1 84
0.617635 -0.449864 0.106968 41 121 142
0.599397 0.036219 0.515983 68 1 84
-0.184295 0.290068 -0.170949 68 3 87
0.606508 -0.177353 0.106158 30 151 138
-0.188986 0.153553 -0.222565 66 64 133
-0.611129 -0.084819 0.470248 44 114 142
0.574538 -0.429931 -0.023551 54 91 140
-0.451442 -0.029707 -0.062148 68 1 84
-0.320684 0.114492 -0.140873 68 1 84
0.460134 0.397578 0.309512 68 1 84
0.542651 0.213135 0.545790 68 1 84
0.529604 0.032780 0.044231 37 130 142
0.167589 -0.326643 -0.252480 68 1 84
0.269739 0.557669 0.052815 68 1 84
-0.052390 0.111768 -0.404268 62 188 115
-0.328991 0.246077 -0.113922 68 1 84
-0.193761 0.519707 -0.114887 68 1 84
-0.612195 -0.340082 0.095282 66 62 133
0.567897 -0.420045 -0.040250 62 72 136
-0.530761 0.038706 0.104337 68 1 84
-0.182613 -0.113789 -0.217495 68 1 84
-0.391056 0.424267 0.283837 68 1 84
-0.580814 -0.018516 0.233259 67 60 132
0.343415 -0.056278 -0.149471 72 32 113
-0.382738 0.334382 -0.001847 68 1 84
-0.398761 -0.158231 -0.126971 68 1 84
-0.666530 -0.333320 0.373230 35 137 141
-0.350670 0.469506 0.217766 68 1 84
0.687725 -0.511736 0.343321 47 179 123
-0.426974 0.370516 0.431531 68 1 84
-0.674274 -0.391590 0.356343 36 170 130
-0.303142 -0.100481 -0.159931 68 1 84
0.163725 -0.327717 -0.256206 68 1 84
0.263314 0.119466 -0.174308 68 1 84
0.604474 -0.083036 0.158135 30 156 137
0.638277 -0.080738 0.457832 39 125 142
0.634656 -0.080673 0.402583 38 129 142
-0.607164 -0.117010 0.224585 40 122 142
-0.667075 -0.413545 0.253725 30 155 137
0.558554 0.136937 0.179588 69 5 88
-0.108722 -0.117003 -0.328225 68 1 84
0.147765 0.459964 -0.167419 68 1 84
-0.415087 0.383962 0.412635 68 1 84
0.654591 -0.262389 0.263770 35 168 131
0.200928 0.234323 -0.217356 37 131 141
0.244559 -0.378234 -0.330597 68 1 84
0.551030 0.248990 0.281103 68 1 84
0.510706 0.063491 0.028290 39 124 142
0.065143 -0.097571 -0.392314 61 76 137
-0.417235 -0.453977 -0.309829 68 1 84
-0.009837 0.137790 -0.360143 32 164 133
0.666872 -0.554408 0.273119 43 177 125
-0.446240 0.199437 0.024454 72 34 115
-0.519182 0.032596 0.069209 68 1 84
0.049721 0.575573 -0.186115 68 1 84
0.273911 0.122502 -0.169834 71 42 121
-0.497354 -0.115142 -0.041309 68 1 84
-0.370060 -0.445886 -0.336501 68 1 84
-0.270181 0.077330 -0.171308 68 1 84
-0.560819 -0.342406 -0.031914 67 58 131
0.364507 -0.064226 -0.141880 72 32 113
-0.033076 -0.309868 -0.372448 68 1 84
-0.317204 -0.320092 -0.253820 68 1 84
0.454843 0.103895 -0.035420 71 38 118
-0.271163 0.123544 -0.167969 68 1 84
-0.462520 0.322057 0.192544 68 1 84
0.255868 0.023128 -0.184492 68 1 84
0.638714 -0.376163 0.169781 30 153 138
0.408527 0.083705 -0.091597 57 85 139
0.578129 0.097836 0.215631 72 29 111
-0.449634 0.361443 0.252522 68 1 84
0.554944 0.238760 0.281578 68 1 84
0.232007 0.575552 -0.016860 68 1 84
0.361017 0.408114 0.022695 68 1 84
0.619357 -0.393499 0.106398 46 107 142
0.561973 -0.493071 -0.066813 71 42 121
0.047192 -0.353846 -0.401753 68 1 84
-0.457117 0.301422 0.135084 68 1 84
0.409794 -0.172974 -0.131492 71 21 103
-0.331847 0.197376 -0.119669 68 1 84
0.107124 0.069862 -0.391293 64 189 114
0.578076 -0.167450 0.043195 36 132 141
0.633459 -0.486973 0.162447 33 141 140
0.499135 0.331877 0.458046 68 1 84
-0.263974 0.328817 -0.114860 68 1 84
0.288593 -0.060476 -0.171194 68 1 84
0.479896 -0.336016 -0.155857 63 69 135
-0.042804 -0.100784 -0.432234 47 106 141
-0.583313 0.016565 0.523232 63 71 136
-0.003848 0.325032 -0.271432 116 208 84
0.307088 -0.204575 -0.205038 68 1 84
-0.085711 0.630852 -0.077666 68 1 84
0.031163 0.259139 -0.308193 134 212 73
-0.299179 0.490075 0.008601 68 1 84
0.285906 0.549272 0.121433 68 1 84
-0.149860 0.223768 -0.259430 49 101 141
0.256599 0.569173 0.056477 68 1 84
-0.034362 0.278844 -0.287892 38 127 142
0.585967 0.141789 0.462215 68 1 84
0.457926 -0.415553 -0.255631 71 44 123
0.080733 -0.247739 -0.298818 68 1 84
0.683588 -0.404631 0.436930 33 142 140
-0.335947 0.431000 0.014419 68 1 84
-0.099944 0.618517 -0.111542 68 1 84
-0.506373 0.265640 0.444728 68 1 84
-0.664583 -0.317939 0.437626 43 177 125
0.620917 -0.396797 0.111226 41 120 142
0.569957 -0.281829 0.003253 41 120 142
0.029733 -0.058371 -0.451816 34 138 141
0.252309 0.572880 0.106899 68 1 84
0.664966 -0.338660 0.322742 39 173 128
0.576177 0.183474 0.310651 68 1 84
-0.555828 0.137476 0.362675 72 34 115
-0.234342 -0.008750 -0.189909 68 1 84
0.023861 -0.171507 -0.406426 69 6 90
0.448050 0.292356 0.048917 68 1 84
-0.474054 0.279541 0.529278 68 1 84
0.161958 -0.203898 -0.211073 68 1 84
0.341734 0.062882 -0.143749 42 119 142
-0.522254 -0.121570 -0.009113 68 1 84
-0.240285 0.427762 -0.095745 68 1 84
0.299226 0.532184 0.065534 68 1 84
0.232197 0.070947 -0.186739 68 1 84
-0.382425 0.435412 0.263381 68 1 84
0.657601 -0.279755 0.293458 40 174 127
-0.088456 -0.292915 -0.314182 68 1 84
0.051425 -0.316314 -0.365619 68 1 84
-0.267960 0.235395 -0.166575 71 40 120
0.152972 0.580312 -0.133754 68 1 84
-0.333450 -0.166790 -0.172004 68 1 84
-0.261510 -0.119511 -0.176225 68 1 84
0.357986 0.270543 -0.089376 40 122 142
-0.317397 0.478790 0.032787 68 1 84
-0.034616 0.281140 -0.284501 45 111 142
-0.145030 -0.308967 -0.259604 68 1 84
0.232329 -0.090996 -0.192500 68 1 84
0.191063 -0.211299 -0.204759 68 1 84
0.595087 0.053471 0.516466 68 1 84
-0.284959 -0.259227 -0.214358 68 1 84
-0.091417 0.564462 -0.180036 68 1 84
-0.654790 -0.414474 0.210970 41 121 142
0.544081 -0.411514 -0.105040 54 90 140
0.657907 -0.433436 0.240723 32 165 133
0.433306 -0.090844 -0.110231 54 91 140
0.629739 -0.080076 0.299829 30 155 137
-0.439152 0.375205 0.310823 68 1 84
0.156912 0.220781 -0.253025 32 143 140
0.103803 0.004368 -0.389807 49 100 141
-0.214394 0.364408 -0.136468 68 1 84
-0.153383 -0.345181 -0.352758 68 1 84
-0.527989 0.008376 0.070909 68 1 84
-0.423554 -0.083967 -0.100583 68 1 84
-0.509809 0.036666 0.052222 68 1 84
-0.469013 -0.107701 -0.069551 68 1 84
0.552897 -0.094758 0.021128 32 144 140
-0.121732 0.428862 -0.171230 68 1 84
-0.548145 -0.171006 0.019291 72 32 113
0.440782 0.408960 0.190200 68 1 84
0.688876 -0.446482 0.372715 81 196 104
0.272549 0.061249 -0.175177 68 1 84
-0.054054 -0.275343 -0.358470 68 1 84
0.132100 -0.001511 -0.313820 56 87 140
-0.083257 0.091509 -0.326616 48 103 141
-0.168537 0.427469 -0.149380 68 1 84
0.162652 0.527588 -0.156987 68 1 84
0.589453 -0.024674 0.154060 40 122 142
0.587302 -0.431062 0.013472 39 126 142
0.631012 -0.079923 0.315244 31 150 139
0.653867 -0.569245 0.214890 39 124 142
-0.237143 0.566953 0.025675 68 1 84
-0.664738 -0.342748 0.315218 30 152 138
-0.375989 -0.363999 -0.287962 68 1 84
-0.637455 -0.389732 0.153697 48 103 141
0.446659 0.230697 0.002293 70 14 97
-0.376858 -0.305482 -0.233593 68 2 85
0.583789 -0.173772 0.052943 40 123 142
0.278013 -0.249015 -0.219761 68 1 84
0.399424 -0.319387 -0.219793 68 1 84
-0.676031 -0.537744 0.261919 36 133 141
-0.696359 -0.454428 0.434254 31 146 140
0.105980 0.627764 -0.089026 68 1 84
0.660538 -0.291183 0.431973 42 176 126
0.289171 -0.336791 -0.277231 68 1 84
0.689623 -0.603584 0.339293 40 123 142
0.105564 -0.137874 -0.311784 67 59 131
-0.585697 0.000304 0.442992 39 125 142
0.600704 -0.183354 0.088432 33 167 132
-0.616487 -0.420086 0.079044 55 88 140
0.628843 -0.298371 0.139591 32 145 140
0.116988 -0.376145 -0.404431 68 1 84
0.188104 0.095223 -0.210685 68 1 84
-0.580593 -0.109157 0.125777 59 81 138
-0.216558 0.404730 -0.124196 68 1 84
0.429557 -0.176967 -0.119156 66 62 133
-0.642229 -0.326051 0.194517 37 130 142
-0.579932 0.025031 0.467269 40 122 142
-0.562776 0.086679 0.278954 68 1 84
-0.480075 -0.435978 -0.249217 68 1 84
-0.639903 -0.204108 0.347627 31 149 139
0.136505 -0.245296 -0.217765 68 1 84
-0.646412 -0.255825 0.519817 55 89 140
-0.401200 -0.140224 -0.121334 68 1 84
-0.695775 -0.568871 0.352726 39 125 142
-0.248592 0.287100 -0.141272 68 1 84
-0.545452 0.171226 0.316260 68 1 84
0.487023 0.310806 0.157175 68 1 84
-0.631550 -0.443181 0.116529 38 127 142
-0.253882 -0.270035 -0.215522 68 1 84
-0.368732 0.347407 -0.014989 70 11 94
-0.143336 0.589973 -0.123813 68 1 84
-0.267668 0.545727 0.090551 68 1 84
-0.511178 0.155619 0.578838 68 1 84
0.540844 0.236097 0.219167 68 1 84
-0.112625 -0.328859 -0.353106 68 1 84
0.471855 0.154127 0.005803 71 40 120
-0.292091 0.517836 0.181944 68 1 84
-0.512365 0.266377 0.378630 68 1 84
-0.018820 0.019813 -0.496499 42 176 126
-0.001872 -0.084733 -0.448653 71 22 105
0.062338 -0.276286 -0.337321 68 2 85
-0.115491 -0.074165 -0.329339 68 1 84
-0.379169 -0.363505 -0.286363 68 1 84
-0.581056 -0.385131 -0.001484 72 29 111
-0.190209 0.596650 0.006158 68 1 84
0.616147 0.018085 0.412045 70 48 125
-0.282834 0.271749 -0.141035 68 1 84
-0.441433 -0.432563 -0.287913 68 1 84
0.062377 -0.160297 -0.373482 67 58 131
-0.312465 0.435100 -0.017829 68 1 84
-0.666123 -0.424079 0.252920 35 168 131
0.289500 0.466498 -0.038424 68 1 84
-0.449466 0.357808 0.232370 68 1 84
-0.640442 -0.246916 0.233507 49 102 141
-0.310969 0.395299 -0.048895 68 1 84
0.249888 0.208962 -0.187099 38 129 142
-0.392073 0.152702 -0.070537 68 1 84
-0.608301 -0.320883 0.092161 59 81 138
-0.626603 -0.152982 0.326894 46 108 142
-0.132578 -0.031119 -0.300154 68 1 84
0.002129 0.210864 -0.307408 33 142 140
-0.042499 0.317166 -0.268549 40 174 127
0.515267 -0.039476 -0.014467 31 147 139
0.532230 0.271028 0.484797 68 1 84
0.124269 0.379870 -0.202227 72 35 116
-0.597289 -0.039952 0.418617 50 99 141
0.058847 -0.317068 -0.362545 68 1 84
0.364646 0.129093 -0.118446 42 118 142
-0.668870 -0.523601 0.236296 41 121 142
0.157919 -0.125147 -0.239590 68 1 84
0.197973 -0.368493 -0.346053 68 1 84
-0.539175 0.197210 0.369231 70 9 92
0.658782 -0.290661 0.305189 57 185 118
-0.197497 -0.095367 -0.207928 68 1 84
0.466640 0.108424 -0.018550 70 49 126
0.437755 0.416332 0.341995 68 1 84
-0.156726 0.068241 -0.343316 41 120 142
0.506881 -0.466328 -0.187879 43 116 142
-0.368401 0.202541 -0.084032 68 1 84
0.161113 -0.159670 -0.227940 68 1 84
0.080348 0.092016 -0.325960 41 121 142
-0.368204 -0.038512 -0.125060 71 15 98
-0.187136 0.544876 -0.113687 68 1 84
-0.313450 -0.328728 -0.277578 68 1 84
-0.531809 0.046745 0.114342 68 1 84
-0.437807 0.144222 -0.013097 68 1 84
-0.038030 -0.105772 -0.432500 57 84 139
-0.400719 0.410586 0.158447 68 1 84
-0.607148 -0.074222 0.410396 62 73 137
0.635472 -0.168998 0.217735 39 126 142
0.643028 -0.102603 0.457238 35 137 141
0.389030 -0.202654 -0.159164 68 1 84
-0.175709 -0.231110 -0.205438 68 1 84
0.660736 -0.282241 0.373170 54 184 119
0.541712 -0.048668 0.021325 31 161 135
-0.359998 0.215083 -0.090304 68 1 84
-0.560207 -0.130314 0.056772 71 20 102
0.648489 -0.094020 0.476407 39 126 142
-0.319646 0.102371 -0.143537 68 1 84
0.639797 -0.121893 0.331463 33 141 140
0.344255 0.077900 -0.140329 37 131 141
-0.472654 0.291236 0.170278 68 1 84
-0.297259 0.119834 -0.154091 68 1 84
0.182262 0.275162 -0.203675 44 113 142
0.533688 -0.010239 0.028815 30 152 138
-0.491413 0.069981 0.038856 68 1 84
0.074577 0.503927 -0.203498 68 1 84
0.082055 -0.039317 -0.404110 31 161 135
0.529824 0.306017 0.338485 68 1 84
0.635783 -0.105707 0.316079 31 150 139
-0.054251 -0.050665 -0.452254 32 165 133
-0.448879 0.061814 -0.028804 68 1 84
0.578986 -0.218407 0.031397 35 137 141
-0.492632 -0.378136 -0.208939 71 43 122
0.360913 0.089311 -0.128053 33 140 141
0.467772 0.389921 0.299589 68 1 84
-0.597912 -0.032341 0.377709 71 42 121
0.322192 0.358282 -0.070127 72 30 112
-0.588661 -0.374117 0.022786 69 52 127
0.130178 -0.359746 -0.387287 68 1 84
-0.088931 -0.032569 -0.422988 31 147 139
0.556425 -0.041533 0.052727 30 152 138
0.608581 0.055117 0.401823 70 12 95
-0.479624 0.075472 0.020950 68 1 84
0.299650 0.214858 -0.153391 33 141 140
0.008817 0.313565 -0.268628 103 204 92
0.100104 -0.044772 -0.357391 46 108 142
0.574420 0.192988 0.436936 68 1 84
0.660861 -0.168962 0.463150 40 122 142
-0.251351 0.116192 -0.176827 68 1 84
0.304695 0.023416 -0.165910 72 26 108
-0.465158 0.342812 0.334282 68 1 84
0.216193 -0.189751 -0.198517 68 1 84
0.015945 0.310054 -0.267702 32 143 140
-0.084540 0.564181 -0.183403 68 1 84
-0.484361 0.286059 0.487099 68 1 84
0.127288 -0.176617 -0.260503 68 1 84
-0.382263 0.314522 -0.019039 69 8 91
0.270814 0.506129 -0.042288 68 1 84
-0.491126 0.263495 0.506645 68 1 84
0.158812 -0.351973 -0.336691 68 1 84
-0.586805 -0.003064 0.453664 48 104 141
-0.377531 0.444637 0.229322 68 1 84
0.107013 -0.323434 -0.316223 68 1 84
0.278297 0.344821 -0.106258 69 54 129
-0.573169 0.045490 0.282200 72 28 110
-0.215381 0.580109 0.079887 68 1 84
0.275756 -0.033665 -0.177120 68 1 84
0.645644 -0.239910 0.218373 51 182 121
-0.088708 -0.389798 -0.414183 71 21 103
0.521212 -0.110495 -0.031588 42 119 142
0.070053 -0.161474 -0.362121 63 71 136
0.588615 0.079611 0.242193 65 65 134
0.247623 -0.142960 -0.186443 68 1 84
0.278841 0.526082 -0.006812 68 1 84
-0.090399 0.090994 -0.320101 48 104 141
0.291618 0.285114 -0.128468 52 94 141
0.180747 -0.375802 -0.380745 68 1 84
0.267944 -0.265784 -0.219397 68 1 84
-0.538473 -0.095248 0.028445 68 1 84
-0.190944 0.046812 -0.204083 68 1 84
0.467290 -0.286963 -0.112205 68 1 84
-0.546784 -0.376918 -0.094466 49 100 141
0.437960 0.410343 0.383871 68 1 84
-0.410232 -0.401576 -0.295136 68 1 84
0.610864 -0.515687 0.079580 64 68 135
0.078234 0.031873 -0.445527 56 185 118
-0.157639 0.032948 -0.317966 49 100 141
-0.534114 0.093164 0.567589 68 1 84
0.622216 -0.013827 0.463677 45 111 142
0.049347 -0.251553 -0.356775 71 37 117
-0.660689 -0.296090 0.379204 37 131 141
0.579936 0.135083 0.502944 68 1 84
0.536404 0.200072 0.166335 68 1 84
-0.548533 -0.481251 -0.119149 49 100 141
-0.507682 0.151922 0.126752 70 45 124
-0.666159 -0.333929 0.364656 31 150 139
-0.369541 0.342333 -0.018164 68 1 84
-0.673899 -0.474022 0.274178 40 122 142
-0.268330 0.329326 -0.113308 68 1 84
0.220888 0.048347 -0.192493 68 1 84
-0.070955 -0.267820 -0.339266 68 1 84
0.011126 0.566419 -0.193158 68 1 84
-0.542441 -0.335339 -0.066982 56 86 139
-0.579929 -0.169508 0.085108 69 50 127
0.120989 -0.069230 -0.300678 69 53 128
0.446088 0.288489 0.041825 68 1 84
-0.079750 0.609745 -0.142124 68 1 84
-0.386743 -0.051437 -0.116182 68 1 84
-0.281890 0.076982 -0.166686 68 1 84
0.651704 -0.186059 0.391006 54 184 119
-0.161634 0.514053 -0.145610 68 1 84
-0.171722 -0.165452 -0.214730 68 1 84
-0.261404 0.073370 -0.174977 68 1 84
-0.645310 -0.233608 0.528100 55 89 140
0.544412 -0.366563 -0.079027 63 69 135
0.633165 -0.071068 0.366718 30 152 138
0.002552 -0.177986 -0.410278 68 1 84
-0.597782 -0.008611 0.515952 72 35 116
-0.179056 0.286161 -0.180946 70 12 95
-0.496777 -0.382387 -0.206290 64 68 135
0.344320 -0.208690 -0.197728 68 1 84
0.283502 0.378595 -0.089533 68 1 84
0.617291 -0.447654 0.105468 39 124 142
0.502472 0.329566 0.452930 68 1 84
0.328946 0.513601 0.185227 68 1 84
0.654309 -0.317124 0.260474 33 140 141
-0.576270 -0.426064 -0.032420 69 53 128
-0.457348 0.043616 -0.026647 68 1 84
-0.055083 0.154337 -0.326221 40 122 142
0.364037 0.348089 -0.035865 68 1 84
-0.628846 -0.393823 0.123466 54 90 140
0.109800 0.360818 -0.228905 46 109 142
0.660138 -0.434877 0.252109 32 165 133
0.398172 0.249472 -0.053945 71 24 106
-0.302459 0.467854 -0.007705 68 1 84
-0.150215 -0.070533 -0.265261 68 1 84
-0.256812 0.505061 -0.048305 68 1 84
0.215992 0.493150 -0.112545 68 1 84
0.613166 0.033010 0.422052 68 3 87
0.130474 -0.015583 -0.296872 61 74 137
-0.325796 -0.291890 -0.215181 68 1 84
-0.155244 -0.356878 -0.376816 68 1 84
-0.180216 0.583336 -0.087004 68 1 84
0.157524 -0.095559 -0.245446 70 9 92
0.249500 -0.108579 -0.184376 68 1 84
-0.440022 0.373259 0.330632 68 1 84
0.646494 -0.203425 0.249881 30 155 137
-0.426924 0.269512 0.028938 72 33 114
0.594025 0.047768 0.524108 68 1 84
-0.622001 -0.487920 0.074346 46 108 142
-0.341853 -0.165029 -0.166480 68 1 84
0.114894 -0.293581 -0.245133 68 1 84
-0.205057 0.080007 -0.196946 68 1 84
-0.156101 0.330321 -0.196402 57 85 139
-0.461060 0.298279 0.142947 68 1 84
-0.219700 0.340976 -0.134504 68 1 84
0.150106 0.029381 -0.273201 42 118 142
0.240063 -0.379229 -0.335630 68 1 84
0.664620 -0.278500 0.502788 30 155 137
-0.081820 -0.270180 -0.311097 68 1 84
0.310830 0.166442 -0.149458 52 95 141
-0.258833 0.551046 0.048513 68 1 84
-0.558813 0.065680 0.228928 68 1 84
-0.593519 -0.194554 0.108150 67 59 131
0.086489 0.053350 -0.428984 30 160 135
0.515438 0.225751 0.135081 68 1 84
0.304016 -0.199295 -0.201015 68 1 84
0.401204 0.133348 -0.087353 72 28 110
-0.318349 0.494857 0.204894 68 1 84
0.393188 -0.149642 -0.137455 68 1 84
0.435095 0.234692 -0.012801 68 1 84
-0.383059 0.240037 -0.057356 68 1 84
-0.465477 0.027204 -0.023763 69 5 88
-0.662277 -0.412282 0.235979 31 149 139
0.099422 0.082556 -0.361764 39 173 128
-0.688328 -0.396067 0.456233 40 122 142
0.634113 -0.522639 0.163562 38 129 142
-0.508272 -0.098578 -0.022362 68 1 84
0.316064 0.505015 0.046491 68 1 84
-0.514807 -0.209897 -0.034322 71 22 105
-0.253425 0.556901 0.070060 68 1 84
-0.454954 0.356439 0.282108 68 1 84
-0.603016 -0.150178 0.171134 64 68 135
0.342964 0.428329 0.012561 68 1 84
-0.575138 0.045626 0.301045 68 1 84
0.000835 -0.234093 -0.390390 68 1 84
-0.299765 0.477184 -0.004079 68 1 84
-0.016972 -0.055190 -0.466333 41 121 142
0.559233 0.245519 0.364761 68 1 84
-0.412794 -0.277460 -0.164768 68 1 84
0.559394 0.044027 0.114840 42 118 142
0.186268 0.416094 -0.149758 68 1 84
0.663727 -0.339652 0.315090 77 194 107
-0.546370 0.171292 0.387270 72 29 111
-0.076295 0.163359 -0.308707 35 137 141
0.534168 -0.363012 -0.099359 72 30 112
-0.227809 -0.339839 -0.285569 70 12 95
-0.645976 -0.241978 0.335629 35 136 141
-0.540407 0.154751 0.484942 72 35 116
0.660686 -0.136425 0.488453 34 139 141
0.378658 0.193404 -0.091578 70 48 125
0.397493 -0.231224 -0.173771 72 28 110
0.193393 -0.151508 -0.207871 68 1 84
-0.697697 -0.525243 0.378240 30 155 137
0.584016 -0.100807 0.083836 32 143 140
-0.487085 0.266050 0.513672 68 1 84
0.655324 -0.237303 0.292558 31 162 134
-0.327823 0.493517 0.155562 68 1 84
0.571675 0.097725 0.562773 68 1 84
-0.564145 -0.458843 -0.075594 62 72 136
-0.644531 -0.511029 0.141186 30 155 137
-0.230172 -0.113108 -0.188350 68 1 84
-0.446068 -0.245371 -0.115957 68 1 84
-0.234718 0.118187 -0.185966 68 1 84
0.556136 0.253750 0.356075 68 1 84
-0.122354 0.520657 -0.176161 68 1 84
0.213222 -0.359299 -0.307217 68 1 84
-0.031089 0.600275 -0.165266 68 1 84
0.501029 -0.254077 -0.069922 51 97 141
-0.596092 -0.359924 0.047566 71 44 123
0.624310 -0.322995 0.123169 36 132 141
0.624730 -0.357425 0.123075 41 120 142
-0.496104 -0.050327 -0.019783 68 1 84
0.488902 -0.326992 -0.133161 71 15 98
-0.142833 0.451360 -0.159194 68 1 84
-0.571268 -0.193910 0.053780 70 48 125
0.187427 0.065177 -0.205289 68 1 84
0.421524 0.352244 0.062599 68 1 84
-0.446729 0.205885 0.028617 58 83 139
-0.105017 -0.290718 -0.274101 68 1 84
0.112977 -0.007988 -0.356727 60 78 138
0.535824 -0.366942 -0.099117 72 30 112
0.353309 0.086328 -0.133516 42 117 142
0.667905 -0.548993 0.279096 32 165 133
0.617585 -0.312357 0.102807 32 145 140
-0.216726 -0.239394 -0.209741 68 1 84
0.433564 -0.109903 -0.113183 51 97 141
-0.211827 -0.401129 -0.389870 70 12 95
0.414500 -0.211776 -0.141271 68 1 84
-0.636241 -0.194322 0.389409 47 105 141
0.657706 -0.248971 0.412783 59 186 117
0.548686 -0.294000 -0.031459 40 122 142
0.290832 -0.120899 -0.170923 68 1 84
0.346733 -0.063863 -0.148442 72 26 108
-0.056928 0.610059 -0.150011 68 1 84
0.583616 -0.154589 0.059288 30 155 137
-0.588421 -0.024550 0.269926 61 75 137
-0.630151 -0.170977 0.293761 48 104 141
-0.473626 0.294609 0.503165 68 1 84
-0.689056 -0.513395 0.328967 30 153 138
-0.605451 -0.076416 0.433264 60 78 138
0.297521 0.362924 -0.086545 68 1 84
0.271175 0.452644 -0.066953 68 1 84
-0.004024 0.134886 -0.375085 54 184 119
-0.534934 0.173154 0.247416 69 8 91
-0.317331 -0.350231 -0.293243 68 2 85
-0.357458 0.010912 -0.126843 70 48 125
-0.001279 -0.139139 -0.424602 68 1 84
0.174249 -0.360728 -0.349353 68 1 84
-0.192222 -0.042706 -0.214622 68 1 84
0.594158 -0.207907 0.064813 30 152 138
-0.514785 0.070438 0.088161 68 3 87
-0.509885 -0.364497 -0.171405 45 110 142
-0.115080 -0.145068 -0.301814 68 1 84
-0.304346 -0.209627 -0.209175 68 1 84
0.022787 0.524223 -0.209313 68 1 84
0.516832 0.236340 0.148615 68 1 84
-0.660590 -0.296062 0.353146 31 146 140
0.530002 -0.075317 -0.007974 36 134 141
0.665022 -0.325531 0.334850 31 150 139
0.450322 0.099855 -0.041938 69 50 127
0.650660 -0.403284 0.221691 36 134 141
-0.556356 -0.358208 -0.053929 56 86 139
0.658189 -0.158071 0.463465 31 161 135
-0.342517 0.113231 -0.125898 68 1 84
0.598134 -0.460077 0.041086 57 84 139
-0.095590 0.066730 -0.434730 54 184 119
0.020552 0.546438 -0.202824 68 1 84
-0.446412 -0.257413 -0.118732 68 1 84
-0.368675 0.420887 0.069427 68 1 84
0.263296 0.229561 -0.172860 43 116 142
0.661703 -0.467585 0.261054 38 172 129
-0.518151 0.253843 0.324472 68 1 84
0.329257 -0.057123 -0.155018 68 1 84
0.226483 0.577428 -0.027442 68 1 84
-0.418786 -0.396480 -0.286764 68 1 84
0.588288 0.144823 0.348611 70 48 125
-0.307448 0.511727 0.138751 68 1 84
0.104052 0.364221 -0.226418 50 98 141
-0.064810 -0.260171 -0.349116 68 1 84
-0.416737 -0.211089 -0.139382 68 1 84
0.642564 -0.345576 0.186534 30 153 138
0.436463 0.122717 -0.052362 71 39 119
0.279276 -0.385799 -0.330066 68 1 84
0.117997 -0.020379 -0.328038 69 53 128
0.595649 0.111219 0.348459 68 57 130
0.352201 -0.197883 -0.183689 68 1 84
0.471357 0.326503 0.137797 68 1 84
-0.025173 0.261054 -0.308656 31 161 135
-0.482289 0.114998 0.046572 68 1 84
-0.252736 -0.036641 -0.180944 68 1 84
0.614993 0.004220 0.329042 46 108 142
-0.451957 -0.338510 -0.221105 69 52 127
-0.400230 -0.239161 -0.172845 68 1 84
0.652332 -0.192971 0.351869 34 167 132
-0.613538 -0.076321 0.483867 53 92 140
-0.047433 0.376868 -0.209491 71 18 101
0.355813 0.278641 -0.088721 59 80 138
0.165887 -0.354164 -0.334227 68 1 84
-0.693604 -0.514383 0.354172 30 158 136
-0.066306 -0.066081 -0.431801 38 127 142
-0.379893 -0.402437 -0.313068 68 1 84
0.318371 -0.312781 -0.218858 68 1 84
0.217918 -0.346848 -0.283861 68 1 84
-0.553935 0.046767 0.188410 68 1 84
0.178868 0.544919 -0.136485 68 1 84
-0.594097 -0.478805 -0.000136 48 103 141
-0.274167 0.263990 -0.150484 68 1 84
0.667152 -0.201811 0.519554 36 132 141
-0.093160 0.081920 -0.376269 33 141 140
-0.135619 0.099968 -0.273592 39 125 142
-0.569627 -0.011460 0.191545 72 34 115
0.215227 0.141481 -0.204447 68 1 84
0.660033 -0.454386 0.248493 32 164 133
0.378924 0.475485 0.184210 68 1 84
-0.126040 -0.013175 -0.331012 72 25 107
-0.121784 0.253571 -0.274207 58 83 139
0.410190 -0.347385 -0.251307 68 1 84
-0.335553 -0.201421 -0.201287 68 1 84
0.585135 0.163093 0.411080 68 1 84
0.506432 0.146107 0.061473 57 84 139
-0.653156 -0.279534 0.432796 30 151 138
0.376912 -0.410410 -0.314750 68 1 84
-0.594705 -0.236744 0.087189 70 49 126
-0.358118 -0.049435 -0.132104 69 5 88
0.491889 0.255910 0.106048 68 1 84
0.572721 0.201184 0.424132 68 1 84
0.641650 -0.118822 0.423925 33 140 141
0.624196 -0.278603 0.124704 35 135 141
0.563670 0.154776 0.542273 68 1 84
0.660869 -0.271525 0.444770 44 177 125
0.423016 -0.154504 -0.121321 64 67 135
-0.501525 0.221195 0.537566 68 1 84
0.134993 0.046936 -0.354673 37 131 141
0.412881 0.446677 0.262186 68 1 84
-0.628243 -0.132106 0.496613 41 120 142
-0.337105 0.206210 -0.113796 68 1 84
-0.344117 0.320864 -0.067757 70 11 94
-0.576227 -0.092779 0.124145 60 77 138
0.150354 0.101711 -0.232217 68 1 84
-0.194310 -0.355802 -0.333989 68 1 84
0.138265 -0.156811 -0.254554 68 1 84
0.429817 -0.442652 -0.291124 72 26 108
0.111389 -0.223208 -0.253681 68 1 84
-0.690020 -0.396092 0.447952 34 138 141
-0.488155 -0.458351 -0.237029 68 1 84
0.569322 -0.410268 -0.033542 59 81 138
0.092803 0.398448 -0.194397 68 1 84
-0.637924 -0.324551 0.178246 43 116 142
0.637512 -0.092072 0.384463 37 130 142
-0.532139 -0.067457 0.030265 68 1 84
0.326194 0.380826 -0.049546 68 1 84
-0.344192 0.470280 0.247377 68 1 84
-0.258216 0.344326 -0.111797 68 1 84
0.583520 0.021592 0.169874 42 119 142
-0.031762 0.174654 -0.318243 39 126 142
-0.053492 0.107534 -0.387520 31 163 134
-0.031209 -0.169332 -0.410065 62 73 137
-0.631544 -0.141826 0.522761 34 138 141
0.549310 -0.438870 -0.097693 71 37 117
-0.461565 0.308068 0.161215 68 1 84
0.601651 -0.190851 0.088013 37 171 129
0.606695 0.021068 0.282188 46 109 142
-0.454159 0.213787 0.046556 67 60 132
-0.103875 0.168031 -0.284630 46 108 142
0.230449 -0.388299 -0.363402 68 1 84
0.607311 0.018219 0.282844 46 108 142
0.410700 0.194738 -0.060547 70 11 94
0.286273 -0.339671 -0.284603 68 1 84
-0.471849 0.127339 0.034938 68 1 84
-0.601484 -0.063683 0.296590 61 74 137
0.490158 -0.295533 -0.096924 71 40 120
-0.418136 -0.264172 -0.155375 68 1 84
0.279984 -0.006869 -0.176859 68 1 84
0.225486 0.571595 -0.044981 68 1 84
0.421910 -0.253350 -0.156980 68 1 84
-0.307013 0.511675 0.095661 68 1 84
-0.037744 -0.367392 -0.414323 68 1 84
-0.004338 0.568090 -0.192361 68 1 84
-0.411779 -0.071804 -0.105363 68 1 84
0.259449 0.501693 -0.061288 68 1 84
-0.603694 -0.150741 0.173006 62 73 137
-0.555637 -0.088466 0.069334 71 40 120
-0.583043 -0.202108 0.076293 72 26 108
-0.365571 0.165818 -0.093799 68 1 84
0.606596 0.016992 0.274490 60 77 138
-0.282404 0.215497 -0.160129 68 1 84
0.646878 -0.080384 0.532385 68 1 84
-0.554427 -0.094233 0.062794 72 32 113
0.414550 0.287638 -0.011226 72 35 116
-0.657899 -0.295689 0.286342 36 133 141
-0.120599 0.520498 -0.177335 68 1 84
0.039630 0.091320 -0.456076 253 231 36
0.182454 0.608911 -0.022232 68 1 84
0.041805 -0.373514 -0.417276 68 1 84
-0.676544 -0.486969 0.280200 38 129 142
-0.515693 -0.237078 -0.038350 70 11 94
0.119626 0.268817 -0.265002 43 177 125
-0.488412 -0.300480 -0.113560 72 30 112
0.616588 -0.093490 0.200738 33 167 132
0.661152 -0.301316 0.431879 53 183 120
0.674983 -0.571184 0.293829 31 149 139
0.218762 -0.320333 -0.241619 68 1 84
0.109965 0.063022 -0.390361 61 187 116
-0.639193 -0.204604 0.373128 40 123 142
-0.440830 -0.285358 -0.142042 68 1 84
0.504884 0.341633 0.382667 68 1 84
-0.648625 -0.279190 0.479511 38 129 142
-0.132248 -0.086773 -0.294898 68 1 84
-0.624310 -0.141376 0.397728 49 100 141
0.364224 -0.186889 -0.166053 68 1 84
0.035195 0.290798 -0.268748 42 118 142
0.451815 0.408115 0.254759 68 1 84
-0.416371 0.366064 0.113326 68 1 84
-0.332725 -0.194271 -0.196315 71 18 101
0.629541 -0.056341 0.354404 36 132 141
-0.364064 0.458972 0.174845 68 1 84
0.603977 -0.208849 0.087199 30 154 137
0.443177 -0.196374 -0.111748 68 57 130
-0.593807 -0.018379 0.353201 63 69 135
-0.490901 -0.062831 -0.032127 68 1 84
-0.695428 -0.454670 0.403159 59 186 117
0.535469 0.260510 0.233841 68 1 84
0.549268 0.247242 0.462435 68 1 84
-0.610050 -0.064487 0.482831 42 119 142
0.215556 -0.122772 -0.198417 68 1 84
-0.108057 0.626627 -0.068073 68 1 84
-0.262210 0.542279 0.159858 68 1 84
0.183218 0.174324 -0.229477 68 1 84
-0.530372 -0.287326 -0.045317 71 44 123
-0.537023 0.135009 0.210786 71 20 102
0.554562 -0.194849 -0.004015 32 145 140
-0.525824 -0.163187 -0.014029 68 1 84
0.187255 0.600367 -0.055215 68 1 84
-0.567294 -0.266905 0.019670 66 61 132
-0.514804 0.048406 0.071793 68 1 84
-0.351631 -0.345426 -0.282818 72 28 110
-0.576195 -0.015408 0.215153 69 50 127
-0.647882 -0.268464 0.453402 32 145 140
-0.466824 0.341042 0.324814 68 1 84
0.070620 0.564007 -0.189418 68 1 84
-0.364049 0.438795 0.087490 68 1 84
-0.217856 -0.380626 -0.375953 68 1 84
-0.544213 0.089059 0.192125 68 1 84
-0.078834 -0.319526 -0.362485 68 1 84
-0.202687 0.533048 -0.101232 68 1 84
0.622468 -0.155994 0.167659 31 148 139
-0.624575 -0.132807 0.466676 44 112 142
0.510969 0.294560 0.200540 68 1 84
0.645949 -0.146918 0.360049 35 168 131
-0.532756 -0.089515 0.020781 68 1 84
-0.359878 0.227888 -0.087465 68 1 84
-0.572519 -0.010604 0.205005 67 60 132
0.223427 0.149126 -0.200536 68 1 84
-0.405454 0.410960 0.187330 68 1 84
0.651684 -0.077599 0.493194 40 122 142
0.329144 -0.369798 -0.305897 68 1 84
0.206722 -0.291477 -0.208953 68 1 84
0.439725 0.145925 -0.041890 70 11 94
0.679066 -0.384939 0.424951 36 133 141
-0.217016 0.332562 -0.136886 68 1 84
-0.258982 0.422108 -0.083152 68 1 84
-0.480654 0.282420 0.185186 71 15 98
0.547628 -0.301164 -0.035586 44 113 142
0.624648 -0.411477 0.124118 36 132 141
0.630995 -0.171150 0.194070 34 139 141
-0.436630 0.003461 -0.064926 68 1 84
0.314887 0.524301 0.179219 68 1 84
0.568572 -0.310786 -0.004898 47 106 141
-0.577961 0.011252 0.542900 61 74 137
0.598062 0.101148 0.357537 72 25 107
-0.367734 0.352730 -0.011687 68 1 84
-0.110679 -0.097966 -0.333419 68 1 84
0.628089 -0.146149 0.202274 30 153 138
-0.259937 0.149239 -0.174555 68 1 84
-0.338680 0.275853 -0.095191 68 1 84
-0.192509 0.226837 -0.224467 49 100 141
-0.458439 -0.102784 -0.077792 68 1 84
0.092351 0.550598 -0.189105 68 1 84
0.544616 -0.107776 0.003432 35 137 141
-0.199124 -0.365546 -0.363700 68 1 84
-0.569237 0.034766 0.535917 71 40 120
-0.541518 -0.121803 0.023260 68 1 84
0.371448 -0.475919 -0.342030 68 1 84
0.599424 -0.329891 0.057164 39 124 142
0.455494 0.404249 0.279839 68 1 84
-0.136293 0.515831 -0.166832 68 1 84
-0.487474 0.226276 0.131211 68 1 84
-0.033650 0.145545 -0.341817 35 137 141
0.665546 -0.527834 0.274263 41 175 127
-0.539633 -0.055461 0.052116 71 21 103
0.063720 0.615919 -0.140782 68 1 84
0.313303 0.508162 0.045568 68 1 84
-0.093906 0.566449 -0.177716 68 1 84
-0.258027 -0.366865 -0.317888 68 1 84
-0.264728 0.406554 -0.085308 68 1 84
-0.602548 -0.057949 0.332830 53 93 140
-0.228451 0.259493 -0.180289 71 40 120
0.130371 0.027081 -0.353573 58 83 139
-0.185297 0.279032 -0.190886 66 61 132
-0.470569 -0.181884 -0.074957 68 1 84
0.235040 -0.114398 -0.190287 68 1 84
0.502787 0.255780 0.131909 68 1 84
-0.466711 -0.306618 -0.148392 68 1 84
0.601472 -0.138136 0.110366 32 144 140
0.365988 -0.058467 -0.140414 69 50 127
0.537345 0.060504 0.075600 58 83 139
0.646701 -0.161090 0.336001 36 134 141
-0.552701 -0.012006 0.124655 71 39 119
0.479437 0.040626 -0.027225 53 93 140
