ply
format ascii 1.0
element vertex 1271
property float x
property float y
property float z
property uchar red
property uchar green
property uchar blue
end_header
0.412654 -0.435398 -0.218791 68 1 84
-0.269051 0.484794 0.030468 68 1 84
0.550284 -0.184700 0.006636 68 1 84
-0.554324 0.095681 0.142617 71 39 119
0.318020 -0.414449 -0.261117 68 1 84
0.229446 0.158672 -0.168861 69 50 127
0.448634 0.366949 0.317141 68 1 84
0.168830 0.210617 -0.188958 45 111 142
0.063468 -0.133901 -0.372081 146 215 65
0.604866 -0.133892 0.119974 68 1 84
0.141998 -0.157645 -0.245143 56 87 140
-0.513012 0.268298 0.208714 70 14 97
0.122797 -0.095839 -0.312573 35 136 141
0.648889 -0.341128 0.320484 68 1 84
0.600356 -0.052616 0.204887 68 1 84
-0.525279 0.241614 0.317363 69 6 90
-0.195592 0.312548 -0.130834 43 115 142
0.034639 0.111142 -0.290707 31 161 135
-0.326242 -0.190564 -0.159494 68 1 84
-0.407933 0.357112 0.040235 68 1 84
-0.324141 0.474693 0.179164 68 1 84
-0.224398 0.510541 0.006844 68 1 84
-0.140395 -0.051706 -0.262364 35 137 141
-0.247990 0.456862 -0.038684 71 40 120
-0.115925 -0.351943 -0.255399 69 52 127
-0.185658 -0.313174 -0.181402 72 26 108
-0.625681 -0.223096 0.215517 68 1 84
0.275744 0.012940 -0.205747 66 62 133
-0.315966 -0.309615 -0.173503 68 1 84
0.327474 0.298453 -0.078250 68 3 87
0.266615 0.359563 -0.110150 71 38 118
-0.153115 0.099105 -0.218133 40 122 142
0.017134 0.006897 -0.448558 121 209 81
0.568262 0.148911 0.365020 72 30 112
0.173880 -0.344120 -0.204261 68 1 84
0.650141 -0.299266 0.334223 68 1 84
0.516271 -0.442727 -0.080510 68 1 84
0.593146 -0.177480 0.076673 68 1 84
0.151798 0.321559 -0.202107 51 97 141
-0.426326 0.387287 0.151519 68 1 84
0.101103 0.356965 -0.207071 60 77 138
-0.573565 -0.403116 0.067376 68 1 84
0.131304 0.388433 -0.192050 56 86 139
0.633387 -0.219301 0.239536 68 1 84
-0.174733 0.095753 -0.209030 54 90 140
0.683277 -0.361377 0.400600 68 1 84
-0.584814 -0.012463 0.200143 71 40 120
0.572137 0.108708 0.417533 72 34 115
-0.464402 0.338814 0.142901 71 18 101
0.202814 0.102942 -0.197426 56 87 140
-0.607885 -0.056928 0.491716 68 1 84
0.545320 -0.403519 -0.021315 68 1 84
0.347860 -0.329226 -0.187326 68 1 84
0.539925 0.216046 0.384794 68 1 84
0.351180 -0.293564 -0.161639 68 1 84
0.423751 -0.366285 -0.176659 68 1 84
0.497764 0.014924 -0.065324 69 6 90
-0.332126 -0.171120 -0.156758 70 14 97
0.582105 -0.081546 0.067786 68 1 84
-0.492504 0.091474 -0.017678 72 30 112
0.020715 -0.250144 -0.323946 68 57 130
-0.428572 0.218764 -0.034634 71 43 122
0.578923 -0.017540 0.117601 68 1 84
0.020458 -0.102960 -0.424845 243 229 30
-0.302721 -0.391437 -0.252075 68 1 84
0.407925 0.049833 -0.145173 71 37 117
0.399318 -0.280892 -0.114610 68 1 84
0.456419 0.371159 0.124730 68 1 84
-0.434947 0.374974 0.295191 68 1 84
0.617591 -0.400345 0.186685 68 1 84
0.133071 0.585984 -0.110092 68 1 84
-0.042704 -0.298187 -0.283031 71 44 123
-0.600924 -0.134429 0.138986 68 1 84
-0.526464 -0.098566 -0.022487 68 1 84
0.290597 0.046542 -0.192467 66 62 133
-0.550072 -0.054211 0.030664 71 15 98
0.553231 -0.426338 -0.005284 68 1 84
0.365066 0.285387 -0.070876 68 1 84
-0.395119 0.267803 -0.041712 59 81 138
0.116815 0.211585 -0.230588 32 143 140
0.576888 -0.493247 0.052601 68 1 84
-0.551059 -0.464447 0.014929 68 1 84
-0.179223 -0.399932 -0.285167 65 65 134
-0.232790 0.346272 -0.103822 47 106 141
-0.455624 0.336103 0.372811 68 1 84
-0.621154 -0.448025 0.233384 68 1 84
0.555879 -0.132672 0.005797 68 1 84
-0.112576 0.030476 -0.273879 36 132 141
-0.621761 -0.148311 0.360432 68 1 84
0.097173 0.403677 -0.199898 44 113 142
0.648834 -0.228323 0.322553 68 1 84
0.557908 -0.136559 0.009369 68 1 84
0.520062 -0.377453 -0.070670 68 1 84
0.009923 0.305630 -0.255773 44 112 142
-0.597219 0.009645 0.301584 71 22 105
0.399291 0.441131 0.164971 68 1 84
0.404962 0.366286 0.016019 68 1 84
0.557145 -0.448024 0.004393 68 1 84
-0.367651 0.156758 -0.131360 62 72 136
0.573189 0.035159 0.155804 68 1 84
0.294154 0.166116 -0.131443 71 38 118
-0.375550 0.348310 -0.010531 60 78 138
0.164011 0.568707 -0.117127 68 1 84
0.214105 0.011710 -0.203337 56 87 140
-0.554660 -0.442081 0.022135 68 1 84
-0.475504 -0.452907 -0.142138 68 1 84
0.634706 -0.136451 0.406738 68 1 84
-0.383544 0.320675 -0.023241 56 87 140
-0.618123 -0.194438 0.183468 68 1 84
-0.464052 0.347301 0.185596 69 8 91
-0.349316 -0.328982 -0.180077 68 1 84
0.170391 0.225786 -0.191633 46 108 142
0.498678 -0.379932 -0.110262 68 1 84
-0.403302 -0.330495 -0.139814 68 1 84
0.411373 0.429543 0.180200 68 1 84
0.582931 0.077090 0.251477 68 1 84
-0.324709 -0.295652 -0.167208 68 1 84
0.036600 -0.279590 -0.308268 71 22 105
-0.370190 0.123071 -0.146771 51 97 141
0.273527 0.530984 0.054729 68 1 84
0.094963 0.071761 -0.287820 31 147 139
0.066969 -0.266284 -0.285834 51 96 141
-0.621658 -0.129347 0.358264 68 1 84
0.402910 0.328506 -0.017482 68 1 84
-0.516707 0.227694 0.414821 68 1 84
-0.471492 -0.277522 -0.046349 68 1 84
-0.621648 -0.139147 0.363910 68 1 84
0.311769 -0.198678 -0.171314 67 58 131
-0.624039 -0.266450 0.228508 68 1 84
0.135978 0.392921 -0.190425 59 80 138
0.530621 0.180389 0.492574 68 1 84
-0.454195 -0.218026 -0.073134 68 1 84
-0.571783 0.090650 0.233860 72 28 110
-0.391171 0.314888 -0.018991 65 66 134
0.508686 -0.219754 -0.027252 68 1 84
0.271177 -0.275300 -0.185956 70 11 94
-0.161667 -0.072470 -0.240136 54 91 140
0.192972 0.207503 -0.162312 57 85 139
-0.478046 0.134064 -0.019610 69 54 129
0.328773 -0.309147 -0.177948 68 1 84
0.575232 0.131161 0.352118 69 52 127
0.147970 -0.089745 -0.264835 46 108 142
0.692394 -0.390082 0.397343 68 1 84
0.129791 -0.289467 -0.183308 70 48 125
-0.580767 -0.004121 0.190540 72 35 116
-0.568586 -0.234395 0.055631 68 1 84
-0.531951 0.104260 0.074150 70 48 125
0.149604 0.016731 -0.276430 32 143 140
0.506447 -0.297462 -0.029967 68 1 84
0.630489 -0.376987 0.237198 68 1 84
0.649551 -0.286700 0.446228 68 1 84
-0.454823 -0.040221 -0.105797 71 44 123
0.446221 -0.211793 -0.083046 68 1 84
-0.352628 -0.005422 -0.190260 62 72 136
-0.564343 -0.495673 0.044999 68 1 84
0.077110 -0.006440 -0.429224 51 182 121
0.639176 -0.123146 0.356525 68 1 84
0.398701 0.151337 -0.104842 68 1 84
-0.400570 -0.227798 -0.113268 68 1 84
0.087620 0.229083 -0.248647 31 149 139
-0.381226 -0.067141 -0.165577 70 49 126
0.479823 0.254367 0.038201 68 1 84
0.403774 -0.091294 -0.153656 67 60 132
-0.088589 0.071256 -0.258910 38 129 142
-0.539423 -0.191328 0.006280 68 1 84
-0.592456 -0.299687 0.116770 68 1 84
0.425411 0.397063 0.299132 68 1 84
-0.603968 -0.043044 0.253620 68 1 84
0.633823 -0.366938 0.258762 68 1 84
0.549123 -0.073467 -0.004281 68 2 85
0.027988 -0.099388 -0.425764 202 224 30
-0.104612 0.107665 -0.245790 32 143 140
0.490544 0.022777 -0.073138 72 26 108
-0.452279 -0.387993 -0.168331 68 1 84
0.609271 -0.029058 0.326276 68 1 84
0.116888 0.011812 -0.319835 34 138 141
0.550274 -0.085965 -0.004026 68 1 84
0.704194 -0.396715 0.428654 68 1 84
-0.555935 -0.142621 0.025214 68 1 84
0.447546 0.019777 -0.122010 70 11 94
-0.058628 0.212351 -0.238668 38 128 142
-0.481371 0.294761 0.396869 68 1 84
-0.394016 0.089425 -0.143256 51 96 141
-0.465389 0.062677 -0.070956 61 75 137
-0.325385 -0.248809 -0.175103 69 5 88
-0.311126 0.196276 -0.139886 70 45 124
-0.579381 -0.098651 0.085825 71 20 102
0.512419 0.008856 -0.045295 68 1 84
0.612595 -0.178240 0.133608 68 1 84
-0.621707 -0.201537 0.341120 68 1 84
-0.547785 0.194685 0.282859 70 14 97
-0.008823 0.040070 -0.361380 50 181 122
0.484745 0.316357 0.359121 68 1 84
-0.168765 -0.242403 -0.181887 68 1 84
-0.428716 -0.043021 -0.131314 69 54 129
-0.399835 -0.462026 -0.222212 70 11 94
-0.501108 0.268696 0.379093 68 1 84
-0.219643 -0.028097 -0.230956 45 110 142
0.433038 0.334272 0.026769 68 1 84
0.587161 0.084605 0.335698 72 32 113
0.608773 -0.035789 0.419511 68 1 84
0.118278 -0.059906 -0.376830 41 175 127
0.314034 0.371439 -0.065969 70 9 92
-0.463072 0.202564 -0.003344 66 61 132
0.246283 0.144358 -0.163277 71 40 120
0.171903 0.555359 -0.133458 68 1 84
-0.540100 0.112029 0.103848 70 11 94
0.340642 0.259649 -0.089249 68 1 84
-0.525978 -0.433294 -0.046386 68 1 84
0.088346 -0.035809 -0.428707 94 201 97
0.303497 -0.085537 -0.204040 58 82 139
0.556074 0.200256 0.279345 72 30 112
0.694409 -0.371348 0.443767 68 1 84
0.587967 -0.007325 0.481361 70 48 125
0.180736 -0.406698 -0.302837 71 44 123
0.640590 -0.379212 0.288328 68 1 84
-0.239418 0.342308 -0.101593 53 92 140
0.637680 -0.335205 0.277224 68 1 84
-0.436121 0.377423 0.270793 68 1 84
-0.451828 0.363311 0.234088 68 1 84
-0.636344 -0.262143 0.429578 68 1 84
0.401118 0.424075 0.090193 68 1 84
-0.568418 -0.006469 0.127168 71 24 106
-0.119536 -0.158858 -0.243023 53 93 140
-0.418718 -0.455479 -0.206973 68 1 84
-0.098634 0.072322 -0.247902 43 116 142
-0.064269 0.490183 -0.183496 53 93 140
0.130776 -0.083529 -0.310054 36 133 141
-0.425419 -0.242044 -0.087951 68 1 84
0.476867 0.086618 -0.064880 68 1 84
0.109274 0.318061 -0.229290 50 99 141
-0.260625 0.349447 -0.088714 69 54 129
-0.612387 -0.370514 0.203781 68 1 84
0.608473 -0.402821 0.149161 68 1 84
-0.272928 0.111228 -0.188464 54 90 140
-0.023830 0.010405 -0.369283 109 206 88
0.662066 -0.330345 0.387487 68 1 84
0.377469 0.459236 0.150721 68 1 84
0.150167 -0.091325 -0.260366 56 86 139
-0.522191 0.249053 0.213194 68 1 84
0.203335 0.559867 -0.061765 68 1 84
0.308522 -0.010633 -0.204912 61 74 137
-0.196302 -0.163344 -0.196174 68 1 84
0.101973 -0.121124 -0.328174 48 180 122
-0.582720 0.008698 0.208245 70 49 126
-0.592324 -0.404076 0.124874 68 1 84
0.611414 -0.033323 0.345040 68 1 84
-0.081056 0.193508 -0.250119 34 139 141
0.039334 0.377308 -0.206695 61 75 137
0.108557 -0.261718 -0.206431 71 21 103
0.517278 0.217016 0.486260 68 1 84
0.661096 -0.323125 0.412471 68 1 84
0.321171 -0.389607 -0.246085 68 1 84
0.288103 0.514617 0.019387 68 1 84
-0.083191 0.218819 -0.217753 54 90 140
-0.543532 0.054227 0.077149 71 20 102
-0.500360 0.093092 -0.003704 71 39 119
-0.576315 0.093720 0.304307 71 17 99
0.592010 0.044866 0.283676 69 6 90
-0.469096 0.318441 0.111366 70 49 126
-0.028496 0.592106 -0.119728 68 1 84
-0.417850 0.364002 0.066034 72 33 114
0.037750 0.489243 -0.214064 40 123 142
0.083046 0.006703 -0.388756 47 179 123
-0.415747 -0.065862 -0.142251 72 33 114
-0.123770 -0.069557 -0.294172 57 185 118
-0.536797 0.089715 0.081552 71 40 120
-0.683664 -0.535882 0.381217 68 1 84
0.571974 0.116743 0.217693 68 1 84
-0.600226 -0.119869 0.144941 68 1 84
-0.609947 -0.071289 0.253212 68 1 84
-0.137841 -0.072596 -0.257514 41 120 142
0.316232 -0.418459 -0.263603 68 1 84
0.624762 -0.288217 0.199770 68 1 84
0.575291 -0.138132 0.039841 68 1 84
0.089369 0.295784 -0.251823 39 125 142
0.048046 0.192324 -0.274766 42 176 126
-0.215240 -0.401085 -0.276803 59 80 138
-0.196382 0.537160 0.045522 68 1 84
0.470751 0.100463 -0.064680 68 1 84
-0.620466 -0.071203 0.370020 68 1 84
0.210946 -0.358832 -0.212956 68 1 84
-0.186259 0.540910 0.032530 68 1 84
0.682257 -0.362939 0.393014 68 1 84
0.250555 -0.393638 -0.262865 68 1 84
0.389978 0.444241 0.114653 68 1 84
0.389364 0.368082 -0.000184 68 1 84
0.387298 0.019427 -0.167088 71 39 119
0.103431 -0.297525 -0.221765 61 74 137
-0.138192 -0.323468 -0.187073 68 1 84
-0.563004 0.104806 0.187727 65 65 134
0.320526 0.001499 -0.199498 69 50 127
-0.467947 0.166030 -0.017309 66 64 133
-0.125051 -0.068780 -0.291121 47 179 123
0.131515 0.493331 -0.195970 53 93 140
0.284071 0.325096 -0.097796 72 33 114
-0.629857 -0.240985 0.255655 68 1 84
-0.108855 -0.287743 -0.185952 68 1 84
-0.511904 0.211074 0.094848 72 34 115
-0.463471 -0.392503 -0.158424 68 1 84
0.300654 0.456861 -0.046302 68 1 84
-0.531767 0.232814 0.257817 69 6 90
-0.229067 -0.288780 -0.188966 71 38 118
0.608130 -0.173336 0.117628 68 1 84
-0.565429 -0.261420 0.053547 68 1 84
-0.329091 -0.257232 -0.171466 68 1 84
0.487071 -0.174206 -0.067816 68 1 84
0.566815 0.162877 0.265612 72 26 108
0.559102 0.153206 0.181255 71 15 98
0.076360 -0.234682 -0.279637 37 130 142
-0.429834 0.386339 0.253342 68 1 84
0.066371 -0.081596 -0.426523 157 217 58
0.301799 0.152698 -0.137791 68 1 84
0.410734 0.430011 0.150983 68 1 84
0.353111 0.361164 -0.039152 68 1 84
0.398218 -0.317802 -0.136761 68 1 84
0.417173 0.397655 0.077804 68 1 84
-0.640227 -0.482868 0.362218 68 1 84
0.288548 0.297135 -0.097982 69 52 127
-0.609425 -0.096071 0.219231 68 1 84
0.340604 0.135022 -0.139024 68 1 84
0.526472 0.237448 0.406746 71 15 98
0.340547 0.434312 -0.005849 68 1 84
0.430643 0.397219 0.276497 68 1 84
-0.121049 0.235718 -0.182219 67 60 132
0.506516 0.080855 -0.023964 68 1 84
0.581843 -0.470627 0.067951 68 1 84
-0.098916 -0.285978 -0.193771 68 1 84
-0.592353 -0.137485 0.109731 68 1 84
0.003609 -0.194568 -0.353395 46 178 124
0.576452 0.122546 0.365202 70 45 124
-0.305740 0.482148 0.109395 68 1 84
0.287490 0.520135 0.036637 68 1 84
-0.594178 -0.342407 0.125158 68 1 84
0.303179 0.511894 0.071778 68 1 84
-0.458096 0.093664 -0.068474 58 82 139
0.544285 -0.463420 -0.023971 68 1 84
-0.284563 -0.127346 -0.186786 71 37 117
0.618944 -0.103172 0.253566 68 1 84
0.168563 0.202939 -0.189065 44 113 142
0.611163 -0.453249 0.156838 68 1 84
0.287173 0.417617 -0.083749 68 1 84
-0.461047 -0.469530 -0.160693 68 1 84
-0.568220 0.059105 0.453158 68 1 84
-0.548456 -0.414472 0.007770 68 1 84
-0.592487 0.036006 0.351752 72 34 115
0.625399 -0.439303 0.203010 68 1 84
0.132624 0.023383 -0.292206 37 131 141
0.638891 -0.155767 0.405294 68 1 84
0.078495 0.540002 -0.190203 55 89 140
0.358058 -0.127567 -0.163470 69 50 127
0.338756 -0.327985 -0.188767 68 2 85
-0.487948 0.186320 0.025634 69 50 127
-0.616141 -0.156395 0.192863 68 1 84
0.121670 0.125053 -0.255221 36 134 141
0.169705 -0.361988 -0.241723 71 22 105
-0.487735 0.270226 0.437166 68 1 84
0.569485 -0.445924 0.034549 68 1 84
0.550767 0.212965 0.305450 71 39 119
-0.553139 -0.007105 0.061521 71 42 121
-0.231591 0.139636 -0.187636 57 85 139
0.325355 0.166662 -0.125829 68 1 84
0.635635 -0.231482 0.255000 68 1 84
-0.489093 0.311447 0.201695 71 22 105
0.471005 -0.106929 -0.101370 69 54 129
-0.096988 -0.292524 -0.197448 68 1 84
0.111572 -0.310580 -0.221912 66 64 133
-0.197336 -0.177196 -0.189273 68 1 84
0.552487 0.145700 0.458564 68 3 87
-0.437432 0.257498 -0.002533 60 78 138
-0.065985 -0.118694 -0.358797 103 204 92
0.331904 0.431492 -0.020557 68 1 84
-0.071518 0.020353 -0.300571 30 159 136
-0.288300 -0.130398 -0.183658 72 33 114
-0.241723 0.468661 -0.034248 70 14 97
0.248041 0.339077 -0.127408 71 38 118
0.652435 -0.256309 0.369774 68 1 84
0.569349 0.064844 0.478304 68 1 84
-0.405530 -0.352349 -0.167553 68 1 84
-0.608326 -0.098262 0.209523 68 1 84
-0.038212 -0.218777 -0.313216 69 54 129
0.111432 -0.384256 -0.303531 62 73 137
0.642678 -0.403515 0.294330 68 1 84
0.357881 0.451099 0.047094 68 1 84
0.580950 0.096733 0.258879 68 1 84
-0.106406 0.528183 -0.134927 44 112 142
0.137798 0.562459 -0.153714 70 11 94
-0.648453 -0.419013 0.429553 68 1 84
-0.243008 0.307568 -0.111158 59 81 138
-0.110747 -0.346226 -0.249878 71 38 118
-0.145735 0.108422 -0.222851 40 123 142
-0.139045 0.285799 -0.173125 40 122 142
-0.577886 -0.262040 0.075743 68 1 84
-0.536240 0.211732 0.200219 68 1 84
0.134700 0.263531 -0.237098 42 117 142
-0.154151 0.381529 -0.144039 47 105 141
-0.438130 0.379561 0.194620 68 1 84
0.193205 -0.138447 -0.220379 69 53 128
0.331281 0.458448 0.007535 68 1 84
0.584264 0.059263 0.239414 71 21 103
-0.286010 -0.257296 -0.189592 68 1 84
0.392208 0.355772 -0.007060 68 1 84
-0.585347 -0.522642 0.093400 68 1 84
-0.327958 0.213162 -0.125356 66 62 133
0.406437 0.392797 0.049536 68 1 84
0.347714 0.037428 -0.181484 70 45 124
0.109223 -0.068661 -0.386715 62 188 115
0.489020 0.333082 0.238567 68 1 84
0.607378 -0.190927 0.112819 68 1 84
-0.016869 -0.167530 -0.363486 34 167 132
-0.406961 -0.202706 -0.113165 70 12 95
-0.187238 -0.304677 -0.176941 72 25 107
-0.439966 -0.006896 -0.119289 64 67 135
0.124234 0.481360 -0.200837 42 119 142
-0.449860 -0.355473 -0.144940 68 1 84
0.588169 -0.051071 0.122184 68 1 84
0.210341 0.471408 -0.149537 72 35 116
0.612828 -0.073740 0.265970 68 1 84
-0.344866 0.297039 -0.075817 71 40 120
-0.220912 0.523585 0.041572 68 1 84
0.133554 0.589104 -0.098043 68 1 84
0.541161 0.125651 0.085508 68 1 84
0.392038 0.389096 0.022606 68 1 84
0.174752 0.343599 -0.181716 65 66 134
0.497224 -0.397245 -0.117899 68 1 84
-0.474639 0.289397 0.084759 72 35 116
0.256724 0.355872 -0.119483 72 28 110
0.012466 0.548037 -0.186123 64 67 135
0.303458 0.477793 -0.019577 68 1 84
0.531393 0.247756 0.175799 68 1 84
0.086403 -0.042104 -0.430548 109 206 88
0.005121 -0.117796 -0.409987 189 222 38
-0.496539 0.242378 0.086269 71 37 117
0.649045 -0.188374 0.336265 68 1 84
-0.629546 -0.357554 0.320308 68 1 84
-0.482771 0.304280 0.359336 68 1 84
-0.636194 -0.247811 0.338190 68 1 84
-0.136722 0.547463 -0.060943 70 49 126
-0.445437 0.073658 -0.093951 62 72 136
0.443039 0.389470 0.126637 68 1 84
-0.313077 -0.327123 -0.184954 68 1 84
-0.638564 -0.463934 0.309991 68 1 84
-0.513418 -0.039636 -0.031562 68 1 84
-0.524061 0.198700 0.119229 72 26 108
-0.583001 0.069417 0.351319 70 14 97
0.114537 -0.406660 -0.315956 59 81 138
-0.100661 0.013024 -0.323497 48 180 122
-0.322486 -0.324152 -0.181958 68 1 84
-0.429366 0.182270 -0.055325 58 83 139
-0.422779 0.330598 0.034379 70 48 125
-0.247462 0.509792 0.054915 68 1 84
-0.650102 -0.394484 0.423036 68 1 84
0.227015 0.529813 -0.087788 68 1 84
-0.630707 -0.231974 0.452090 68 1 84
0.554186 0.186866 0.374091 72 28 110
-0.096972 0.570220 -0.070040 71 37 117
-0.503298 0.201954 0.066084 71 17 99
-0.557694 0.159840 0.263527 68 1 84
0.567572 -0.494974 0.027175 68 1 84
0.113041 -0.271720 -0.199085 70 47 124
-0.141354 0.448067 -0.138687 36 132 141
-0.192463 -0.305936 -0.179891 72 30 112
-0.552665 -0.023359 0.050639 72 28 110
0.003988 -0.411304 -0.324920 51 97 141
0.609307 -0.353737 0.145271 68 1 84
-0.102335 -0.035097 -0.372949 83 197 103
-0.321734 0.178879 -0.144055 70 47 124
0.100177 0.004345 -0.352444 35 168 131
-0.427749 0.054756 -0.121867 61 76 137
-0.608190 -0.022405 0.399605 68 1 84
0.298105 -0.017004 -0.208620 58 83 139
-0.134091 -0.274079 -0.169539 68 1 84
-0.513479 -0.082686 -0.039778 68 1 84
-0.193725 0.073996 -0.204905 54 90 140
0.629602 -0.144907 0.258526 68 1 84
-0.160824 0.525568 -0.067807 70 48 125
-0.584022 -0.033484 0.173845 71 18 101
-0.475955 -0.089488 -0.087192 71 17 99
-0.640017 -0.419229 0.379584 68 1 84
0.557604 0.179800 0.368855 71 37 117
-0.380063 -0.193473 -0.132457 69 6 90
0.639807 -0.220836 0.417508 68 1 84
0.159502 0.580423 -0.084474 68 1 84
0.635665 -0.152735 0.423110 68 1 84
-0.208531 0.511632 -0.018138 68 1 84
0.649833 -0.254799 0.320149 68 1 84
0.516589 -0.000387 -0.041046 68 2 85
-0.435427 -0.005360 -0.123895 69 53 128
0.160827 -0.138856 -0.238743 57 84 139
0.273000 -0.413528 -0.273239 68 1 84
-0.518300 0.201783 0.104890 71 17 99
0.254514 0.310273 -0.123992 69 53 128
-0.078236 0.001592 -0.338341 71 192 110
0.509621 0.294236 0.291690 68 1 84
0.119615 -0.345234 -0.254040 70 47 124
-0.105500 -0.332205 -0.230494 69 52 127
0.610688 -0.054409 0.290280 68 1 84
-0.214696 0.273761 -0.122689 65 66 134
0.453473 0.373613 0.120853 68 1 84
0.568699 0.079418 0.173734 68 1 84
-0.452376 -0.190325 -0.086974 68 1 84
-0.498836 0.284798 0.153063 72 29 111
-0.005671 0.040791 -0.369185 73 193 109
-0.632279 -0.447067 0.326545 68 1 84
-0.434533 0.117204 -0.089675 61 75 137
-0.094944 -0.286178 -0.197548 68 1 84
-0.571326 -0.053293 0.089410 70 12 95
-0.071327 0.073955 -0.277263 36 133 141
0.494234 -0.021590 -0.076610 72 26 108
0.704401 -0.413768 0.458057 68 1 84
0.125511 0.342223 -0.207885 51 96 141
-0.322626 -0.359544 -0.203866 68 1 84
0.054252 0.348192 -0.220123 56 86 139
0.656680 -0.343902 0.346242 68 1 84
-0.373391 0.078091 -0.162948 69 54 129
-0.383002 0.387575 0.040918 68 1 84
0.203067 0.006862 -0.204940 59 80 138
-0.109978 0.060141 -0.238805 46 107 142
0.615033 -0.046125 0.375972 68 1 84
0.438893 0.382163 0.298434 68 1 84
-0.553646 -0.077919 0.030527 70 9 92
-0.520976 -0.277108 -0.004850 68 1 84
0.217155 0.557111 -0.022529 68 1 84
0.150237 0.013301 -0.245419 38 128 142
-0.039225 0.136240 -0.281110 34 167 132
0.123704 0.140245 -0.255528 31 148 139
0.656679 -0.324402 0.365646 68 1 84
0.427894 -0.009113 -0.142456 71 44 123
0.145018 0.114039 -0.238659 38 128 142
-0.566273 0.100137 0.207007 70 45 124
-0.090298 0.570779 -0.092857 64 67 135
0.598779 -0.001080 0.272934 68 1 84
-0.269377 0.291394 -0.111140 53 93 140
0.132959 0.416389 -0.193468 55 88 140
0.121732 -0.264914 -0.191503 72 28 110
-0.492351 0.257532 0.090874 71 43 122
0.565122 0.120550 0.182994 68 1 84
-0.484680 0.312566 0.309026 68 1 84
0.654365 -0.294943 0.423300 68 1 84
-0.322191 -0.151729 -0.164190 70 12 95
0.528211 0.189990 0.488522 68 1 84
0.449377 0.298200 0.021684 68 1 84
-0.092898 0.466898 -0.170455 47 106 141
0.110744 0.575191 -0.150323 72 34 115
0.571914 0.106516 0.421966 72 34 115
0.457355 0.207451 -0.018136 68 1 84
0.287150 0.522177 0.055401 68 1 84
0.713869 -0.546759 0.437542 68 1 84
-0.122790 0.273390 -0.188578 42 117 142
0.569721 -0.434073 0.034047 68 1 84
-0.476474 -0.066845 -0.084402 71 44 123
0.304968 -0.276950 -0.183604 69 8 91
0.540250 0.005024 0.002367 68 1 84
-0.609519 -0.099194 0.215311 68 1 84
0.010589 -0.339666 -0.309122 70 49 126
0.560979 0.183537 0.315227 72 33 114
-0.532990 -0.033122 0.003868 72 30 112
0.050597 0.314329 -0.250193 47 105 141
-0.510685 0.229295 0.437612 68 1 84
0.606932 -0.064819 0.473488 68 1 84
-0.618055 -0.054576 0.409488 68 1 84
-0.245747 0.005898 -0.225045 36 133 141
0.484447 0.319545 0.111745 68 1 84
0.517526 0.279559 0.176062 68 1 84
-0.345160 -0.041616 -0.192148 66 62 133
-0.072366 -0.116127 -0.351944 62 188 115
0.053975 0.595022 -0.129197 68 1 84
0.086339 -0.417609 -0.322305 44 113 142
-0.073464 -0.387351 -0.308546 65 66 134
0.533603 0.072659 0.027969 68 1 84
0.323332 -0.113927 -0.184770 69 53 128
0.176786 -0.057528 -0.232808 51 96 141
0.310470 -0.218856 -0.182513 69 52 127
0.476094 0.353764 0.216895 68 1 84
-0.507444 -0.208331 -0.028202 68 1 84
0.538939 0.215575 0.154350 68 1 84
0.076794 0.037491 -0.322725 30 159 136
0.032025 -0.170894 -0.363282 112 206 86
-0.007968 -0.290639 -0.305598 71 20 102
-0.574413 0.101258 0.339837 71 21 103
0.608564 -0.071875 0.227349 68 1 84
-0.649573 -0.491032 0.338956 68 1 84
0.453599 0.355954 0.344770 68 1 84
-0.636759 -0.408561 0.361028 68 1 84
0.501311 -0.032471 -0.068397 71 18 101
0.559608 -0.009412 0.042882 68 1 84
-0.205113 -0.077999 -0.231405 44 113 142
-0.127264 -0.215442 -0.196938 68 1 84
0.681817 -0.493461 0.356260 68 1 84
0.282653 0.504135 -0.019776 68 1 84
-0.494509 0.302170 0.192008 71 42 121
0.691054 -0.451723 0.408543 68 1 84
0.610072 -0.340937 0.147014 68 1 84
-0.539320 0.095687 0.092593 70 47 124
-0.594580 -0.415136 0.133844 68 1 84
-0.484941 0.155220 0.002978 70 48 125
-0.434081 0.178829 -0.052294 57 84 139
-0.514003 0.208620 0.459682 68 1 84
-0.546326 0.194751 0.242758 68 1 84
0.715807 -0.516840 0.455153 68 1 84
-0.383761 -0.448429 -0.233155 71 18 101
0.440317 -0.037910 -0.132249 72 33 114
-0.370158 -0.316893 -0.145749 68 1 84
-0.630062 -0.195410 0.266269 68 1 84
0.277240 -0.109447 -0.204297 70 45 124
0.141569 -0.422128 -0.315804 56 87 140
-0.320934 -0.251570 -0.177422 69 5 88
-0.137919 0.293660 -0.172887 35 136 141
-0.573853 -0.002111 0.160698 72 25 107
0.056262 0.463540 -0.215907 40 122 142
-0.619723 -0.445102 0.227414 68 1 84
-0.353304 -0.240306 -0.153669 69 6 90
-0.587548 0.025428 0.243804 71 40 120
-0.397543 0.418459 0.236738 68 1 84
0.544417 0.208512 0.378308 71 18 101
0.655994 -0.311444 0.375555 68 1 84
-0.610592 -0.342762 0.186681 68 1 84
-0.543885 -0.359339 0.005805 68 1 84
-0.286466 -0.144663 -0.177535 72 35 116
-0.628986 -0.210880 0.379630 68 1 84
0.351471 -0.181823 -0.151477 72 30 112
0.237609 0.183951 -0.130854 68 55 129
0.455709 0.221967 -0.013200 68 1 84
0.426881 0.399707 0.282051 68 1 84
0.046948 0.176770 -0.281099 30 159 136
0.610251 -0.268280 0.129545 68 1 84
-0.494276 -0.450204 -0.109833 68 1 84
-0.647916 -0.490163 0.379375 68 1 84
-0.347832 0.392558 0.000188 70 11 94
0.651587 -0.229004 0.347561 68 1 84
-0.585973 -0.146393 0.089433 68 1 84
0.101409 -0.282777 -0.216648 67 59 131
0.495789 0.316296 0.284870 68 1 84
0.545646 -0.001607 0.011197 68 1 84
-0.104072 0.080413 -0.243705 40 123 142
-0.365642 -0.234805 -0.142689 70 12 95
-0.169383 0.363997 -0.137538 46 108 142
0.248100 -0.384366 -0.252495 68 1 84
0.663806 -0.456290 0.350434 68 1 84
0.398886 -0.161612 -0.131826 68 1 84
-0.485436 -0.405420 -0.129531 68 1 84
-0.068760 -0.380040 -0.305840 64 68 135
-0.165792 0.531299 -0.048621 68 1 84
0.292847 0.515682 0.037684 68 1 84
0.331662 0.277848 -0.084686 68 1 84
-0.137584 0.004656 -0.242125 40 122 142
0.579789 -0.466044 0.062385 68 1 84
-0.097117 0.137198 -0.253120 32 144 140
0.221526 0.428858 -0.145819 72 32 113
-0.457562 0.354912 0.257134 68 1 84
-0.069818 0.345345 -0.201968 53 93 140
0.128198 0.290194 -0.233978 47 106 141
-0.327016 0.045070 -0.197790 58 82 139
-0.163999 0.385541 -0.136391 48 104 141
-0.551456 -0.025355 0.046343 72 34 115
-0.537889 -0.335508 0.002851 68 1 84
0.177794 0.150746 -0.218624 45 111 142
0.646401 -0.375125 0.307123 68 1 84
0.305334 0.337969 -0.079434 71 21 103
-0.382036 -0.433066 -0.234367 68 1 84
0.515954 -0.179820 -0.036607 68 1 84
-0.215291 0.347000 -0.112994 52 95 141
-0.273993 0.369478 -0.073710 68 1 84
-0.614481 -0.462482 0.212355 68 1 84
0.587980 -0.349253 0.074811 68 1 84
0.101293 -0.047451 -0.411846 62 188 115
0.575470 0.126670 0.362284 69 52 127
0.545066 -0.163815 -0.004944 68 1 84
-0.644753 -0.311756 0.464315 68 1 84
0.650943 -0.258250 0.327012 68 1 84
0.473515 0.338319 0.320089 68 1 84
-0.562820 0.143469 0.306706 72 28 110
-0.065815 0.537631 -0.164380 50 99 141
0.002858 -0.081520 -0.438354 253 231 36
0.373937 -0.122282 -0.159635 69 54 129
0.001511 -0.250936 -0.322669 72 35 116
0.559734 0.145743 0.423286 71 20 102
-0.584610 0.006233 0.477852 68 1 84
0.570440 0.136840 0.234331 71 17 99
-0.502909 0.287150 0.293777 68 1 84
-0.351838 -0.205772 -0.148137 68 3 87
-0.450198 0.171783 -0.037871 58 83 139
-0.112531 0.008812 -0.331188 36 170 130
0.409989 -0.477375 -0.221218 71 43 122
-0.139506 0.366688 -0.156031 50 99 141
0.571704 0.098476 0.433946 71 18 101
-0.446740 0.289988 0.032872 69 50 127
-0.624979 -0.180667 0.314863 68 1 84
0.083358 -0.181874 -0.302105 44 177 125
-0.134264 0.029131 -0.227237 42 117 142
0.559009 0.030412 0.077371 68 1 84
0.151888 -0.219417 -0.194540 68 1 84
0.315222 -0.116889 -0.187058 66 61 132
-0.232593 0.497632 -0.005532 68 1 84
-0.491203 0.113477 -0.009123 71 43 122
0.089624 0.003999 -0.383544 33 166 133
-0.536652 0.221542 0.289624 70 11 94
-0.614998 -0.073892 0.454282 68 1 84
-0.063852 -0.280667 -0.244410 71 18 101
0.241596 -0.193629 -0.179922 62 73 137
0.203769 0.409333 -0.160676 68 57 130
0.311247 -0.139546 -0.175263 72 32 113
0.525590 -0.453376 -0.061628 68 1 84
0.005614 -0.216675 -0.341612 50 98 141
0.092047 0.579201 -0.149664 70 9 92
-0.320372 -0.096186 -0.188832 72 29 111
0.227760 0.063429 -0.186000 64 68 135
-0.331821 0.462420 0.100692 68 1 84
0.336436 0.490592 0.145444 68 1 84
-0.068169 -0.133070 -0.337364 42 176 126
-0.415570 0.081002 -0.126669 58 83 139
-0.551355 0.159807 0.190098 71 20 102
-0.683888 -0.531051 0.370212 68 1 84
-0.531200 0.195722 0.142366 71 24 106
0.416460 0.068810 -0.132244 70 12 95
-0.033333 0.165737 -0.279557 35 169 130
0.535152 -0.322511 -0.013457 68 1 84
-0.132944 -0.217069 -0.193139 68 1 84
0.217063 -0.110157 -0.221721 63 71 136
-0.169878 -0.129684 -0.226245 67 60 132
0.601522 -0.196425 0.095700 68 1 84
0.363644 0.463063 0.088761 68 1 84
-0.226922 -0.159522 -0.188634 68 1 84
0.416953 0.367926 0.036937 68 1 84
-0.044538 -0.282676 -0.280063 71 20 102
-0.528161 0.228903 0.337532 69 8 91
0.183507 0.568727 -0.078190 68 1 84
0.490106 0.315316 0.331778 68 1 84
-0.470150 0.177960 -0.007276 69 50 127
-0.628515 -0.205022 0.413418 68 1 84
0.361053 0.244306 -0.090469 68 1 84
0.579729 -0.390936 0.055948 68 1 84
0.378729 0.034430 -0.168323 69 53 128
0.300724 -0.009394 -0.206788 58 82 139
0.601158 -0.188825 0.095398 68 1 84
-0.254187 -0.296243 -0.186993 68 1 84
0.381764 -0.095848 -0.165258 67 59 131
-0.245192 -0.378127 -0.253224 68 1 84
0.551983 -0.313258 0.013523 68 1 84
-0.595637 -0.430787 0.137380 68 1 84
0.659838 -0.413677 0.343729 68 1 84
0.230375 0.409315 -0.139279 72 25 107
0.404741 0.409927 0.071798 68 1 84
0.590242 0.056699 0.365950 69 6 90
-0.120424 0.270239 -0.191021 44 113 142
0.610835 -0.035134 0.331257 68 1 84
-0.068492 -0.276808 -0.232685 70 11 94
-0.548700 0.192080 0.278675 68 2 85
-0.230646 -0.418868 -0.284495 48 103 141
-0.424817 0.075043 -0.118912 61 74 137
-0.539520 -0.189395 0.006068 68 1 84
0.426064 0.114969 -0.102370 68 1 84
0.500294 -0.072257 -0.071974 71 38 118
0.469594 -0.062750 -0.105096 72 35 116
0.035845 0.464331 -0.216925 42 119 142
-0.369028 -0.395418 -0.228896 68 1 84
-0.419480 -0.093412 -0.138179 71 37 117
0.290049 0.149091 -0.142751 69 6 90
0.127916 0.553135 -0.168321 71 42 121
-0.500757 -0.305689 -0.034531 68 1 84
0.609333 -0.298636 0.134383 68 1 84
-0.635381 -0.246144 0.401689 68 1 84
-0.076817 0.246247 -0.225886 42 117 142
-0.056262 0.117695 -0.276909 33 167 132
-0.376932 -0.309288 -0.130106 68 1 84
0.603031 -0.238167 0.102385 68 1 84
0.586054 -0.046238 0.116334 68 1 84
-0.589863 -0.351496 0.111742 68 1 84
0.594792 -0.029011 0.207544 68 1 84
0.507470 0.264069 0.432660 68 1 84
0.051497 0.078858 -0.322145 35 137 141
0.609907 -0.060013 0.266462 68 1 84
-0.267117 -0.109116 -0.204098 58 82 139
0.508768 -0.014024 -0.055436 71 18 101
-0.044572 0.004480 -0.396746 181 221 43
0.592429 -0.447761 0.095135 68 1 84
-0.235291 0.226867 -0.132798 71 44 123
0.375318 0.013902 -0.174965 69 50 127
-0.367394 -0.102382 -0.166660 71 40 120
0.022119 0.508902 -0.207708 48 104 141
0.063401 0.427103 -0.209132 44 113 142
0.499187 -0.053157 -0.072306 72 26 108
-0.536918 0.182530 0.411275 68 1 84
0.196590 0.106702 -0.202136 49 102 141
0.055302 -0.325718 -0.295941 65 66 134
-0.156420 -0.255560 -0.176718 68 1 84
0.398656 0.292386 -0.045514 68 1 84
-0.448696 -0.301330 -0.078124 68 1 84
0.283101 0.350925 -0.095406 72 25 107
-0.426493 -0.452967 -0.199653 68 1 84
-0.126314 -0.078562 -0.277857 30 153 138
0.080619 0.517187 -0.202281 44 113 142
0.258181 0.289281 -0.122204 70 45 124
0.352435 -0.439876 -0.258242 71 17 99
0.264481 0.537378 0.069141 68 1 84
0.514855 0.163937 0.041733 68 1 84
0.367905 -0.231019 -0.155345 70 12 95
0.189792 0.474903 -0.166666 71 40 120
-0.419997 0.394020 0.270946 68 1 84
-0.155309 0.443196 -0.129125 44 114 142
-0.571728 -0.435978 0.063878 68 1 84
0.472848 0.331573 0.356657 68 1 84
-0.232920 -0.200044 -0.182418 68 1 84
-0.542722 0.092941 0.101746 71 40 120
0.662553 -0.432234 0.354589 68 1 84
-0.267473 0.460444 -0.011685 68 1 84
-0.315698 -0.035830 -0.207089 60 77 138
0.381938 -0.381683 -0.215747 68 1 84
0.123441 0.449754 -0.201145 43 116 142
-0.480740 0.325117 0.205518 71 15 98
-0.264198 0.060523 -0.210137 47 105 141
-0.190183 -0.340698 -0.194995 70 49 126
0.657876 -0.315028 0.387876 68 1 84
0.302390 -0.381988 -0.243681 68 1 84
-0.137703 0.103997 -0.226340 39 125 142
0.553118 -0.434536 -0.005310 68 1 84
-0.133393 0.188165 -0.222927 46 109 142
-0.073800 0.563007 -0.134782 55 89 140
0.622336 -0.172848 0.527274 68 2 85
-0.617831 -0.130360 0.224121 68 1 84
-0.613972 -0.439232 0.205370 68 1 84
-0.606428 -0.373241 0.179264 68 1 84
0.400908 0.188413 -0.088189 68 1 84
0.578926 0.122028 0.325652 71 39 119
0.312789 0.507035 0.122004 68 1 84
-0.633941 -0.450279 0.301408 68 1 84
-0.246812 0.075645 -0.203698 54 90 140
0.144742 0.207196 -0.209614 37 130 142
-0.051125 0.019431 -0.305355 38 172 129
0.626818 -0.165456 0.472615 70 14 97
0.629014 -0.124427 0.428776 68 1 84
-0.643800 -0.301664 0.423368 68 1 84
0.569015 0.122954 0.411571 71 40 120
-0.530199 -0.170740 -0.010560 68 1 84
-0.605257 -0.507467 0.177915 68 1 84
0.593115 -0.463694 0.097931 68 1 84
-0.530168 0.161618 0.463230 68 1 84
0.129368 0.036272 -0.254135 36 132 141
0.558461 0.175738 0.210854 71 20 102
0.539015 0.162386 0.488244 68 1 84
0.637257 -0.237950 0.457513 68 1 84
0.236952 -0.089924 -0.220504 66 62 133
-0.453761 0.353917 0.146515 70 49 126
0.223295 0.206108 -0.129104 67 60 132
0.414071 0.425765 0.201239 68 1 84
0.013529 -0.298225 -0.308752 72 32 113
-0.530900 0.217894 0.354290 70 11 94
-0.568095 0.110195 0.379162 71 20 102
-0.438406 -0.182173 -0.099929 72 26 108
0.228459 0.036375 -0.193950 59 80 138
-0.170473 0.172335 -0.206962 39 125 142
0.251224 0.143530 -0.160358 72 35 116
0.577545 0.122384 0.287289 70 49 126
0.222640 -0.305115 -0.179228 68 2 85
-0.621913 -0.139650 0.437880 68 1 84
-0.146048 0.360969 -0.153086 40 122 142
0.438824 0.384088 0.290614 68 1 84
0.283571 -0.281895 -0.184319 70 14 97
-0.286074 0.488268 0.073678 68 1 84
0.464967 0.172047 -0.026660 68 1 84
-0.523608 0.161514 0.086639 71 15 98
0.138007 -0.402951 -0.312230 59 80 138
-0.540121 -0.384068 -0.008048 68 1 84
-0.631198 -0.533511 0.270369 68 1 84
0.592149 0.055275 0.331222 69 8 91
-0.628762 -0.440344 0.269073 68 1 84
-0.008124 -0.025457 -0.457358 191 223 36
-0.106825 0.565761 -0.063622 71 24 106
-0.607473 -0.263026 0.153093 68 1 84
0.573876 -0.496211 0.043096 68 1 84
-0.347659 -0.180215 -0.150236 69 6 90
0.101779 0.094532 -0.271018 43 115 142
0.125537 -0.221133 -0.213647 71 24 106
-0.229166 0.427985 -0.075135 70 47 124
-0.613803 -0.285745 0.181343 68 1 84
0.490400 0.242469 0.046492 68 1 84
0.126291 -0.223200 -0.211296 72 26 108
0.468087 -0.477668 -0.157140 68 1 84
0.070808 0.249156 -0.259189 32 144 140
-0.558457 0.018612 0.105268 72 28 110
-0.574898 0.099969 0.324900 71 24 106
0.036840 -0.039315 -0.459146 114 207 85
-0.542604 -0.371541 0.000082 68 1 84
0.254272 0.248208 -0.120939 65 66 134
0.300958 0.512590 0.063785 68 1 84
0.166975 0.331171 -0.189068 65 66 134
-0.532476 0.122263 0.086485 72 29 111
-0.044100 -0.375292 -0.309708 60 78 138
-0.201628 -0.026609 -0.230671 45 111 142
-0.571611 -0.318806 0.067222 68 1 84
0.407194 -0.260131 -0.113195 68 1 84
-0.054148 -0.227217 -0.281712 67 60 132
-0.619710 -0.302117 0.220702 68 1 84
-0.537777 -0.166240 -0.000569 68 1 84
-0.019447 -0.343455 -0.305290 71 38 118
0.119122 -0.225497 -0.216257 71 22 105
-0.129238 -0.058773 -0.295163 38 172 129
0.597502 -0.062968 0.527504 71 17 99
-0.402017 0.066005 -0.144232 56 87 140
0.614985 -0.240712 0.141024 68 1 84
-0.404311 0.163196 -0.095350 56 86 139
-0.035608 0.165003 -0.279238 32 164 133
0.060695 0.596110 -0.122917 68 1 84
0.198966 0.565157 -0.044414 68 1 84
0.189704 0.149674 -0.210104 48 103 141
-0.621537 -0.092329 0.345028 68 1 84
-0.137898 0.416871 -0.147205 51 97 141
0.298513 0.409306 -0.071897 68 1 84
-0.483306 -0.393162 -0.130587 68 1 84
0.450990 -0.229202 -0.072511 68 1 84
0.645214 -0.173255 0.317548 68 1 84
0.675330 -0.404038 0.368148 68 1 84
0.099494 -0.096364 -0.369397 40 174 127
0.607111 -0.081471 0.490307 68 1 84
-0.534254 0.062222 0.054172 72 34 115
-0.356880 0.451097 0.164593 68 1 84
0.578702 0.114482 0.366124 68 55 129
-0.282086 0.494305 0.087918 68 1 84
-0.397396 0.392627 0.072746 68 1 84
-0.309975 0.393557 -0.035319 68 1 84
0.153490 0.560936 -0.143722 68 1 84
0.195072 -0.307078 -0.171337 69 8 91
0.557599 -0.442221 0.005059 68 1 84
-0.577091 -0.078577 0.089900 70 9 92
-0.450025 0.320918 0.068750 71 39 119
0.334871 -0.023357 -0.197065 64 68 135
-0.588014 -0.054397 0.164109 69 5 88
0.605331 -0.328589 0.123496 68 1 84
0.640756 -0.302957 0.282077 68 1 84
-0.581706 -0.068563 0.115045 70 9 92
-0.594023 -0.005100 0.449895 68 1 84
-0.366026 -0.047134 -0.178541 70 47 124
0.512399 0.294736 0.201681 68 1 84
0.292343 0.283042 -0.097608 70 45 124
-0.330038 0.059590 -0.193206 50 98 141
0.569226 0.150332 0.254831 71 17 99
-0.175042 -0.192221 -0.190001 68 1 84
-0.406553 -0.452603 -0.217726 68 1 84
0.063231 -0.177640 -0.333921 33 166 133
-0.504153 -0.103557 -0.054347 68 1 84
-0.579818 -0.343452 0.084487 68 1 84
0.278891 0.311518 -0.103585 71 44 123
-0.063385 0.401666 -0.187882 43 116 142
0.251145 0.029834 -0.199329 59 81 138
-0.099732 0.028259 -0.292650 33 140 141
0.027664 0.213563 -0.261743 34 167 132
-0.107806 0.014413 -0.321030 30 160 135
-0.617543 -0.067979 0.305231 68 1 84
-0.562748 -0.195049 0.040300 68 1 84
-0.272607 0.474432 0.016155 68 1 84
0.055624 -0.348174 -0.302185 53 92 140
-0.651821 -0.314420 0.408095 68 1 84
-0.048117 -0.340676 -0.291941 71 43 122
-0.453404 0.107674 -0.068815 60 78 138
-0.350188 0.121808 -0.159752 53 93 140
-0.517987 -0.366889 -0.048479 68 1 84
0.489138 0.312974 0.349059 68 1 84
-0.207224 0.448197 -0.083778 63 71 136
0.527209 0.201608 0.092704 68 1 84
0.538828 -0.323061 -0.008916 68 1 84
-0.181599 -0.404499 -0.286878 62 72 136
-0.556598 0.115744 0.424871 68 1 84
-0.472836 0.335656 0.255552 68 1 84
0.646554 -0.238232 0.394973 68 1 84
-0.377832 0.347094 -0.008973 60 78 138
0.208278 -0.365908 -0.228248 68 1 84
0.091418 -0.089031 -0.393569 83 197 103
0.569246 0.139135 0.228963 71 18 101
0.441668 -0.244380 -0.077382 68 1 84
0.220056 -0.424797 -0.294665 67 60 132
-0.599254 -0.012178 0.266118 69 5 88
-0.223541 0.207982 -0.149842 70 47 124
-0.099358 -0.218360 -0.216192 71 17 99
0.569142 0.138442 0.226848 69 6 90
0.091841 -0.406180 -0.319410 46 109 142
0.312736 -0.320407 -0.182865 68 1 84
-0.185953 0.415930 -0.113220 48 103 141
0.370821 -0.477463 -0.250704 68 55 129
-0.411350 0.402596 0.269450 68 1 84
-0.262457 0.504097 0.072388 68 1 84
0.626283 -0.264664 0.201224 68 1 84
-0.107686 -0.397764 -0.305593 65 66 134
-0.143627 0.544180 -0.056389 71 43 122
0.061661 0.019630 -0.406919 71 192 110
-0.504736 0.265931 0.137874 70 48 125
-0.420180 -0.410114 -0.202831 68 1 84
-0.363887 -0.008968 -0.183317 65 66 134
-0.443091 0.001197 -0.114861 66 64 133
0.276592 0.529427 0.063021 68 1 84
0.541929 -0.101398 -0.017512 68 1 84
-0.120255 -0.342167 -0.232355 70 47 124
-0.425371 0.315966 0.024223 66 64 133
-0.384023 -0.104550 -0.157715 69 50 127
0.361109 0.145162 -0.126928 68 1 84
0.600308 -0.245907 0.096719 68 1 84
0.138345 0.524317 -0.182780 56 87 140
-0.465694 0.043519 -0.076730 66 62 133
-0.040101 0.190820 -0.267617 30 151 138
-0.128945 -0.054415 -0.303622 33 167 132
0.594730 -0.075019 0.124145 68 1 84
-0.624894 -0.375775 0.303132 68 1 84
0.604940 -0.279822 0.115424 68 1 84
0.575246 0.123453 0.254204 68 1 84
-0.552810 0.178773 0.265019 70 11 94
-0.615508 -0.043611 0.367555 68 1 84
-0.628386 -0.165629 0.274036 68 1 84
0.022247 0.327485 -0.240798 49 102 141
-0.234707 0.251206 -0.121647 71 38 118
0.129813 0.448315 -0.198995 44 114 142
-0.555841 0.151477 0.376874 70 11 94
-0.570931 0.078121 0.411475 68 1 84
0.528760 -0.426305 -0.057179 68 1 84
0.101687 0.313323 -0.235889 49 100 141
-0.542249 -0.374199 -0.001369 68 1 84
0.217364 -0.315583 -0.181882 68 1 84
0.092811 -0.191959 -0.278499 31 149 139
0.582880 0.076067 0.402202 72 29 111
0.564151 -0.167047 0.023394 68 1 84
-0.560560 0.137885 0.225025 72 25 107
0.612243 -0.108646 0.188456 68 1 84
0.011001 0.271600 -0.264666 39 125 142
0.260055 0.282862 -0.121072 70 48 125
0.590528 0.009811 0.232943 68 1 84
-0.048151 0.257245 -0.247562 39 126 142
-0.380749 0.031387 -0.169009 61 74 137
0.125595 0.039863 -0.257028 42 118 142
0.507411 -0.292809 -0.025788 68 1 84
-0.548668 0.012092 0.061155 70 47 124
0.641405 -0.133267 0.360085 68 1 84
0.162537 -0.347909 -0.220993 72 26 108
-0.615951 -0.094997 0.485712 68 1 84
-0.519569 0.220525 0.128191 71 21 103
-0.572083 0.092477 0.238715 72 29 111
0.459035 0.376535 0.171375 68 1 84
-0.247348 -0.343248 -0.194925 68 1 84
0.323051 0.189295 -0.115550 71 21 103
-0.113365 0.214107 -0.199459 49 100 141
0.539856 -0.371285 -0.028545 68 1 84
-0.539530 -0.422951 -0.013751 68 1 84
-0.105706 0.546876 -0.117441 50 98 141
0.495302 -0.359677 -0.103389 68 1 84
-0.452909 -0.241329 -0.064331 68 1 84
0.539964 0.161871 0.101085 68 1 84
0.557687 0.183084 0.359255 71 37 117
0.597927 -0.019781 0.240617 68 1 84
0.185383 -0.362538 -0.232025 68 2 85
-0.074638 0.024309 -0.297098 30 159 136
0.536901 0.247293 0.268129 68 1 84
0.577550 -0.074938 0.057880 68 1 84
-0.630959 -0.225745 0.424359 68 1 84
-0.572867 0.051034 0.197279 69 50 127
0.203369 0.353935 -0.161118 64 67 135
-0.327267 0.472639 0.182411 68 1 84
0.618611 -0.296167 0.174483 68 1 84
0.440837 0.390053 0.259042 68 1 84
0.470064 -0.123720 -0.099366 71 42 121
-0.571652 -0.378641 0.063198 68 1 84
-0.063749 0.574949 -0.125234 59 81 138
-0.033897 -0.154515 -0.361313 30 160 135
-0.572678 0.107025 0.342724 71 17 99
0.471220 -0.383449 -0.150883 68 1 84
0.615055 -0.113280 0.200227 68 1 84
-0.287260 -0.220091 -0.182745 70 12 95
-0.167485 -0.180540 -0.198161 68 1 84
0.113220 0.483993 -0.204442 44 114 142
-0.649242 -0.409376 0.438110 68 1 84
0.616282 -0.072440 0.440297 68 1 84
-0.133328 -0.357768 -0.252381 63 69 135
0.431857 -0.049577 -0.138756 68 55 129
-0.045644 0.423698 -0.194146 50 98 141
0.631053 -0.479390 0.227039 68 1 84
-0.051240 0.567361 -0.148667 53 92 140
0.601046 -0.127678 0.108194 68 1 84
-0.240814 -0.181114 -0.180524 68 1 84
-0.360004 0.021186 -0.184133 69 53 128
0.563080 0.095973 0.471392 69 5 88
-0.517526 0.250701 0.170734 70 14 97
-0.649716 -0.385935 0.404067 68 1 84
-0.410013 0.185838 -0.073900 56 86 139
-0.331989 -0.416732 -0.253814 68 3 87
-0.620620 -0.365450 0.256695 68 1 84
0.340660 -0.133170 -0.167421 72 32 113
-0.491933 0.308690 0.227508 68 1 84
0.648851 -0.294673 0.322253 68 1 84
0.300882 0.514866 0.107137 68 1 84
0.000552 -0.347561 -0.309940 70 48 125
0.231019 0.052038 -0.189115 62 72 136
0.549417 0.105511 0.506432 68 1 84
0.171051 0.298014 -0.195572 50 99 141
-0.091672 -0.041775 -0.389159 141 214 68
-0.353955 0.391488 0.006671 72 34 115
-0.132458 0.102119 -0.228880 40 123 142
0.522698 0.276943 0.234879 68 1 84
0.375089 0.455502 0.102471 68 1 84
0.226411 -0.382639 -0.253700 68 1 84
-0.534076 0.195096 0.154490 72 32 113
0.102342 -0.096987 -0.363011 42 176 126
-0.392487 -0.360843 -0.184946 68 1 84
0.236948 -0.375935 -0.240345 68 1 84
-0.642358 -0.295294 0.428223 68 1 84
0.018094 -0.067416 -0.450261 170 219 50
0.101349 0.222174 -0.241146 35 135 141
-0.527256 -0.039948 -0.008938 72 26 108
-0.508266 -0.380807 -0.077263 68 1 84
0.262666 -0.355462 -0.200158 68 1 84
-0.412586 0.406237 0.196119 68 1 84
0.571809 0.147202 0.303695 71 21 103
0.578549 0.040265 0.468210 68 1 84
0.585775 -0.113425 0.066410 68 1 84
-0.126558 0.434537 -0.151815 34 138 141
-0.590325 -0.103653 0.118771 68 1 84
-0.443845 0.226131 -0.013870 66 62 133
0.480739 0.338713 0.137486 68 1 84
-0.563215 -0.019238 0.088822 72 30 112
-0.621630 -0.115304 0.362467 68 1 84
-0.639186 -0.290763 0.320190 68 1 84
0.364337 0.420761 0.015535 68 1 84
-0.561338 0.029766 0.128185 70 45 124
0.078658 -0.374038 -0.305664 58 83 139
0.483374 0.337183 0.263845 68 1 84
0.150404 -0.289088 -0.167333 72 26 108
0.402572 0.436596 0.196335 68 1 84
0.123901 -0.085392 -0.325024 32 144 140
0.603182 -0.115771 0.125214 68 1 84
-0.037000 0.136713 -0.281849 31 161 135
0.316208 -0.283429 -0.180624 69 6 90
0.429646 0.371061 0.062994 68 1 84
0.550295 0.058413 0.069963 68 1 84
0.069649 0.508624 -0.206903 44 114 142
0.463583 -0.344081 -0.124392 68 1 84
0.359482 -0.021906 -0.186405 67 58 131
-0.252364 0.515511 0.113465 68 1 84
-0.467001 0.246884 0.031330 68 55 129
-0.452033 0.360908 0.172025 70 9 92
-0.009349 0.543245 -0.186599 60 78 138
-0.461832 0.053387 -0.078886 59 81 138
-0.388795 -0.159710 -0.137063 72 29 111
-0.500484 0.144340 0.024396 71 38 118
0.194232 0.509024 -0.150969 71 20 102
-0.422825 0.100637 -0.111923 55 88 140
0.473414 0.007183 -0.098095 70 9 92
0.425639 -0.330308 -0.135482 68 1 84
-0.615343 -0.175411 0.356052 68 1 84
-0.225815 0.060181 -0.208768 49 102 141
-0.346081 -0.021484 -0.193807 61 74 137
0.453859 0.347543 0.386154 68 1 84
-0.359585 0.375179 -0.004176 71 43 122
0.597552 -0.389412 0.100442 68 1 84
0.310288 0.103233 -0.161786 72 33 114
0.360784 0.472473 0.165760 68 1 84
-0.371915 -0.150304 -0.147930 72 25 107
-0.631820 -0.415741 0.346341 68 1 84
-0.609670 -0.365941 0.190823 68 1 84
-0.642161 -0.345455 0.357900 68 1 84
-0.630554 -0.404337 0.335712 68 1 84
0.116922 0.475784 -0.203919 44 114 142
0.032659 0.043825 -0.394770 47 179 123
0.643747 -0.395733 0.298962 68 1 84
0.256970 0.385785 -0.117462 71 18 101
-0.574105 -0.289609 0.071842 68 1 84
0.430605 -0.380758 -0.185720 68 1 84
0.630969 -0.177181 0.461072 70 12 95
0.613231 -0.143670 0.152995 68 1 84
0.334208 0.292398 -0.078598 68 2 85
-0.629343 -0.220404 0.470331 68 1 84
-0.048502 -0.235082 -0.288811 69 54 129
-0.104276 -0.040593 -0.368688 62 188 115
-0.114558 0.028231 -0.282404 42 117 142
0.209757 -0.238593 -0.183317 71 40 120
-0.002096 0.489981 -0.209060 41 120 142
0.294316 0.517265 0.053522 68 1 84
0.630615 -0.144745 0.264864 68 1 84
-0.384314 0.359287 0.009910 69 53 128
-0.551014 0.184396 0.264410 68 1 84
0.575516 0.081136 0.205454 70 12 95
0.134626 0.058418 -0.235297 49 100 141
-0.203101 0.341537 -0.121254 51 96 141
-0.582454 -0.445797 0.094618 68 1 84
0.560845 -0.272834 0.031649 68 1 84
-0.553005 -0.165119 0.021867 68 1 84
0.293056 0.114331 -0.159757 71 20 102
-0.026553 0.048391 -0.329053 62 188 115
0.008127 0.039670 -0.411160 112 206 86
0.013155 0.046027 -0.400987 69 191 111
0.633592 -0.166462 0.266565 68 1 84
0.553416 0.187914 0.376205 72 25 107
-0.628046 -0.280607 0.275583 68 1 84
0.633317 -0.550604 0.232523 68 1 84
-0.636210 -0.268380 0.448900 68 1 84
-0.467404 0.321081 0.375782 68 1 84
-0.576993 0.066538 0.399564 71 15 98
-0.422850 0.394037 0.170635 68 1 84
0.581460 0.026857 0.194142 68 1 84
0.042737 0.527056 -0.200015 46 108 142
0.625810 -0.284054 0.204228 68 1 84
-0.619692 -0.070500 0.349672 68 1 84
0.415501 0.415752 0.261850 68 1 84
-0.340629 0.405144 0.007087 68 1 84
0.505929 0.281095 0.117799 68 1 84
-0.558817 0.158574 0.294703 70 12 95
-0.428996 0.035362 -0.125017 61 74 137
0.131361 0.252017 -0.239288 40 122 142
0.117130 0.458558 -0.204063 42 119 142
0.453896 -0.356067 -0.146890 68 1 84
-0.560165 -0.058452 0.052010 71 15 98
0.600757 -0.030052 0.244604 68 1 84
0.231903 0.147419 -0.172366 68 57 130
0.572082 0.009337 0.118034 68 1 84
-0.280207 0.457300 -0.000544 68 1 84
0.540093 -0.146711 -0.015336 68 1 84
0.421770 0.010392 -0.145008 72 34 115
0.457960 0.378181 0.177706 68 1 84
-0.572688 0.105942 0.283278 71 18 101
-0.302082 0.445866 0.011495 68 1 84
0.256519 -0.306748 -0.182121 68 1 84
0.517612 -0.013437 -0.042746 71 18 101
0.278894 -0.068649 -0.214642 65 66 134
-0.535844 -0.340104 -0.002288 68 1 84
-0.301449 -0.352921 -0.197290 68 1 84
0.500102 -0.295083 -0.033563 68 1 84
-0.358667 0.178911 -0.125217 65 66 134
-0.605530 -0.023164 0.428265 68 1 84
0.024080 -0.075039 -0.444146 173 220 48
0.579700 0.118747 0.318391 71 37 117
0.126610 -0.085326 -0.318426 35 137 141
-0.318440 -0.207132 -0.166890 71 15 98
-0.555697 0.127548 0.413918 68 1 84
0.324521 0.344109 -0.064358 68 1 84
-0.569204 -0.150536 0.050010 68 1 84
-0.434182 -0.115605 -0.124860 71 39 119
-0.244924 -0.216301 -0.185961 70 11 94
0.334773 0.471772 0.036993 68 1 84
0.564163 0.067871 0.141275 69 5 88
0.123075 -0.122594 -0.287969 51 96 141
0.605307 -0.404038 0.134136 68 1 84
-0.485208 0.317175 0.196101 71 17 99
-0.095960 -0.316055 -0.217608 72 35 116
-0.021144 0.599256 -0.097077 68 1 84
-0.642431 -0.510336 0.300977 68 1 84
-0.157629 0.420693 -0.133304 44 114 142
-0.298917 0.453683 0.019278 68 1 84
-0.566206 0.066382 0.176471 67 60 132
0.574243 -0.037730 0.070662 68 1 84
0.368039 -0.020321 -0.182292 69 53 128
-0.621112 -0.101091 0.384591 68 1 84
-0.407679 0.401520 0.297838 68 1 84
0.395826 -0.325116 -0.149279 68 1 84
0.223261 -0.085336 -0.224601 64 68 135
0.497196 -0.432635 -0.118083 68 1 84
-0.543081 0.050322 0.072678 71 21 103
0.380112 -0.397679 -0.228259 68 1 84
-0.331651 -0.133670 -0.168301 70 12 95
-0.041140 -0.340709 -0.295541 70 45 124
-0.528944 -0.172688 -0.011832 68 1 84
-0.623018 -0.426058 0.241756 68 1 84
-0.614354 -0.398733 0.213603 68 1 84
-0.485038 -0.295791 -0.043961 68 1 84
0.356068 -0.168955 -0.149307 71 17 99
-0.476349 0.311525 0.369092 68 1 84
-0.153274 0.485913 -0.114420 46 108 142
-0.552948 0.006314 0.070864 70 45 124
-0.422886 0.396128 0.200142 68 1 84
-0.217938 -0.248914 -0.190504 68 2 85
-0.546079 0.092366 0.490628 68 1 84
-0.373338 0.096905 -0.156607 56 86 139
0.495653 -0.328772 -0.071854 68 1 84
0.584613 -0.021598 0.150703 68 1 84
-0.332221 0.466807 0.133329 68 1 84
0.473695 0.015609 -0.096085 69 5 88
0.112829 -0.363273 -0.281289 70 47 124
0.597466 -0.159429 0.087826 68 1 84
