ply
format ascii 1.0
element vertex 1280
property float x
property float y
property float z
property uchar red
property uchar green
property uchar blue
end_header
-0.031393 -0.541646 -0.325671 49 101 141
0.591561 0.124728 0.227411 68 1 84
-0.299582 0.376214 -0.108936 70 12 95
0.173206 -0.046237 -0.226243 57 84 139
0.135449 0.289009 -0.269829 48 103 141
-0.681990 -0.309416 0.525133 68 1 84
-0.330214 0.580148 0.137913 68 1 84
-0.447487 0.411929 0.069585 68 1 84
0.564799 0.276690 0.262111 68 1 84
-0.531060 -0.167034 -0.032124 68 1 84
-0.646239 -0.442615 0.169982 68 1 84
0.343320 0.531384 0.023018 68 1 84
-0.591882 0.068088 0.164714 68 1 84
0.602767 -0.422042 0.162094 68 1 84
0.171648 -0.012271 -0.286575 30 152 138
-0.571824 -0.382974 0.009573 68 1 84
0.532403 0.188326 0.085699 71 20 102
0.558964 -0.215827 0.047779 68 1 84
-0.316102 -0.483047 -0.257636 68 1 84
-0.481520 0.440173 0.391836 68 1 84
-0.406175 0.138562 -0.073991 47 105 141
-0.041041 -0.403537 -0.307235 71 17 99
-0.382245 0.227273 -0.097421 59 81 138
0.025612 0.536747 -0.254335 68 1 84
0.406950 0.287774 -0.074123 68 1 84
0.621848 -0.327153 0.462431 68 1 84
0.404646 0.504809 0.110062 68 1 84
-0.480820 -0.354634 -0.092407 68 1 84
0.626574 -0.407853 0.511989 68 1 84
0.017635 -0.349645 -0.314972 40 122 142
0.532434 -0.034246 0.034410 69 54 129
0.505141 -0.194832 -0.037565 68 1 84
-0.645541 -0.056921 0.261679 68 1 84
0.228088 0.336417 -0.190660 68 1 84
0.094936 -0.149475 -0.337819 45 111 142
0.095023 -0.251823 -0.248129 58 83 139
0.485071 0.412735 0.328593 68 1 84
-0.062416 0.450696 -0.242829 68 1 84
0.579295 -0.482809 0.136285 68 1 84
0.456246 -0.028428 -0.043584 64 68 135
0.375413 -0.271950 -0.111627 68 1 84
-0.113296 -0.381521 -0.193625 68 1 84
-0.655214 0.102723 0.474116 68 1 84
-0.204445 0.077192 -0.215952 114 207 85
-0.176823 0.057939 -0.218833 66 190 113
-0.410647 -0.311425 -0.126935 68 1 84
0.417075 0.116728 -0.075601 68 1 84
0.069746 -0.485879 -0.266762 48 104 141
-0.546882 -0.028930 0.037842 71 17 99
0.639607 0.024360 0.423274 68 1 84
-0.034011 0.040351 -0.415884 64 189 114
0.403770 0.030010 -0.089935 61 74 137
-0.694033 -0.434610 0.490547 68 1 84
-0.460370 0.173954 -0.013149 68 1 84
-0.678238 -0.312096 0.456019 68 1 84
-0.370047 0.422033 -0.014770 68 1 84
-0.248120 0.075389 -0.195037 51 182 121
-0.265465 -0.496628 -0.279659 68 1 84
0.624575 -0.133076 0.237666 68 1 84
0.614374 0.102579 0.531907 68 1 84
-0.496756 -0.090720 -0.058015 71 39 119
0.598458 -0.500396 0.200697 68 1 84
0.527558 0.171416 0.070810 68 1 84
-0.229553 0.326007 -0.177403 70 11 94
-0.132256 0.513060 -0.191699 68 1 84
0.116954 0.032930 -0.266724 40 122 142
0.273495 0.402107 -0.136757 68 1 84
0.634965 -0.252259 0.374029 68 1 84
0.519977 -0.414745 0.016279 68 1 84
-0.329549 -0.226306 -0.159345 68 1 84
0.403304 0.282176 -0.079674 68 1 84
0.206376 -0.378751 -0.181223 68 1 84
-0.225647 -0.535537 -0.315614 59 80 138
0.586497 -0.139457 0.133241 72 33 114
0.149518 -0.205138 -0.220252 49 101 141
-0.071721 -0.098677 -0.393573 36 134 141
-0.567461 -0.082219 0.052660 68 1 84
-0.523313 0.402483 0.442042 68 1 84
-0.171613 -0.045888 -0.220639 41 120 142
0.521892 -0.196654 -0.017020 68 1 84
-0.093818 0.423489 -0.252521 68 1 84
-0.233142 -0.490273 -0.268466 68 1 84
-0.317555 -0.059377 -0.168009 66 64 133
-0.031117 -0.383214 -0.314245 63 69 135
-0.306666 -0.280101 -0.173190 68 1 84
-0.268709 -0.501740 -0.288096 72 32 113
0.632638 -0.162453 0.499400 68 1 84
-0.382984 -0.177109 -0.131989 68 1 84
0.631377 -0.295790 0.265489 68 1 84
-0.645050 0.107951 0.372252 68 1 84
-0.473191 0.426710 0.171992 68 1 84
-0.096130 -0.349676 -0.232033 68 1 84
-0.681593 -0.218783 0.515287 68 1 84
0.379962 -0.420976 -0.192907 68 1 84
-0.510849 0.386631 0.231696 68 1 84
-0.293483 0.538044 -0.004349 68 1 84
0.281214 -0.532168 -0.284397 72 28 110
0.358423 0.082115 -0.138838 62 73 137
0.541527 0.339402 0.304325 68 1 84
-0.601435 0.205935 0.280200 68 1 84
0.621359 -0.113425 0.555828 68 1 84
-0.178952 0.646861 -0.036671 68 1 84
0.560568 0.227805 0.183962 68 1 84
-0.432120 0.484160 0.317763 68 1 84
0.635996 -0.202883 0.410721 68 1 84
-0.242446 -0.287572 -0.185666 68 1 84
0.477767 -0.490325 -0.067531 68 1 84
-0.613862 -0.488454 0.083606 68 1 84
-0.695481 -0.423855 0.410146 68 1 84
-0.570431 -0.043965 0.074376 68 1 84
-0.179396 -0.371059 -0.163011 68 1 84
0.626402 -0.454459 0.261955 68 1 84
0.597199 0.162848 0.567299 68 1 84
0.542938 0.340014 0.331341 68 1 84
0.628397 -0.269059 0.267085 68 1 84
-0.138248 0.368790 -0.267129 36 133 141
-0.157325 0.364643 -0.251903 42 118 142
-0.666633 0.007852 0.429873 68 1 84
-0.449880 0.373013 0.044593 68 1 84
-0.675485 -0.299922 0.462356 68 1 84
-0.329685 -0.397474 -0.192415 68 1 84
0.395797 0.528052 0.157418 68 1 84
0.311598 0.336181 -0.132620 68 1 84
-0.341213 0.330953 -0.101955 68 1 84
-0.545336 0.119265 0.086388 68 1 84
0.262285 0.599415 -0.035850 68 1 84
-0.446005 -0.257317 -0.083554 68 1 84
-0.225625 0.050100 -0.201458 81 196 104
0.542787 -0.196676 0.016344 69 8 91
0.270957 0.354039 -0.150958 68 1 84
-0.102105 0.060987 -0.265377 112 206 86
-0.692952 -0.288339 0.333866 68 1 84
0.348946 -0.217381 -0.135465 68 1 84
-0.269495 0.524770 -0.050479 68 1 84
0.144485 0.489658 -0.189104 68 1 84
-0.599656 0.189758 0.260856 68 1 84
0.222735 0.150331 -0.239800 77 194 107
-0.670508 -0.063839 0.417287 68 1 84
0.605822 0.204349 0.417789 68 1 84
0.417133 -0.407018 -0.144894 68 1 84
-0.579429 0.301537 0.303614 68 1 84
0.368196 0.512098 0.043718 68 1 84
0.475010 -0.486230 -0.072843 68 1 84
0.248088 -0.509911 -0.279318 58 82 139
-0.586217 0.136245 0.180364 68 1 84
-0.102747 0.496276 -0.221009 68 1 84
-0.636176 0.178864 0.530621 68 1 84
0.247346 -0.350654 -0.182386 68 1 84
0.576058 0.044624 0.142088 68 1 84
0.630883 0.035268 0.486304 68 1 84
-0.230770 -0.331008 -0.179701 68 1 84
-0.338965 0.568554 0.118280 68 1 84
-0.601385 0.289217 0.518913 68 1 84
-0.352806 -0.356609 -0.171034 68 1 84
0.047148 0.320080 -0.323768 44 177 125
-0.469099 0.064344 -0.016814 68 1 84
0.457408 0.442577 0.338100 68 1 84
0.631613 -0.251323 0.413212 68 1 84
0.147552 -0.530406 -0.315156 31 149 139
0.522557 0.362974 0.394009 68 1 84
0.369865 -0.086825 -0.127719 69 50 127
0.619680 -0.252746 0.231963 68 1 84
0.614372 -0.488867 0.340298 68 1 84
-0.534971 0.207050 0.103474 68 1 84
0.038696 0.400624 -0.283434 68 1 84
0.250163 0.186382 -0.226161 30 156 137
-0.685480 -0.306316 0.431620 68 1 84
-0.179397 -0.114763 -0.222018 30 156 137
-0.466384 0.208976 -0.000895 68 1 84
0.105143 -0.217975 -0.253337 47 106 141
-0.597573 0.091886 0.191461 68 1 84
0.564733 0.257638 0.234376 68 1 84
0.072213 -0.313006 -0.232158 60 78 138
-0.047261 0.543857 -0.254588 68 57 130
-0.604429 -0.220570 0.073616 68 1 84
-0.532290 0.022785 0.034161 68 1 84
-0.576311 -0.184078 0.027646 68 1 84
-0.018022 0.341718 -0.323907 103 204 92
0.464915 0.422548 0.125671 68 1 84
0.528128 -0.384239 0.026998 71 21 103
0.323775 -0.485399 -0.254934 68 1 84
0.091266 0.077687 -0.302915 36 170 130
-0.226218 0.143108 -0.224319 126 210 78
0.598230 0.203790 0.358189 68 1 84
-0.534011 0.183889 0.093664 68 1 84
-0.068993 -0.235827 -0.327180 71 18 101
-0.237391 -0.212766 -0.178416 68 1 84
0.455997 0.450778 0.234969 68 1 84
0.391820 0.531618 0.185538 68 1 84
-0.665531 -0.092823 0.526636 68 1 84
-0.582955 0.320474 0.391591 68 1 84
-0.451376 0.262368 -0.007148 69 54 129
-0.277859 0.194065 -0.180314 30 156 137
-0.482847 -0.431243 -0.131307 68 1 84
0.464191 0.433467 0.360701 68 1 84
-0.538350 -0.473579 -0.064520 68 1 84
0.552721 0.095393 0.105168 69 5 88
-0.501741 -0.079863 -0.048117 49 101 141
-0.496418 0.336186 0.099949 68 1 84
-0.561940 0.351697 0.350950 68 1 84
0.003997 0.408969 -0.279329 66 62 133
0.445953 -0.264932 -0.065670 68 1 84
-0.424624 0.227484 -0.044476 48 103 141
0.516166 -0.265444 -0.013007 68 1 84
0.614937 -0.478261 0.259410 68 1 84
0.128684 -0.119291 -0.267170 39 124 142
0.579528 0.101985 0.176468 68 1 84
0.482885 -0.161473 -0.058836 68 1 84
-0.524497 0.398828 0.393259 68 1 84
0.297584 -0.441640 -0.247316 69 53 128
0.057555 0.033582 -0.357362 31 150 139
0.621899 -0.338045 0.458074 68 1 84
0.304126 0.429020 -0.098721 68 1 84
0.611660 -0.064674 0.205014 68 1 84
-0.610078 -0.232722 0.081478 68 1 84
0.306865 0.422020 -0.099570 68 1 84
0.211022 -0.314258 -0.188067 68 1 84
0.631187 -0.127697 0.507195 68 1 84
0.036522 -0.033330 -0.481712 59 186 117
0.626275 -0.388647 0.530697 68 1 84
0.622914 -0.300050 0.500135 68 1 84
-0.158890 -0.489364 -0.272313 67 59 131
0.636336 0.043098 0.456011 68 1 84
-0.239852 0.169978 -0.218993 109 206 88
0.624254 -0.338661 0.532870 68 1 84
0.201735 -0.432893 -0.221717 71 18 101
0.644340 -0.110330 0.391986 68 1 84
-0.489771 -0.426078 -0.120260 68 1 84
-0.339707 -0.503866 -0.265341 68 1 84
0.527838 -0.458590 0.036485 68 1 84
0.323732 -0.488344 -0.255780 68 1 84
0.441207 0.472565 0.204767 68 1 84
0.481339 0.415173 0.363571 68 1 84
-0.280975 0.210425 -0.177703 100 203 93
0.136269 -0.061189 -0.325411 36 133 141
0.589159 -0.173199 0.140504 68 1 84
-0.605100 0.226152 0.321085 68 1 84
0.388292 0.507489 0.078315 68 1 84
0.504666 -0.416793 -0.009244 68 1 84
-0.470940 0.444908 0.282756 68 1 84
0.605824 -0.261397 0.175609 68 1 84
0.418042 0.044562 -0.073886 32 144 140
0.130883 0.453204 -0.207505 68 1 84
-0.056800 0.551288 -0.248357 68 1 84
0.065061 -0.227047 -0.314918 46 108 142
0.636827 0.049142 0.431345 68 1 84
0.522839 -0.496711 0.035371 68 1 84
0.623496 -0.370428 0.487679 68 1 84
-0.666476 -0.233567 0.270601 68 1 84
0.553587 -0.439825 0.074535 68 1 84
-0.687986 -0.444817 0.372037 68 1 84
-0.661725 -0.271831 0.206283 68 1 84
-0.113755 -0.419851 -0.194425 68 1 84
0.492686 0.352717 0.101108 68 1 84
-0.601336 0.186836 0.264852 68 1 84
-0.121370 0.157483 -0.299535 69 191 111
0.089659 0.055388 -0.298787 33 141 140
-0.704940 -0.378379 0.338887 68 1 84
-0.100201 -0.439348 -0.228583 68 1 84
0.575010 0.096688 0.161243 68 1 84
-0.662008 -0.064990 0.330750 68 1 84
0.621714 -0.151517 0.231898 68 1 84
-0.552219 -0.198433 -0.007096 68 1 84
-0.681727 -0.217407 0.515232 68 1 84
0.639933 0.003517 0.452205 68 1 84
-0.220901 -0.325585 -0.180570 68 1 84
0.201732 -0.420398 -0.201035 68 1 84
-0.041427 0.554942 -0.251577 71 39 119
-0.524088 0.392249 0.312579 68 1 84
0.621288 0.039866 0.279803 68 1 84
0.145641 -0.041242 -0.339472 61 76 137
0.161675 -0.331604 -0.183486 68 1 84
0.649080 -0.360772 0.290293 68 1 84
0.550775 -0.472047 0.078985 68 1 84
0.278650 -0.537275 -0.287059 50 99 141
0.520754 0.370779 0.341588 68 1 84
0.609000 -0.541690 0.342652 68 1 84
-0.541302 -0.269985 -0.007793 68 1 84
-0.580766 0.099371 0.149898 68 1 84
-0.203062 0.317990 -0.205434 71 20 102
0.398676 -0.515275 -0.198420 67 58 131
-0.212308 0.446968 -0.142777 68 1 84
-0.544277 0.079157 0.069100 68 1 84
-0.000934 -0.266035 -0.376073 30 156 137
0.607562 -0.059996 0.194704 68 1 84
-0.647299 -0.388567 0.150690 68 1 84
0.407732 -0.043221 -0.094915 44 112 142
-0.645628 -0.235785 0.172813 68 1 84
-0.436136 0.478813 0.269202 68 1 84
0.196945 -0.279392 -0.186273 68 1 84
0.448448 0.156584 -0.042133 69 50 127
-0.397718 0.522151 0.212003 68 1 84
-0.454828 0.307481 0.013625 68 1 84
0.644034 -0.416782 0.282748 68 1 84
-0.090803 -0.154886 -0.307021 66 61 132
-0.559723 0.133419 0.120172 68 1 84
-0.408053 0.267918 -0.057608 58 82 139
-0.566271 0.222890 0.177729 68 1 84
0.647348 -0.420531 0.336318 68 1 84
0.634253 -0.253586 0.383297 68 1 84
-0.525749 -0.110881 -0.031955 68 1 84
0.452757 -0.496771 -0.121763 68 1 84
-0.046149 0.066576 -0.314913 68 190 112
-0.303414 -0.484545 -0.260569 68 1 84
0.642256 -0.025619 0.386642 68 1 84
-0.707432 -0.361031 0.378634 68 1 84
0.485325 -0.336453 -0.021838 68 1 84
-0.062385 -0.126905 -0.394809 42 118 142
0.317720 -0.238831 -0.151475 68 1 84
-0.078101 -0.002240 -0.306590 60 77 138
-0.665943 -0.533778 0.216960 68 1 84
0.140148 0.531474 -0.197247 68 1 84
-0.176256 0.046148 -0.214220 57 185 118
-0.456035 -0.219675 -0.078159 68 1 84
-0.527957 0.152675 0.070396 68 1 84
-0.147810 -0.134420 -0.245510 35 135 141
-0.082781 -0.456164 -0.279873 71 39 119
0.634083 -0.299468 0.327112 68 1 84
-0.504781 0.380024 0.194427 68 1 84
0.565543 0.299506 0.377320 68 1 84
-0.270692 -0.319379 -0.182176 68 1 84
-0.103525 0.562501 -0.210731 68 1 84
0.594712 0.207061 0.337325 68 1 84
0.355984 -0.565485 -0.235518 67 60 132
-0.240448 0.262746 -0.212358 36 134 141
0.429862 0.352560 -0.005063 68 1 84
-0.649293 0.115550 0.517385 68 1 84
0.297531 0.447897 -0.096894 68 1 84
-0.189502 0.236803 -0.257022 144 214 67
0.635376 -0.166054 0.282789 68 1 84
0.525850 -0.259678 -0.003901 68 1 84
-0.061469 -0.463335 -0.303537 70 45 124
-0.180894 0.456562 -0.163734 68 1 84
0.644842 -0.364294 0.326644 68 1 84
0.328391 -0.244609 -0.146190 68 1 84
-0.644959 -0.032965 0.268542 68 1 84
-0.169238 0.221419 -0.275626 170 219 50
0.187596 0.225081 -0.265843 94 201 97
-0.456677 0.235858 -0.007441 70 9 92
-0.587437 -0.353815 0.037790 68 1 84
-0.640357 -0.518855 0.138952 68 1 84
-0.071201 -0.136665 -0.366030 60 77 138
-0.591444 0.311173 0.512457 68 1 84
0.225047 0.420557 -0.174621 68 1 84
-0.670682 -0.091780 0.418272 68 1 84
-0.036523 0.016078 -0.362692 42 119 142
-0.658335 -0.028120 0.529419 68 1 84
0.641490 -0.070914 0.326563 68 1 84
0.052545 0.042570 -0.363662 42 118 142
-0.415347 -0.245618 -0.109922 68 1 84
0.486117 -0.456532 -0.045990 68 1 84
-0.123818 0.661401 -0.070716 68 1 84
0.014694 -0.557654 -0.325459 70 47 124
-0.529187 -0.255077 -0.020005 68 1 84
-0.632627 0.099518 0.309686 68 1 84
0.284548 0.243119 -0.196242 68 1 84
0.480509 0.037501 -0.010905 42 118 142
-0.614621 0.072339 0.228290 68 1 84
-0.402051 -0.102820 -0.126483 68 1 84
0.135309 0.375579 -0.268164 68 55 129
-0.652219 0.042062 0.540070 68 1 84
-0.650506 -0.248092 0.180571 68 1 84
0.484808 0.361197 0.090420 68 1 84
0.184581 -0.514229 -0.294437 40 123 142
0.329992 0.191904 -0.150543 68 1 84
0.630989 -0.121589 0.506560 68 1 84
0.147426 0.391706 -0.251076 68 1 84
0.069898 0.065523 -0.317256 39 173 128
-0.041709 0.408675 -0.278181 71 18 101
0.027685 -0.381459 -0.266348 62 72 136
-0.054255 0.625129 -0.172095 68 1 84
0.359720 -0.277253 -0.123799 68 1 84
0.529256 -0.567817 0.059064 67 60 132
-0.148564 0.211182 -0.290327 105 204 91
-0.157002 0.271611 -0.255861 119 208 82
0.149064 -0.206072 -0.220403 44 114 142
0.208769 0.094730 -0.228536 34 138 141
0.286824 0.495175 -0.084867 68 1 84
-0.521484 -0.112544 -0.037817 68 1 84
0.560439 0.284019 0.254491 68 1 84
0.633870 -0.144696 0.491187 68 1 84
0.429563 0.321950 -0.024901 68 1 84
0.243508 0.627820 0.015388 68 1 84
-0.600502 0.277319 0.391278 68 1 84
-0.576280 -0.125414 0.048350 68 1 84
0.634826 -0.462829 0.494076 68 1 84
0.178346 0.398819 -0.226164 68 1 84
0.115762 -0.140303 -0.282138 52 95 141
0.420603 -0.462025 -0.166033 68 1 84
-0.650402 0.108809 0.404866 68 1 84
-0.041236 -0.115142 -0.430472 41 120 142
-0.177181 0.418095 -0.205498 68 1 84
-0.680504 -0.221094 0.524473 68 1 84
-0.387795 0.057730 -0.103677 68 1 84
-0.200792 -0.159228 -0.206338 41 121 142
0.102622 -0.132253 -0.331012 47 105 141
0.081925 -0.172327 -0.341882 36 133 141
0.464044 0.439884 0.198293 68 1 84
-0.492828 0.067501 0.004783 70 14 97
0.401382 0.522306 0.173935 68 1 84
-0.146001 -0.438436 -0.195139 71 37 117
-0.610864 0.025867 0.195617 68 1 84
-0.618157 0.101065 0.256318 68 1 84
0.606345 -0.514660 0.290562 68 1 84
0.582462 -0.387067 0.110514 68 1 84
0.269137 0.466888 -0.113935 68 1 84
-0.142609 0.615628 -0.134260 68 1 84
-0.646465 0.001954 0.289217 68 1 84
-0.039535 -0.022334 -0.466003 105 204 91
0.263995 -0.369407 -0.177650 68 1 84
0.403051 0.384095 -0.025878 68 1 84
0.526657 0.357559 0.268626 68 1 84
-0.686518 -0.353967 0.455086 68 1 84
-0.017982 -0.133594 -0.435007 32 143 140
0.413797 0.219031 -0.080988 63 71 136
-0.655487 -0.029519 0.549525 68 1 84
0.622257 -0.260900 0.240709 68 1 84
-0.290571 0.240677 -0.166579 30 153 138
0.326923 0.371241 -0.106520 68 1 84
0.543766 0.054200 0.072044 68 1 84
-0.151121 -0.446388 -0.202038 68 1 84
0.626404 -0.253647 0.493650 68 1 84
0.562971 0.296632 0.522381 68 1 84
0.576473 0.254963 0.286231 68 1 84
0.291142 -0.161644 -0.153159 68 1 84
-0.122972 0.024537 -0.283822 62 188 115
-0.686021 -0.465665 0.384921 68 1 84
-0.192304 0.280683 -0.221908 36 134 141
0.043048 -0.373286 -0.230310 67 60 132
-0.629014 -0.421921 0.113472 68 1 84
0.485000 -0.390621 -0.033365 68 1 84
0.336442 0.422436 -0.070912 68 1 84
0.207696 0.202689 -0.254803 46 178 124
-0.064904 -0.444421 -0.295480 71 21 103
-0.664241 -0.029460 0.369409 68 1 84
-0.130636 0.211695 -0.302506 165 218 53
-0.626771 -0.268345 0.106481 68 1 84
0.649979 -0.374699 0.266971 68 1 84
-0.075315 -0.267690 -0.308788 70 14 97
-0.123195 -0.284453 -0.226506 68 1 84
0.194829 -0.239712 -0.179728 68 1 84
0.611720 -0.251562 0.201137 68 1 84
0.577608 -0.100933 0.109925 68 1 84
-0.488914 -0.241784 -0.053109 68 1 84
0.631761 -0.453509 0.513576 68 1 84
-0.307743 0.016171 -0.173564 39 125 142
0.078373 0.630477 -0.175154 68 1 84
-0.626377 0.121421 0.304627 68 1 84
0.320102 -0.047080 -0.161639 68 1 84
0.559911 0.311717 0.341796 68 1 84
0.377236 0.313205 -0.088000 68 1 84
0.627494 -0.240050 0.495384 68 1 84
-0.177502 0.301241 -0.228706 33 140 141
0.592250 0.172447 0.270040 68 1 84
-0.568035 -0.319453 0.016186 68 1 84
0.556142 0.237528 0.176638 68 1 84
0.456332 -0.133734 -0.075556 68 1 84
-0.245235 0.007089 -0.199155 30 159 136
0.600133 -0.036058 0.180451 68 1 84
-0.698091 -0.499696 0.512806 68 1 84
-0.437297 0.201154 -0.034941 69 52 127
-0.564763 -0.345152 0.009130 68 1 84
0.233514 -0.127103 -0.188067 69 50 127
0.350844 0.357075 -0.091447 68 1 84
-0.060426 0.255454 -0.308668 32 144 140
0.346627 -0.560721 -0.246465 51 97 141
0.555924 0.178146 0.140236 72 30 112
0.067332 0.620250 -0.194721 68 1 84
-0.458618 -0.433674 -0.165195 68 1 84
-0.557721 -0.060445 0.043399 68 1 84
-0.407806 0.450507 0.051352 68 1 84
-0.254520 -0.286773 -0.183831 68 1 84
0.511466 -0.282861 -0.011961 68 1 84
-0.694705 -0.410907 0.324232 68 1 84
0.370536 0.345694 -0.080130 68 1 84
-0.330881 0.399027 -0.078872 68 1 84
0.058517 -0.478672 -0.262560 68 57 130
-0.164637 0.652792 -0.050162 68 1 84
0.427066 -0.429109 -0.149095 68 1 84
0.284218 0.104386 -0.189568 72 29 111
0.322547 -0.159347 -0.143432 68 1 84
0.394448 0.066366 -0.100660 56 87 140
0.483709 -0.090918 -0.037247 68 1 84
-0.231941 -0.520590 -0.313305 58 82 139
0.261121 0.522598 -0.101790 68 1 84
-0.548020 0.311500 0.215192 68 1 84
0.476043 0.033945 -0.014681 39 125 142
-0.425440 -0.073547 -0.106885 68 1 84
0.578741 0.071580 0.161375 68 1 84
-0.560052 -0.134041 0.012777 68 1 84
-0.592295 -0.218557 0.050509 68 1 84
0.480212 -0.549049 -0.054537 50 99 141
-0.130381 -0.055319 -0.291643 30 157 136
0.055507 0.168341 -0.326960 50 181 122
0.143494 0.050070 -0.246655 47 105 141
0.000349 0.542227 -0.258029 69 54 129
-0.330453 -0.511774 -0.276191 68 1 84
0.079848 -0.001929 -0.349425 41 120 142
0.249799 0.618291 -0.016707 68 1 84
-0.179396 0.433859 -0.185855 68 1 84
-0.411952 -0.284060 -0.124211 68 1 84
-0.646683 0.051035 0.585220 68 1 84
-0.494246 -0.080890 -0.056177 68 1 84
-0.554989 -0.124256 0.008061 68 1 84
0.158313 0.284007 -0.250778 45 110 142
-0.632142 -0.408877 0.118595 68 1 84
0.635908 -0.225253 0.387983 68 1 84
-0.346173 0.265199 -0.119360 66 61 132
0.583155 -0.037220 0.130910 68 1 84
-0.641024 -0.094037 0.235524 68 1 84
-0.399827 -0.170532 -0.125267 68 1 84
-0.099312 -0.310716 -0.241964 68 1 84
-0.647488 -0.055541 0.269224 68 1 84
0.563466 0.235365 0.201946 68 1 84
-0.491863 -0.056517 -0.046445 69 53 128
0.168362 -0.451129 -0.217011 72 32 113
0.636948 -0.182820 0.422590 68 1 84
0.486285 0.035612 -0.006006 48 103 141
0.536259 0.291986 0.167698 68 1 84
0.485065 0.015535 -0.007774 43 115 142
-0.454743 -0.052046 -0.078769 68 1 84
-0.268344 0.068190 -0.190569 61 187 116
-0.168587 0.090432 -0.241127 59 186 117
0.477095 -0.024616 -0.022180 72 32 113
0.625646 -0.373889 0.526156 68 1 84
0.590553 -0.356541 0.119637 68 1 84
-0.704413 -0.333138 0.311539 68 1 84
-0.437637 0.330198 0.003976 68 1 84
0.495468 0.393590 0.217278 68 1 84
-0.044296 0.348147 -0.320274 51 182 121
0.327221 0.099945 -0.169107 58 82 139
0.357403 -0.378479 -0.141219 68 1 84
0.618559 -0.487292 0.360105 68 1 84
0.648319 -0.402831 0.302637 68 1 84
-0.132056 -0.288280 -0.215540 68 1 84
-0.359685 0.391140 -0.057793 68 1 84
0.179522 -0.004478 -0.217635 72 25 107
-0.598828 -0.127249 0.101812 68 1 84
-0.454256 0.453898 0.167415 68 1 84
-0.204945 -0.282011 -0.185462 68 1 84
-0.654411 0.000138 0.539574 68 1 84
0.436653 -0.397027 -0.111261 68 1 84
-0.279605 -0.536028 -0.308015 68 1 84
0.579252 0.210780 0.243119 68 1 84
-0.306532 0.595083 0.156749 68 1 84
0.637297 -0.229401 0.355131 68 1 84
-0.530748 0.317316 0.173913 68 1 84
0.407994 -0.339612 -0.084413 68 1 84
0.324601 0.266369 -0.143526 68 1 84
-0.428775 0.262207 -0.033085 37 131 141
-0.519945 -0.009216 0.008542 68 1 84
0.014512 0.309582 -0.327280 68 190 112
-0.535562 0.331581 0.208362 68 1 84
-0.265835 -0.503971 -0.292260 69 50 127
0.335264 -0.476619 -0.248041 68 1 84
-0.318713 -0.142606 -0.155712 68 1 84
0.009531 0.453428 -0.254190 71 15 98
-0.622224 -0.155755 0.152908 68 1 84
0.454055 -0.485629 -0.116492 68 1 84
0.484083 0.380369 0.113350 68 1 84
-0.000354 -0.208993 -0.402376 38 129 142
-0.696502 -0.414642 0.354913 68 1 84
-0.578161 0.299595 0.295340 68 1 84
-0.018111 0.360237 -0.315373 30 158 136
-0.665928 -0.018090 0.492708 68 1 84
-0.292917 0.352010 -0.126579 68 1 84
-0.440739 -0.335399 -0.106042 68 1 84
0.602376 -0.135359 0.178971 68 1 84
0.184967 -0.183885 -0.198311 49 101 141
0.126865 -0.102717 -0.275264 44 113 142
-0.643751 -0.225197 0.174537 68 1 84
0.279479 -0.375263 -0.176463 70 9 92
0.200128 -0.147817 -0.198808 44 114 142
-0.670455 -0.107365 0.439446 68 1 84
0.133265 -0.057672 -0.345561 61 187 116
0.400160 0.160442 -0.096189 68 1 84
-0.466350 0.251774 0.008050 68 1 84
-0.410020 0.506102 0.145107 68 1 84
0.354291 -0.190909 -0.133513 68 1 84
0.521862 0.042798 0.032964 71 42 121
0.366097 -0.529285 -0.233533 58 83 139
-0.105872 -0.242173 -0.260747 68 1 84
-0.026237 -0.394975 -0.311543 57 84 139
0.464614 -0.443276 -0.084633 68 1 84
-0.263361 -0.188126 -0.169094 68 1 84
0.458504 0.026040 -0.030826 53 92 140
0.013249 -0.378463 -0.300227 47 105 141
-0.284994 0.594741 0.096376 68 1 84
0.604947 -0.461421 0.187480 68 1 84
0.602675 -0.105664 0.177367 68 1 84
0.265109 -0.016811 -0.195098 61 76 137
-0.674716 -0.183795 0.482603 68 1 84
0.001836 -0.055541 -0.481145 98 202 95
-0.406086 0.507359 0.305484 68 1 84
0.282103 0.142338 -0.187788 68 1 84
0.629578 -0.311273 0.236895 68 1 84
-0.015295 -0.237838 -0.385845 42 118 142
0.044112 0.265339 -0.305235 44 113 142
-0.556515 0.352525 0.321548 68 1 84
-0.058039 0.073923 -0.309414 48 180 122
0.634364 -0.374332 0.224004 68 1 84
-0.640097 0.130945 0.551660 68 1 84
0.281821 0.039878 -0.191958 33 142 140
0.621927 -0.404981 0.205037 68 1 84
-0.588529 -0.077023 0.100146 68 1 84
-0.077054 0.631030 -0.142765 68 1 84
-0.670696 -0.047212 0.433302 68 1 84
-0.564451 -0.097026 0.038331 71 22 105
-0.431016 0.485309 0.311624 68 1 84
-0.676955 -0.171462 0.498104 68 1 84
-0.443307 0.259844 -0.017114 52 95 141
0.590710 -0.552028 0.186297 68 1 84
-0.234157 -0.067250 -0.200240 62 73 137
-0.312737 0.588912 0.129884 68 1 84
0.047676 0.048308 -0.362105 30 159 136
0.395334 -0.252163 -0.097755 68 1 84
0.271569 0.058932 -0.195640 51 97 141
0.542275 0.140342 0.095632 68 1 84
-0.699567 -0.303822 0.331592 68 1 84
0.017679 -0.423116 -0.279175 71 18 101
-0.233516 -0.213331 -0.179527 68 1 84
-0.203213 -0.422430 -0.192710 68 1 84
-0.450747 -0.493753 -0.189213 68 1 84
0.038633 -0.029257 -0.481433 56 185 118
0.590604 0.179599 0.268840 68 1 84
-0.305327 -0.176908 -0.157800 71 17 99
-0.274185 -0.347530 -0.177204 68 1 84
0.649921 -0.539641 0.532310 68 1 84
-0.118842 0.317902 -0.290180 34 167 132
0.628280 0.064891 0.347478 68 1 84
-0.355988 -0.159442 -0.144194 68 1 84
0.341983 0.166035 -0.151964 71 40 120
0.364476 0.439466 -0.029816 68 1 84
-0.634984 -0.084049 0.220079 68 1 84
0.199292 -0.203089 -0.183151 56 87 140
0.633949 0.054440 0.387374 68 1 84
0.011036 -0.287457 -0.361748 30 160 135
0.588142 -0.377894 0.118982 68 1 84
-0.470363 -0.385763 -0.133422 68 1 84
0.646245 -0.431821 0.344385 68 1 84
-0.673657 -0.470070 0.296736 68 1 84
-0.658025 -0.034700 0.534783 68 1 84
0.152511 0.375842 -0.255660 68 1 84
0.563689 0.216061 0.184373 68 1 84
-0.188487 0.571980 -0.120493 68 1 84
-0.657477 -0.031743 0.535773 68 1 84
-0.594156 0.075280 0.173676 68 1 84
-0.161989 -0.296579 -0.189443 68 1 84
0.098797 -0.087490 -0.425766 38 128 142
0.108422 0.374166 -0.284029 62 72 136
-0.419128 -0.229435 -0.103091 68 1 84
0.234542 -0.147377 -0.181720 51 96 141
-0.114061 -0.127291 -0.281289 62 73 137
-0.217386 -0.271191 -0.185476 68 1 84
-0.331548 0.248157 -0.130560 55 89 140
0.247966 0.126160 -0.211675 30 154 137
0.628459 -0.168880 0.559388 68 1 84
0.381308 -0.193575 -0.121825 68 1 84
0.258861 -0.016762 -0.197750 52 95 141
-0.655052 -0.153157 0.270216 68 1 84
0.627516 -0.245670 0.498181 68 1 84
0.496713 -0.490634 -0.023405 68 1 84
0.312904 0.039918 -0.175543 46 107 142
0.043228 0.346327 -0.318172 83 197 103
-0.656294 -0.034933 0.544295 68 1 84
0.384802 0.218116 -0.113337 54 90 140
0.006594 0.648734 -0.158698 68 1 84
0.625832 -0.399318 0.484729 68 1 84
-0.327122 0.376609 -0.092751 71 40 120
0.556906 0.309631 0.295359 68 1 84
0.262557 0.521942 -0.100377 68 1 84
-0.264908 0.413511 -0.115990 68 1 84
-0.129341 0.658429 -0.076158 68 1 84
-0.124141 0.298283 -0.278840 34 139 141
0.311261 0.481412 -0.064885 68 1 84
0.337999 -0.125942 -0.143572 71 15 98
-0.077568 0.081660 -0.296426 109 206 88
0.261425 -0.312480 -0.178888 71 44 123
-0.155221 -0.088332 -0.234683 33 141 140
-0.065003 0.525761 -0.253277 68 1 84
-0.668474 -0.193240 0.351236 68 1 84
-0.510375 0.129475 0.036579 68 1 84
-0.291302 0.451905 -0.070877 68 1 84
0.642417 -0.027270 0.389568 68 1 84
0.612160 0.135038 0.340286 68 1 84
0.001656 0.377465 -0.306364 35 135 141
0.037597 0.214126 -0.331571 42 176 126
0.521339 -0.437957 0.021068 69 8 91
0.264255 0.327893 -0.160782 68 1 84
-0.240683 -0.131609 -0.190369 65 66 134
-0.668017 0.003466 0.461330 68 1 84
-0.646694 -0.103720 0.251832 68 1 84
0.222253 0.192259 -0.245562 33 166 133
0.621913 0.090292 0.337952 68 1 84
-0.067240 -0.157622 -0.360106 46 107 142
0.614668 -0.017981 0.527360 68 1 84
-0.675611 -0.487675 0.286751 68 1 84
-0.365216 -0.012125 -0.137159 68 1 84
0.455330 0.453022 0.192076 68 1 84
0.234829 0.629608 -0.041109 68 1 84
0.412153 -0.177828 -0.110890 68 1 84
-0.698527 -0.340085 0.276558 68 1 84
-0.612974 -0.158409 0.124182 68 1 84
0.523794 0.358479 0.253612 68 1 84
-0.115088 -0.277429 -0.237937 68 1 84
0.495289 0.377302 0.153633 68 1 84
0.394734 0.526397 0.210599 68 1 84
-0.040064 -0.328679 -0.332219 68 3 87
0.407368 -0.289773 -0.085025 68 1 84
0.172053 -0.018239 -0.250372 48 103 141
-0.109313 0.635219 -0.129775 68 1 84
0.304391 -0.011121 -0.175584 66 61 132
-0.598150 0.225365 0.281639 68 1 84
0.643173 -0.338575 0.294733 68 1 84
0.534799 0.155738 0.081960 70 14 97
0.520674 0.328644 0.163328 68 1 84
0.115466 -0.330964 -0.189212 68 1 84
0.334351 0.033608 -0.157865 44 113 142
0.513033 0.194679 0.048844 71 24 106
-0.144589 0.257072 -0.277593 159 217 56
0.054378 -0.312853 -0.254555 49 100 141
0.474687 -0.567152 -0.063828 66 64 133
0.572534 -0.176819 0.087380 68 1 84
0.263667 0.461421 -0.120972 68 1 84
0.637149 0.044505 0.416054 68 1 84
-0.674609 -0.263131 0.483068 68 1 84
0.561679 -0.302979 0.059871 68 1 84
-0.009529 0.642242 -0.169669 68 1 84
-0.445603 0.469144 0.210792 68 1 84
0.649056 -0.425386 0.396355 68 1 84
0.636693 0.050368 0.426092 68 1 84
0.499295 -0.027601 -0.001945 44 113 142
-0.404271 0.124834 -0.076899 37 131 141
0.571925 -0.114307 0.095472 72 30 112
-0.109429 -0.409585 -0.196878 68 1 84
-0.590142 -0.422628 0.035878 68 1 84
-0.272199 0.163623 -0.183712 69 191 111
-0.523331 0.181653 0.072292 68 1 84
-0.000242 0.657130 -0.136756 68 1 84
0.402021 -0.107880 -0.108865 68 1 84
0.580781 0.254068 0.323027 68 1 84
0.639852 -0.159428 0.310758 68 1 84
-0.670825 -0.146798 0.472281 68 1 84
-0.565818 -0.084368 0.048259 68 2 85
-0.301995 -0.401107 -0.188408 68 1 84
0.103823 0.035328 -0.275275 50 99 141
-0.050098 -0.548002 -0.324069 63 69 135
0.324216 0.579481 0.097533 68 1 84
0.592470 0.167344 0.581602 68 1 84
-0.568238 -0.525466 -0.010193 68 1 84
0.063158 -0.543188 -0.321511 42 119 142
0.138004 0.544239 -0.199144 68 1 84
-0.206872 -0.505040 -0.301625 61 76 137
0.447390 0.014149 -0.042568 38 127 142
0.610871 0.178921 0.404199 68 1 84
0.570000 -0.277455 0.073512 68 1 84
0.547494 -0.035204 0.055825 66 62 133
-0.086518 -0.500328 -0.303664 65 65 134
-0.054809 0.006650 -0.292536 72 28 110
0.554183 0.070112 0.099523 68 1 84
0.473025 0.428235 0.238556 68 1 84
0.106185 -0.006647 -0.358618 32 145 140
-0.288787 0.555263 0.012384 68 1 84
-0.654089 0.108957 0.446206 68 1 84
-0.485518 0.387077 0.133724 68 1 84
0.193380 -0.214914 -0.182553 66 62 133
0.525841 0.089499 0.048802 57 84 139
0.541975 -0.183338 0.016989 68 1 84
-0.214729 -0.190707 -0.191117 68 1 84
0.261449 -0.181907 -0.159758 68 1 84
-0.135994 0.597938 -0.153269 68 1 84
-0.625301 0.122755 0.301543 68 1 84
0.276741 0.578439 -0.039099 68 1 84
0.076386 -0.414112 -0.189683 69 6 90
0.061988 0.538141 -0.242108 68 1 84
0.481264 0.184386 -0.002272 68 1 84
0.443450 0.448270 0.105918 68 1 84
-0.431630 0.366773 0.017630 68 1 84
0.606564 0.165947 0.353002 68 1 84
0.349398 -0.101261 -0.140223 68 1 84
-0.459700 0.290222 0.012709 68 3 87
-0.459482 -0.342071 -0.098769 68 1 84
0.230615 -0.149756 -0.182581 58 83 139
-0.407172 -0.475647 -0.221790 68 1 84
-0.324231 -0.229348 -0.161764 68 1 84
-0.378183 0.544422 0.172879 68 1 84
-0.291075 0.487939 -0.050331 68 1 84
0.224518 -0.214462 -0.171089 70 47 124
-0.326909 0.161970 -0.155466 121 209 81
0.446079 0.107490 -0.043284 49 102 141
-0.619981 -0.401712 0.090010 68 1 84
-0.687881 -0.459454 0.414709 68 1 84
0.642419 -0.021511 0.420397 68 1 84
0.474189 0.088673 -0.016224 48 103 141
-0.631722 -0.256545 0.120697 68 1 84
-0.466807 0.293769 0.023597 71 20 102
0.636533 -0.201838 0.405856 68 1 84
-0.438622 -0.271568 -0.094413 68 1 84
-0.064192 0.478157 -0.246951 68 55 129
0.600121 0.112052 0.253480 68 1 84
0.593459 -0.402561 0.134356 68 1 84
0.592604 0.241385 0.406043 68 1 84
-0.641955 -0.249608 0.152591 68 1 84
0.215260 0.533610 -0.145806 68 1 84
-0.043651 -0.565365 -0.326551 67 60 132
0.049575 0.634581 -0.180793 68 1 84
-0.052260 -0.201704 -0.364693 71 37 117
0.391065 0.276011 -0.092505 68 1 84
0.098052 0.487052 -0.216033 68 1 84
-0.391309 -0.351447 -0.148277 68 1 84
0.205090 0.650574 -0.057974 68 1 84
-0.271789 0.566173 0.001904 68 1 84
-0.299966 0.208076 -0.158295 40 174 127
-0.442800 0.236694 -0.022691 59 81 138
-0.085586 -0.437769 -0.262900 68 1 84
0.281021 0.530464 -0.075289 68 1 84
-0.641418 0.171022 0.466638 68 1 84
-0.043345 0.319201 -0.327074 116 208 84
-0.009550 -0.559864 -0.326796 59 81 138
0.018539 0.378210 -0.304967 56 86 139
-0.445292 -0.468394 -0.189683 68 1 84
0.301112 0.596207 0.102428 68 1 84
-0.517612 -0.094409 -0.036637 68 1 84
-0.400520 0.515029 0.248433 68 1 84
-0.650687 -0.005502 0.301452 68 1 84
0.240226 0.381272 -0.176088 68 1 84
0.639361 -0.035787 0.326487 68 1 84
0.107391 -0.018424 -0.417502 35 135 141
0.136844 0.158748 -0.298679 71 192 110
-0.431436 -0.417952 -0.190949 68 1 84
-0.657880 0.076332 0.420721 68 1 84
0.133925 -0.232734 -0.224704 59 81 138
0.627576 -0.230617 0.466273 68 1 84
-0.221871 0.150670 -0.231067 79 195 105
0.546825 -0.297990 0.035518 68 1 84
-0.450949 -0.320636 -0.090859 68 1 84
0.091301 -0.169418 -0.312271 57 84 139
-0.597033 0.299420 0.506036 68 1 84
0.476244 0.342872 0.058634 68 1 84
-0.365350 -0.164626 -0.140695 68 1 84
0.636811 0.024211 0.372816 68 1 84
-0.098566 0.277983 -0.290111 32 144 140
0.545331 -0.101225 0.041559 70 9 92
0.044967 0.003825 -0.471001 121 209 81
-0.569063 -0.231128 0.015070 68 1 84
0.632095 -0.329945 0.384842 68 1 84
0.464070 -0.019850 -0.033214 61 76 137
0.334865 0.451598 -0.054430 68 1 84
0.297285 0.542766 -0.044469 68 1 84
0.573136 -0.029092 0.108070 71 22 105
-0.352133 0.016246 -0.143288 31 147 139
0.570640 0.160961 0.175212 68 1 84
-0.048661 -0.292256 -0.343916 71 39 119
-0.547819 0.376078 0.482739 68 1 84
0.398168 -0.127157 -0.115273 68 1 84
-0.684224 -0.522397 0.354442 68 1 84
-0.092145 -0.529096 -0.315399 71 22 105
-0.363429 0.540354 0.105441 68 1 84
0.609170 0.178746 0.390712 68 1 84
0.047701 -0.564158 -0.324317 46 107 142
0.440097 0.229917 -0.047285 68 1 84
-0.500532 0.416542 0.304346 68 1 84
-0.680575 -0.309934 0.246132 68 1 84
-0.577613 -0.366009 0.021395 68 1 84
0.642193 -0.154762 0.346101 68 1 84
-0.392020 -0.073241 -0.126919 68 1 84
0.244907 -0.389278 -0.181648 68 1 84
-0.202622 0.241934 -0.246101 83 197 103
0.032126 0.061311 -0.366053 34 138 141
-0.625847 -0.339695 0.098140 68 1 84
-0.550176 0.373737 0.442624 68 1 84
0.270060 0.141043 -0.196884 72 25 107
0.630227 0.093828 0.429462 68 1 84
-0.400776 0.343196 -0.031656 68 1 84
0.036081 0.093847 -0.322470 30 155 137
-0.699018 -0.367302 0.279673 68 1 84
-0.430275 0.409084 0.043326 68 1 84
-0.288135 0.099308 -0.181289 109 206 88
0.212359 0.554890 -0.145977 68 1 84
0.485223 0.265929 0.027845 68 1 84
0.538921 0.202736 0.105831 59 80 138
-0.692629 -0.464010 0.466243 68 1 84
0.588016 -0.036006 0.144926 68 1 84
0.391662 -0.071148 -0.111765 69 50 127
0.343244 0.368731 -0.092906 68 1 84
-0.043609 0.645769 -0.137554 68 1 84
0.498854 0.129073 0.013362 72 34 115
-0.184074 -0.520149 -0.314639 60 77 138
-0.618431 -0.051621 0.184455 68 1 84
-0.607206 -0.124088 0.127421 68 1 84
-0.367822 0.551730 0.203815 68 1 84
-0.178425 -0.448287 -0.207338 68 1 84
-0.567231 0.354725 0.477679 68 1 84
0.644627 -0.414998 0.283123 68 1 84
-0.285807 -0.342420 -0.177705 68 1 84
-0.054992 -0.163135 -0.381318 53 93 140
-0.420105 -0.005674 -0.089141 69 54 129
-0.387467 0.326782 -0.061422 64 67 135
-0.324221 0.102322 -0.161029 31 162 134
-0.626778 -0.374756 0.101170 68 1 84
0.451221 0.451460 0.311971 68 1 84
0.186376 -0.180690 -0.198595 65 66 134
0.285618 0.424066 -0.118509 68 1 84
0.530895 0.205015 0.087943 68 57 130
0.186212 -0.209983 -0.188748 72 34 115
0.053748 0.440436 -0.240694 68 1 84
0.642588 -0.139127 0.335661 68 1 84
-0.401745 0.297513 -0.055954 68 1 84
0.486349 0.284795 0.038927 68 1 84
-0.680049 -0.445319 0.319231 68 1 84
-0.173835 -0.061695 -0.221981 59 80 138
-0.029368 -0.544671 -0.325959 47 106 141
0.612497 -0.307974 0.180605 68 1 84
0.488078 -0.232897 -0.049558 68 1 84
-0.068703 0.652256 -0.112791 68 1 84
0.489048 -0.270371 -0.035900 68 1 84
-0.412128 -0.014501 -0.099652 71 39 119
-0.656628 -0.366993 0.171264 68 1 84
-0.322608 0.586573 0.168487 68 1 84
0.571255 -0.580734 0.142605 65 65 134
0.363170 0.425938 -0.040412 68 1 84
0.637165 -0.049717 0.302297 68 1 84
0.619393 0.129122 0.381255 68 1 84
0.551238 0.088864 0.099661 72 26 108
-0.317905 0.173344 -0.157751 77 194 107
-0.662960 -0.169061 0.304691 68 1 84
-0.674566 -0.406410 0.237508 68 1 84
-0.296493 0.216394 -0.160150 35 135 141
0.359991 -0.066281 -0.134471 69 6 90
-0.358525 -0.399915 -0.215197 68 1 84
-0.344073 0.139985 -0.143928 51 182 121
-0.430509 0.273408 -0.028239 44 113 142
-0.570677 -0.009960 0.085338 68 1 84
0.641631 -0.037182 0.445026 68 1 84
0.036880 0.289895 -0.314685 36 170 130
0.242246 0.359802 -0.176132 68 1 84
0.282271 0.155201 -0.187707 69 5 88
-0.300659 0.568798 0.057358 68 1 84
0.187811 0.272319 -0.232099 48 103 141
-0.690098 -0.282175 0.360702 68 1 84
-0.541844 -0.041462 0.024289 69 8 91
0.241261 0.011792 -0.204126 67 60 132
0.281698 0.573537 -0.036494 68 1 84
-0.457157 -0.019572 -0.060354 65 66 134
-0.680887 -0.528192 0.332427 68 1 84
0.526065 -0.196610 -0.011452 68 1 84
0.141824 -0.070023 -0.272919 38 129 142
-0.107612 -0.042116 -0.341857 35 135 141
0.399163 -0.008653 -0.097187 43 115 142
-0.177173 0.150382 -0.264585 131 211 75
0.460826 0.046764 -0.027722 66 62 133
0.579210 0.257250 0.541794 68 1 84
0.369660 0.547749 0.118031 68 1 84
-0.466228 0.355877 0.056977 68 1 84
-0.511687 -0.099301 -0.045342 68 1 84
0.528449 0.258764 0.108158 68 1 84
-0.571549 0.239791 0.205869 68 1 84
0.268394 0.605331 0.021400 68 1 84
0.471044 0.427363 0.341384 68 1 84
0.100120 -0.002205 -0.374984 36 133 141
0.639460 -0.009910 0.356442 68 1 84
-0.151823 -0.515497 -0.310076 70 48 125
0.163520 -0.081567 -0.230722 46 108 142
-0.655805 0.098078 0.479182 68 1 84
0.137604 0.472576 -0.194534 68 1 84
-0.136129 0.027490 -0.278153 33 166 133
0.078338 -0.172014 -0.355880 31 162 134
-0.246973 0.598319 0.028974 68 1 84
0.649727 -0.530482 0.532030 68 1 84
0.557709 -0.193963 0.047684 68 1 84
-0.658854 -0.186834 0.267741 68 1 84
-0.687298 -0.428268 0.324364 68 1 84
-0.346926 -0.339231 -0.171735 68 1 84
0.560504 -0.371696 0.072077 68 1 84
-0.058165 -0.299621 -0.330394 71 24 106
-0.077088 0.442605 -0.238817 68 1 84
-0.043642 0.140970 -0.326692 167 219 51
0.631281 -0.030585 0.280082 68 1 84
-0.669467 -0.138775 0.428441 68 1 84
-0.665104 -0.206317 0.294812 68 1 84
-0.078050 -0.278845 -0.297170 66 61 132
0.442349 0.401442 0.049803 68 1 84
0.604075 0.101034 0.261038 68 1 84
-0.313290 -0.414039 -0.238877 68 1 84
-0.157036 0.190682 -0.285205 167 219 51
-0.624066 -0.482845 0.106864 68 1 84
0.376377 0.256874 -0.108235 68 1 84
0.165029 -0.036717 -0.279918 44 114 142
-0.557535 0.291270 0.216769 68 1 84
0.339250 0.289050 -0.123070 68 1 84
0.129012 0.625194 -0.160075 68 1 84
-0.442192 0.387780 0.044463 68 1 84
-0.617462 -0.018812 0.193196 68 1 84
-0.706468 -0.373404 0.384070 68 1 84
0.048522 -0.139995 -0.431677 31 163 134
0.174625 0.401655 -0.227456 68 1 84
-0.679832 -0.263339 0.504108 68 1 84
0.118082 -0.235738 -0.237265 60 78 138
0.578112 -0.284432 0.089998 68 1 84
0.120821 -0.079155 -0.348155 30 158 136
-0.021233 0.046840 -0.385772 32 164 133
-0.235205 0.284500 -0.197228 57 84 139
-0.575092 -0.412156 0.010253 68 1 84
-0.126895 0.221921 -0.303868 165 218 53
0.512679 0.130981 0.034387 72 32 113
0.272105 -0.576772 -0.292179 48 103 141
0.039493 0.358090 -0.313287 66 190 113
0.171384 0.288805 -0.240162 46 109 142
0.505724 -0.502005 -0.001110 68 1 84
0.136349 0.233050 -0.298371 141 214 68
0.437161 0.035000 -0.051951 42 117 142
-0.432304 -0.343481 -0.115273 68 1 84
-0.061036 -0.148127 -0.381642 61 74 137
0.439041 0.377206 0.025600 68 1 84
0.608587 -0.053962 0.566740 68 1 84
-0.315511 -0.309884 -0.176466 68 1 84
-0.620232 -0.488646 0.098736 68 1 84
-0.072954 -0.306584 -0.301248 69 54 129
0.404521 0.282612 -0.078342 68 1 84
-0.483213 0.394465 0.137661 68 1 84
0.538544 -0.053488 0.039603 68 1 84
0.160911 0.245320 -0.275555 91 200 98
0.294524 0.037189 -0.186144 42 176 126
-0.010852 -0.406799 -0.306726 54 90 140
0.512769 0.249280 0.067608 68 1 84
0.322821 0.429567 -0.081297 68 1 84
-0.201582 -0.109043 -0.210696 54 91 140
0.174559 -0.335057 -0.183459 71 24 106
0.237584 0.147909 -0.228070 30 156 137
0.633251 0.049661 0.371258 68 1 84
0.355748 -0.017992 -0.137398 62 73 137
0.622046 -0.118497 0.575786 68 1 84
0.576267 -0.046145 0.112342 71 22 105
0.115589 -0.187888 -0.256965 55 88 140
-0.359858 -0.257455 -0.149079 68 1 84
-0.594877 0.285416 0.357287 68 1 84
0.325661 -0.307867 -0.153518 68 1 84
-0.293328 0.090660 -0.179846 100 203 93
-0.485791 0.158303 0.013066 68 1 84
-0.292674 0.600537 0.140656 68 1 84
-0.693085 -0.521718 0.439069 68 1 84
-0.173516 0.494419 -0.156088 68 1 84
-0.529710 0.363179 0.246623 68 1 84
-0.130870 -0.241885 -0.240177 68 1 84
0.052445 -0.276370 -0.298386 40 122 142
0.648160 -0.448537 0.409982 68 1 84
0.596582 -0.193964 0.162217 71 17 99
0.573083 -0.519942 0.139366 68 1 84
0.612061 -0.066628 0.581933 68 1 84
0.591481 -0.097204 0.147040 68 1 84
-0.514581 0.319757 0.130880 68 1 84
-0.590811 -0.079497 0.104764 68 1 84
-0.273895 -0.457098 -0.242772 68 1 84
0.402069 -0.402593 -0.150215 68 1 84
0.478545 -0.311133 -0.031217 68 1 84
-0.544023 -0.465310 -0.053013 68 1 84
0.016900 -0.084698 -0.471562 48 180 122
-0.577328 0.231268 0.215926 68 1 84
-0.292065 0.249776 -0.164484 40 122 142
-0.286338 -0.064476 -0.181063 36 132 141
0.540192 0.325360 0.240608 68 1 84
0.299246 -0.265531 -0.158676 72 25 107
0.560135 0.309342 0.403999 68 1 84
-0.455930 0.431199 0.110470 68 1 84
-0.342538 -0.413879 -0.238894 68 1 84
0.031011 -0.398315 -0.244208 51 96 141
-0.505838 -0.468308 -0.116035 68 1 84
0.246986 -0.358422 -0.181438 68 1 84
0.157458 0.064335 -0.238427 72 29 111
0.137477 0.429919 -0.227164 68 1 84
0.133833 -0.031810 -0.372601 34 167 132
-0.511941 -0.362059 -0.056743 68 1 84
0.366197 0.531444 0.070827 68 1 84
-0.669137 -0.145642 0.424104 68 1 84
-0.598858 -0.204963 0.066070 68 1 84
0.590075 -0.330639 0.115410 68 1 84
0.026665 -0.255092 -0.374782 35 135 141
-0.347946 -0.403643 -0.222079 68 1 84
0.324531 0.333969 -0.123646 68 1 84
-0.593825 0.289199 0.359540 68 1 84
0.344649 0.397099 -0.076533 68 1 84
-0.140599 0.053569 -0.235184 126 210 78
-0.539699 0.331916 0.220471 68 1 84
0.277345 0.222798 -0.203980 71 44 123
0.298042 -0.310002 -0.168839 72 25 107
-0.634009 0.058466 0.281376 68 1 84
0.622112 0.026428 0.511872 68 1 84
0.090606 -0.363882 -0.185113 72 25 107
0.025807 -0.155699 -0.430099 79 195 105
0.637986 -0.212181 0.323865 68 1 84
-0.333954 -0.315635 -0.174045 68 1 84
-0.132661 -0.194862 -0.249524 69 52 127
0.191778 0.269707 -0.231482 51 97 141
0.005050 0.338073 -0.325669 170 219 50
0.291422 0.354720 -0.138044 68 1 84
0.552698 0.317369 0.500764 68 1 84
-0.171234 -0.558183 -0.321773 72 34 115
-0.498431 -0.375798 -0.084511 68 1 84
0.592506 0.025404 0.182270 68 1 84
0.358185 -0.078021 -0.135394 71 20 102
-0.413067 0.381857 0.005968 68 1 84
-0.591582 0.021506 0.144272 68 1 84
0.076697 0.008219 -0.312673 41 175 127
0.631795 -0.350978 0.393443 68 1 84
-0.693679 -0.289285 0.369945 68 1 84
0.412333 0.505025 0.137101 68 1 84
0.639875 0.015047 0.445042 68 1 84
0.314716 -0.014615 -0.168615 70 49 126
0.315306 0.577076 0.064183 68 1 84
0.402166 0.515387 0.129873 68 1 84
-0.064019 -0.476554 -0.305684 65 65 134
-0.008157 0.536499 -0.260505 58 82 139
-0.199781 0.014233 -0.204979 50 181 122
-0.297022 0.593306 0.114985 68 1 84
0.639975 -0.131656 0.304569 68 1 84
0.117439 0.353071 -0.288560 55 89 140
-0.075551 -0.113757 -0.364635 49 102 141
0.158184 -0.120006 -0.231556 49 101 141
-0.246624 0.388024 -0.151461 71 42 121
-0.572342 0.149837 0.153030 68 1 84
0.041172 0.258893 -0.308142 34 137 141
0.476666 -0.412318 -0.053946 68 1 84
0.187535 0.660454 -0.057222 68 1 84
0.599133 -0.340192 0.136618 68 1 84
0.633851 -0.078136 0.486479 68 1 84
0.271836 -0.358214 -0.177764 68 1 84
-0.263318 -0.320525 -0.182305 68 1 84
-0.050105 0.018294 -0.390239 39 173 128
-0.146656 -0.259180 -0.217847 68 1 84
0.099009 -0.147291 -0.322497 50 99 141
0.458479 -0.439315 -0.096158 68 1 84
0.493791 -0.425664 -0.028542 68 1 84
0.605278 -0.012900 0.583850 68 1 84
-0.662519 -0.012262 0.508384 68 1 84
0.427585 0.260079 -0.056815 68 1 84
0.507226 -0.317405 -0.005400 68 1 84
-0.164645 -0.458728 -0.214649 68 1 84
0.117821 0.498018 -0.205290 68 1 84
0.586791 -0.472746 0.147190 68 1 84
0.247852 0.063815 -0.202488 66 64 133
-0.688174 -0.383782 0.256094 68 1 84
-0.068756 -0.144721 -0.366512 60 77 138
0.083691 -0.059731 -0.458081 38 128 142
-0.037358 0.612305 -0.207095 68 1 84
-0.014260 -0.217202 -0.395239 45 110 142
-0.416693 0.169074 -0.060413 45 110 142
0.203942 -0.069880 -0.211651 70 48 125
0.634522 -0.252066 0.380854 68 1 84
-0.046707 0.418466 -0.266651 68 1 84
0.405623 -0.480026 -0.187576 68 1 84
-0.084188 0.165544 -0.319362 136 213 71
-0.380128 0.542001 0.163802 68 1 84
0.269185 0.581184 -0.052667 68 1 84
-0.424596 -0.384677 -0.172785 68 1 84
-0.626583 -0.255754 0.107964 68 1 84
-0.155447 -0.073635 -0.232592 32 144 140
0.577637 -0.418761 0.108296 68 1 84
-0.396799 0.261310 -0.074422 46 107 142
-0.396977 0.360827 -0.025931 68 1 84
-0.686446 -0.276603 0.380380 68 1 84
-0.672839 -0.276715 0.466429 68 1 84
-0.410647 -0.264625 -0.120055 68 1 84
0.224857 -0.246618 -0.176291 72 33 114
0.215349 0.143983 -0.243048 59 186 117
0.036918 0.044951 -0.442345 33 167 132
-0.687328 -0.478505 0.412518 68 1 84
-0.629593 -0.124751 0.193217 68 1 84
-0.644784 0.155400 0.488060 68 1 84
0.200357 0.603718 -0.136304 68 1 84
-0.511505 -0.452514 -0.101761 68 1 84
-0.025996 0.558312 -0.252821 72 28 110
0.492768 0.397718 0.218314 68 1 84
-0.619563 -0.470929 0.094756 68 1 84
-0.112127 0.049235 -0.260203 146 215 65
-0.387326 -0.122721 -0.135253 68 1 84
0.372296 -0.307792 -0.118290 68 1 84
-0.337496 -0.367527 -0.175058 68 1 84
-0.668609 -0.143682 0.374099 68 1 84
-0.096577 -0.039820 -0.360265 31 150 139
-0.679756 -0.265821 0.314171 68 1 84
-0.696492 -0.527565 0.486307 68 1 84
0.611182 0.166791 0.385132 68 1 84
-0.631747 -0.187350 0.160973 68 1 84
0.033061 -0.422560 -0.237089 42 118 142
-0.205276 0.630610 -0.011366 68 1 84
0.626422 -0.014430 0.266626 68 1 84
0.529427 0.352728 0.411322 68 1 84
0.012347 0.648330 -0.160012 68 1 84
0.171887 -0.142839 -0.215599 47 105 141
-0.464797 -0.420785 -0.153877 68 1 84
0.573028 0.278625 0.521070 68 1 84
-0.174696 0.650112 -0.021240 68 1 84
-0.171014 0.568667 -0.140467 68 1 84
0.292517 -0.416952 -0.196700 71 21 103
-0.129520 0.367869 -0.274530 53 92 140
0.279685 -0.493866 -0.264935 70 11 94
-0.517776 0.205830 0.069956 68 1 84
-0.657616 -0.275312 0.188217 68 1 84
-0.674228 -0.307596 0.230751 68 1 84
0.174043 0.151351 -0.271757 30 157 136
0.313889 -0.058101 -0.164419 68 1 84
-0.376875 0.543169 0.147630 68 1 84
-0.573895 0.204774 0.185349 68 1 84
0.376291 0.543837 0.128281 68 1 84
0.532394 0.183053 0.083860 68 1 84
0.203406 0.329180 -0.215503 58 82 139
-0.517000 0.375528 0.227673 68 1 84
0.478679 0.413486 0.176089 68 1 84
0.628881 -0.291313 0.422379 68 1 84
-0.622766 0.134323 0.303282 68 1 84
0.444296 -0.226613 -0.080488 68 1 84
-0.399009 -0.263351 -0.128249 68 1 84
0.252383 -0.179572 -0.163434 68 1 84
-0.042094 0.013745 -0.316414 68 57 130
-0.173703 -0.098392 -0.224949 37 131 141
-0.247130 0.426158 -0.125824 68 1 84
0.099023 -0.006166 -0.423744 30 157 136
-0.506696 -0.062116 -0.034137 68 1 84
-0.613311 -0.063043 0.168672 68 1 84
0.178053 -0.101461 -0.219837 52 94 141
0.582677 -0.576297 0.169530 72 30 112
0.634438 -0.274507 0.365300 68 1 84
-0.682243 -0.462576 0.348333 68 1 84
-0.666657 -0.034403 0.489321 68 1 84
-0.384770 0.065771 -0.105809 66 62 133
-0.698275 -0.299800 0.339781 68 1 84
-0.640012 -0.266351 0.139032 68 1 84
0.024513 -0.419604 -0.265392 70 14 97
0.613822 -0.029251 0.222134 68 1 84
-0.026093 0.472395 -0.257706 65 66 134
0.501900 0.387258 0.418736 68 1 84
-0.647936 -0.151982 0.242951 68 1 84
-0.358107 -0.425586 -0.234532 68 1 84
0.142032 0.467724 -0.195084 68 1 84
-0.231393 0.593704 -0.036807 68 1 84
0.155184 0.321692 -0.263045 46 109 142
-0.542514 0.378964 0.376414 68 1 84
-0.121053 0.435520 -0.227371 68 1 84
-0.593558 0.132603 0.201027 68 1 84
0.232717 -0.484624 -0.264643 58 83 139
0.240750 0.241109 -0.224135 40 122 142
0.374029 -0.114465 -0.126464 68 1 84
0.641746 -0.121572 0.425239 68 1 84
0.610378 -0.225063 0.202746 68 1 84
0.626069 -0.266659 0.500311 68 1 84
-0.221598 0.291182 -0.197537 56 87 140
0.511512 -0.085527 -0.003654 69 5 88
0.633579 -0.454709 0.334138 68 1 84
-0.344813 -0.471249 -0.245362 68 1 84
-0.669550 -0.382351 0.209069 68 1 84
-0.487947 -0.403929 -0.115745 68 1 84
-0.062992 0.140814 -0.323201 154 216 60
-0.606965 0.200852 0.302216 68 1 84
-0.446984 0.165611 -0.028082 66 64 133
-0.518229 -0.133066 -0.045878 68 1 84
-0.702325 -0.315297 0.320016 68 1 84
0.646614 -0.402736 0.269604 68 1 84
0.325985 -0.550687 -0.264675 69 53 128
0.486722 0.355488 0.088733 68 1 84
0.178104 0.071207 -0.232075 48 104 141
-0.352315 0.171785 -0.134951 33 166 133
0.623187 -0.205994 0.244748 68 1 84
0.358898 0.445831 -0.031698 68 1 84
0.233107 0.581432 -0.113346 68 1 84
-0.030475 0.171787 -0.328600 131 211 75
0.224801 0.552186 -0.133890 68 1 84
-0.638422 -0.293775 0.126908 68 1 84
-0.659329 0.080187 0.458152 68 1 84
0.556397 -0.049411 0.069412 70 12 95
-0.185451 -0.156329 -0.215353 55 88 140
0.365536 0.046878 -0.129673 46 109 142
0.294723 0.496581 -0.075775 68 1 84
-0.146191 0.425350 -0.225583 71 37 117
-0.477839 0.414581 0.158961 68 1 84
0.403416 -0.455857 -0.187898 68 1 84
-0.471393 0.438592 0.226518 68 1 84
0.240490 -0.294519 -0.180789 68 1 84
-0.668052 -0.164021 0.358330 68 1 84
-0.341677 0.329075 -0.102363 68 1 84
-0.476823 -0.076058 -0.070321 68 1 84
