ply
format ascii 1.0
element vertex 1268
property float x
property float y
property float z
property uchar red
property uchar green
property uchar blue
end_header
0.527733 -0.048327 0.008453 31 146 140
0.238254 -0.490681 -0.217645 72 25 107
-0.648774 -0.357171 0.437506 55 89 140
0.194713 -0.474398 -0.216750 70 9 92
0.107196 0.134147 -0.289778 68 1 84
-0.557715 -0.229662 0.060330 70 49 126
0.135241 -0.202228 -0.266669 68 1 84
0.111026 0.473562 -0.188953 71 21 103
-0.301936 0.424402 -0.054350 59 81 138
0.241580 0.296318 -0.125638 68 1 84
-0.314272 -0.028707 -0.211324 68 1 84
0.504949 -0.271315 -0.008484 44 177 125
0.658822 -0.503915 0.480327 154 216 60
-0.478381 0.399278 0.212445 68 1 84
0.188172 0.533302 -0.118327 61 75 137
-0.343534 -0.497482 -0.164963 68 1 84
0.209081 0.126122 -0.214168 68 1 84
0.505791 -0.019146 -0.010477 32 143 140
-0.467523 -0.279067 -0.028828 63 69 135
0.012745 -0.241664 -0.397796 68 1 84
-0.175493 0.223655 -0.226983 68 1 84
-0.299013 0.117783 -0.185804 68 1 84
-0.060989 -0.273933 -0.301511 68 1 84
-0.303721 -0.567276 -0.224412 68 1 84
-0.333350 0.454809 -0.019654 68 2 85
-0.244788 0.391571 -0.105973 72 34 115
0.123865 -0.081344 -0.389755 68 1 84
0.406916 -0.136827 -0.139100 39 125 142
0.253796 0.195974 -0.175785 68 1 84
-0.584587 -0.434093 0.174603 56 86 139
0.294578 -0.101453 -0.188592 67 59 131
0.541381 0.005807 0.066660 49 101 141
-0.036091 -0.087250 -0.467391 68 1 84
-0.112769 -0.100800 -0.332013 68 1 84
0.163629 -0.025543 -0.231550 68 1 84
-0.324195 0.019222 -0.201816 68 1 84
0.379593 0.489235 0.063559 68 1 84
0.022636 -0.004379 -0.402050 68 1 84
-0.547741 -0.024752 0.121607 63 69 135
-0.443327 0.199078 -0.025623 68 1 84
0.328432 0.559481 0.097640 68 1 84
0.026324 -0.017404 -0.427577 68 1 84
-0.216600 0.081333 -0.207125 68 1 84
0.587688 0.117086 0.487649 49 101 141
0.488743 0.283817 0.106693 71 21 103
0.019789 -0.516609 -0.289768 68 1 84
0.144696 0.309033 -0.224545 68 1 84
-0.025625 0.250881 -0.278079 68 1 84
-0.085796 0.300406 -0.274004 68 1 84
0.464516 0.413660 0.160811 68 1 84
-0.521198 0.124227 0.119848 69 53 128
0.392764 0.341471 -0.018747 68 1 84
0.179956 -0.406660 -0.162627 69 52 127
-0.614014 0.017310 0.378445 68 1 84
-0.007933 0.433323 -0.247663 68 3 87
-0.227639 0.245024 -0.156960 68 1 84
0.148015 0.491108 -0.154602 55 89 140
-0.335923 0.195948 -0.137860 68 1 84
0.654303 -0.324498 0.481581 114 207 85
0.034311 0.025494 -0.328958 68 1 84
-0.105977 0.148458 -0.294560 68 1 84
0.357319 -0.433915 -0.166636 53 92 140
0.594821 0.160908 0.428499 63 69 135
0.431892 0.468680 0.181266 68 1 84
0.397885 -0.324250 -0.112948 38 129 142
0.019833 0.186552 -0.326968 68 1 84
-0.095847 0.519428 -0.232690 70 45 124
0.424606 0.470908 0.131133 68 1 84
-0.458412 -0.131400 -0.089260 72 26 108
0.334564 -0.390635 -0.140713 45 110 142
0.600784 -0.030772 0.250795 38 128 142
-0.415275 0.226945 -0.057259 69 8 91
-0.359983 -0.263320 -0.133710 68 2 85
0.568286 -0.068676 0.092572 32 145 140
-0.622898 -0.073178 0.384718 69 6 90
0.504668 -0.556624 -0.040156 35 135 141
-0.551360 -0.199510 0.042529 65 66 134
0.657305 -0.542811 0.494318 62 188 115
-0.554123 0.255232 0.297591 68 1 84
-0.320461 -0.043879 -0.208974 68 3 87
0.322888 -0.583055 -0.233771 71 15 98
0.364380 0.448928 0.015884 68 1 84
-0.335430 -0.097655 -0.193772 70 11 94
-0.065979 -0.194546 -0.361596 68 1 84
0.291034 0.565223 0.042297 68 1 84
0.505325 0.302856 0.150742 68 1 84
-0.173678 0.183991 -0.252123 68 1 84
0.512389 0.351306 0.359227 68 1 84
0.283284 -0.119365 -0.187767 66 64 133
0.187213 -0.075251 -0.213767 68 1 84
0.351109 -0.349304 -0.133458 43 116 142
0.629440 -0.075427 0.446576 31 149 139
-0.567217 -0.484920 0.158926 55 88 140
0.317834 0.544189 0.044218 68 1 84
0.057093 -0.485752 -0.277606 68 2 85
0.220764 0.608100 0.012885 68 1 84
-0.186933 -0.554204 -0.271713 68 1 84
-0.599673 0.117064 0.376707 68 2 85
0.188528 0.613201 -0.058291 68 1 84
-0.655384 -0.532046 0.416300 35 137 141
0.122373 -0.146084 -0.304597 68 1 84
-0.104229 0.599400 -0.184480 71 21 103
0.063222 -0.056865 -0.451425 68 1 84
0.634514 -0.120900 0.469583 31 161 135
-0.442663 0.070261 -0.075463 68 1 84
-0.239046 -0.429588 -0.174095 68 1 84
0.366289 0.175268 -0.112028 68 1 84
0.618123 -0.104322 0.297791 31 163 134
-0.629882 -0.336231 0.303110 66 62 133
0.005395 0.343989 -0.269457 68 1 84
0.547074 0.306657 0.310392 72 34 115
-0.620613 -0.469005 0.305499 52 95 141
-0.581116 -0.445219 0.172825 57 84 139
-0.044756 -0.520590 -0.286366 68 1 84
-0.186939 0.223918 -0.214420 68 1 84
-0.486209 -0.006299 -0.021265 67 60 132
-0.406805 -0.029304 -0.142816 72 34 115
0.288544 0.551713 0.013351 68 1 84
-0.062319 -0.363160 -0.226952 68 1 84
0.609848 -0.490699 0.296485 167 219 51
-0.084745 -0.125223 -0.398086 68 1 84
-0.628983 -0.093271 0.492428 69 54 129
0.293336 0.460511 -0.036580 68 1 84
0.098841 0.456708 -0.199006 70 14 97
-0.302241 -0.304926 -0.157792 69 8 91
-0.172126 0.329386 -0.200663 68 1 84
-0.645736 -0.365011 0.389870 59 81 138
0.553823 -0.532234 0.121528 181 221 43
-0.443671 0.449281 0.139100 68 1 84
-0.401499 -0.364229 -0.075881 71 17 99
-0.212855 0.293838 -0.159818 68 1 84
-0.578818 -0.160584 0.152725 69 50 127
0.096480 -0.440197 -0.239630 68 1 84
0.600477 -0.205194 0.147650 64 189 114
-0.667119 -0.525960 0.476264 40 122 142
-0.001223 0.085447 -0.311938 68 1 84
-0.474730 -0.413216 -0.021185 69 52 127
-0.514494 0.128130 0.102361 71 38 118
0.417550 -0.368814 -0.088566 30 159 136
0.293893 0.431850 -0.045521 68 1 84
0.149696 0.536924 -0.156480 45 110 142
0.498663 0.357202 0.399781 68 1 84
0.394418 0.505226 0.234793 68 1 84
0.613748 0.008989 0.367564 52 95 141
-0.100875 -0.284007 -0.226437 68 1 84
-0.223394 0.316498 -0.151076 68 1 84
-0.306762 0.485856 -0.032087 64 67 135
0.612578 -0.492487 0.304610 194 223 34
-0.507530 0.343674 0.329886 68 1 84
0.197205 -0.451713 -0.192477 71 38 118
0.538757 0.111123 0.125617 46 107 142
0.615788 0.055417 0.440799 41 120 142
-0.262116 0.305980 -0.121248 68 3 87
-0.334260 -0.268588 -0.147221 70 11 94
-0.125923 -0.007758 -0.253497 68 1 84
0.425700 0.287387 0.001319 68 1 84
0.645441 -0.193149 0.443838 62 188 115
0.063540 0.395876 -0.236880 68 1 84
-0.216354 -0.308650 -0.173214 68 1 84
-0.381229 0.374534 -0.025596 68 1 84
-0.255469 -0.291236 -0.169933 68 1 84
0.261651 -0.157820 -0.182342 62 73 137
0.516711 0.333632 0.405667 69 53 128
-0.159557 -0.041807 -0.217801 68 1 84
0.077121 -0.378891 -0.243397 68 1 84
-0.087174 0.128790 -0.298367 68 1 84
0.174602 0.576292 -0.121220 68 1 84
-0.583604 0.170292 0.316251 68 1 84
-0.112350 0.370726 -0.229773 68 1 84
0.644935 -0.233734 0.381345 119 208 82
-0.298628 0.428531 -0.055584 52 94 141
-0.183697 0.416446 -0.147212 71 17 99
-0.635129 -0.218915 0.465519 71 38 118
-0.523641 -0.402576 0.046631 66 62 133
0.593067 -0.094209 0.184209 32 144 140
0.215141 0.554470 -0.081555 68 1 84
0.048717 0.529422 -0.235104 68 1 84
-0.098816 -0.349554 -0.178551 70 12 95
0.451111 0.103259 -0.051134 70 11 94
-0.238544 0.594867 0.019299 68 1 84
-0.290819 0.392425 -0.072732 68 55 129
-0.362851 -0.412254 -0.119349 68 1 84
0.472535 0.101437 -0.014853 71 43 122
0.624395 -0.208206 0.254656 30 155 137
0.315276 -0.287107 -0.156438 54 91 140
0.436514 0.148707 -0.055485 68 1 84
-0.532029 0.272261 0.487784 68 1 84
0.483462 -0.522260 -0.100403 35 168 131
0.319328 0.115415 -0.165481 68 1 84
-0.507080 -0.196223 -0.031588 70 47 124
-0.240826 0.383607 -0.113277 71 40 120
-0.347946 0.378789 -0.046601 71 20 102
0.313764 -0.133036 -0.173469 56 87 140
-0.622828 -0.129599 0.378597 69 50 127
0.278481 0.211493 -0.156249 68 1 84
-0.441565 -0.089801 -0.106468 71 20 102
0.392084 -0.047391 -0.144086 71 42 121
-0.612664 -0.094327 0.322996 71 40 120
-0.362876 -0.309961 -0.126893 70 9 92
-0.532107 -0.225003 0.007857 67 60 132
-0.027360 -0.333154 -0.309781 68 1 84
0.145609 0.164144 -0.267651 68 1 84
-0.557117 0.154476 0.211832 71 17 99
0.619016 -0.052879 0.510740 30 153 138
-0.213959 -0.231296 -0.180894 68 1 84
-0.624560 -0.035594 0.438853 71 24 106
0.510325 -0.111172 -0.039097 38 128 142
-0.198055 -0.008200 -0.207957 68 1 84
0.019162 -0.421669 -0.275558 68 1 84
0.117674 -0.141239 -0.346658 68 1 84
0.291647 -0.115659 -0.185220 62 73 137
-0.540351 -0.122563 0.037864 68 3 87
-0.046942 0.060892 -0.306230 68 1 84
0.542467 0.125069 0.140788 66 61 132
-0.203529 0.618557 0.009143 68 1 84
-0.586495 0.141143 0.302763 68 1 84
-0.210123 -0.472793 -0.201172 68 1 84
0.554981 0.285477 0.270628 67 59 131
0.449283 0.239637 0.013810 68 1 84
0.627122 -0.079758 0.500266 34 138 141
0.256220 -0.488917 -0.210557 71 18 101
-0.321529 -0.084637 -0.202640 69 5 88
0.218014 -0.482461 -0.216953 72 29 111
-0.538113 -0.209923 0.015321 67 59 131
0.418442 0.416067 0.055638 68 1 84
-0.583382 0.135444 0.499190 68 1 84
0.565649 -0.459607 0.138863 165 218 53
-0.064365 -0.215567 -0.343294 68 1 84
-0.586357 -0.553216 0.232005 45 110 142
-0.033810 -0.309169 -0.320335 68 1 84
-0.632385 -0.160543 0.481783 62 72 136
-0.109121 0.068177 -0.266836 68 1 84
0.530858 0.032071 0.060459 46 107 142
-0.492038 0.074966 0.014102 68 1 84
0.266328 0.593020 0.077216 68 1 84
-0.245407 -0.434373 -0.177990 68 1 84
0.216916 -0.155023 -0.203370 66 64 133
-0.424675 0.372158 0.023403 70 12 95
0.621116 -0.323513 0.205246 165 218 53
0.508073 -0.241393 -0.023272 33 166 133
-0.483439 -0.211855 -0.052655 64 67 135
0.453680 -0.148822 -0.105434 51 96 141
-0.135258 -0.411839 -0.178759 68 1 84
-0.530409 -0.243605 0.011242 64 67 135
0.571160 0.233298 0.424972 66 62 133
0.581712 0.196233 0.441583 66 64 133
-0.578198 -0.030378 0.224714 71 17 99
0.009298 -0.313020 -0.341479 68 1 84
0.222343 0.506347 -0.087520 71 38 118
0.649907 -0.322421 0.383604 197 223 33
0.009758 -0.004806 -0.414829 68 1 84
0.636801 -0.158625 0.413391 50 181 122
0.621983 -0.316328 0.206470 186 222 39
-0.402644 -0.503232 -0.134487 68 1 84
0.486520 0.114138 0.016545 70 49 126
-0.170500 0.467354 -0.159747 71 15 98
0.135276 -0.106741 -0.319361 68 1 84
-0.507966 0.188222 0.111997 72 35 116
0.616878 -0.138531 0.258099 37 171 129
0.645562 -0.196875 0.436605 62 188 115
0.612905 -0.413712 0.245788 81 196 104
0.413978 0.315886 -0.002273 68 1 84
-0.094316 0.515002 -0.233727 69 50 127
0.061953 0.504661 -0.233354 68 1 84
-0.210096 -0.473892 -0.201835 68 1 84
-0.566076 -0.114359 0.125136 69 52 127
-0.287093 -0.447789 -0.183521 68 1 84
-0.391553 0.167195 -0.109852 68 1 84
-0.625410 -0.108575 0.403290 70 47 124
0.250330 0.488942 -0.065215 68 1 84
0.623524 -0.117304 0.348872 54 184 119
0.078986 0.465198 -0.219252 68 1 84
-0.145325 -0.294973 -0.176418 68 3 87
-0.349219 0.016403 -0.188481 68 1 84
-0.484568 -0.267628 -0.023724 64 67 135
0.649997 -0.522256 0.440806 183 221 41
0.157368 0.555366 -0.146102 51 96 141
-0.497734 -0.392976 0.014339 68 57 130
0.613384 -0.506178 0.308135 207 225 28
-0.519788 0.315478 0.209756 68 1 84
-0.243806 0.483572 -0.088175 53 93 140
-0.267535 0.047841 -0.205960 68 1 84
-0.375675 -0.402930 -0.099922 71 15 98
0.619889 -0.543606 0.340598 205 224 29
0.188640 0.358236 -0.161211 68 1 84
-0.555537 -0.476800 0.125052 51 96 141
0.537060 0.070665 0.098052 44 114 142
0.161584 -0.007767 -0.216699 68 1 84
0.553401 0.237606 0.217086 72 35 116
0.027756 0.200303 -0.323625 68 1 84
-0.219339 -0.157686 -0.209075 68 1 84
0.144088 0.108003 -0.258243 68 1 84
-0.227635 0.134509 -0.207468 68 1 84
0.088585 0.656065 -0.107817 68 1 84
-0.516148 0.185151 0.131839 71 38 118
0.263175 -0.000726 -0.199406 68 1 84
-0.364127 -0.175545 -0.159193 68 1 84
-0.086208 0.231207 -0.267214 68 1 84
0.648167 -0.204345 0.549906 31 163 134
0.511227 0.052436 0.033053 58 83 139
-0.623125 -0.247184 0.280231 71 43 122
0.580214 0.151941 0.241761 49 101 141
0.363790 0.353801 -0.043349 68 1 84
-0.089861 0.339566 -0.257441 68 1 84
0.571962 -0.123259 0.062779 35 168 131
-0.435040 0.465463 0.191620 68 1 84
0.428944 0.343392 0.030726 68 1 84
-0.244411 0.519631 -0.081152 71 39 119
-0.077544 -0.136586 -0.406579 68 1 84
0.525720 0.251849 0.165396 72 34 115
0.529886 -0.414513 0.018247 66 190 113
0.054360 -0.028357 -0.423343 68 1 84
0.438009 0.442034 0.296805 68 1 84
0.560279 -0.468353 0.125082 181 221 43
0.585186 -0.099752 0.140738 37 171 129
0.303491 0.179521 -0.150794 68 1 84
-0.638583 -0.270396 0.487172 64 67 135
-0.448782 -0.538371 -0.104385 68 2 85
-0.551390 -0.577222 0.144682 44 112 142
0.050450 0.099374 -0.310622 68 1 84
-0.481975 -0.515238 -0.061577 70 11 94
-0.533856 0.079211 0.129126 72 30 112
0.484808 0.001203 -0.033074 50 98 141
-0.520898 0.324085 0.232938 72 28 110
-0.348758 -0.119887 -0.182765 71 15 98
0.492721 -0.536481 -0.073853 31 162 134
0.496657 0.313280 0.136831 71 39 119
-0.161284 0.238070 -0.218285 68 1 84
-0.570982 -0.163115 0.108537 66 64 133
-0.012741 0.310538 -0.286554 68 1 84
0.599358 0.155328 0.354722 58 82 139
0.143496 -0.375087 -0.164984 67 59 131
-0.647969 -0.366023 0.414949 45 110 142
0.104376 0.267448 -0.249716 68 1 84
-0.095996 0.305394 -0.267662 68 1 84
-0.496499 0.318925 0.133253 68 1 84
0.415325 0.479718 0.244405 68 1 84
-0.155843 0.378807 -0.192620 68 1 84
-0.484311 0.087641 0.002623 68 1 84
-0.500869 0.179430 0.089469 70 9 92
0.036194 0.123734 -0.314627 68 1 84
0.478768 -0.131942 -0.080294 54 90 140
0.658409 -0.431107 0.459693 238 229 27
-0.488767 0.378119 0.193238 68 1 84
-0.375142 0.026862 -0.167102 69 5 88
0.171052 0.359124 -0.179284 68 1 84
-0.459564 0.343073 0.064907 71 21 103
0.585486 -0.115407 0.124796 32 164 133
0.445286 -0.378006 -0.069612 30 159 136
-0.488102 -0.069911 -0.037999 69 5 88
0.498425 -0.492515 -0.076343 41 175 127
-0.600211 -0.410384 0.202504 57 85 139
-0.265676 0.543783 -0.041327 68 1 84
0.418246 0.338107 0.013869 68 1 84
-0.568626 0.186925 0.491141 68 1 84
0.186572 0.000857 -0.199611 68 1 84
0.542397 0.091393 0.125070 36 134 141
0.598743 0.008577 0.565115 33 142 140
0.144906 0.378586 -0.195439 68 1 84
0.635057 -0.120351 0.481680 38 172 129
-0.602606 0.095335 0.456264 69 5 88
0.196935 0.271619 -0.162566 68 1 84
0.329167 -0.428107 -0.173068 69 52 127
-0.387442 -0.542701 -0.160959 68 1 84
-0.174494 -0.215593 -0.198768 68 1 84
-0.066371 -0.025069 -0.293886 68 1 84
-0.324825 0.145682 -0.166789 68 1 84
0.147801 0.031373 -0.229366 68 1 84
-0.294302 0.485972 -0.043106 53 93 140
0.027775 0.398539 -0.243471 68 1 84
0.598177 -0.025956 0.244753 34 138 141
0.158208 0.421358 -0.151476 71 39 119
-0.473875 0.008284 -0.039634 61 74 137
-0.555725 0.160795 0.210549 71 22 105
0.163388 -0.141681 -0.239124 68 1 84
0.333332 -0.402772 -0.147742 48 104 141
-0.443700 0.436237 0.312690 68 1 84
0.308588 0.282780 -0.097798 68 1 84
-0.307746 0.549794 0.053026 68 1 84
0.367853 -0.197660 -0.145046 43 115 142
-0.218855 0.354313 -0.147374 68 3 87
-0.130189 0.214487 -0.269032 68 1 84
0.561103 -0.347234 0.075314 48 180 122
-0.172229 0.088683 -0.235098 68 1 84
-0.575868 0.145189 0.263545 68 1 84
-0.005241 -0.295494 -0.351511 68 1 84
-0.643261 -0.314532 0.411799 66 64 133
0.633869 -0.124846 0.449511 35 168 131
-0.562672 -0.078888 0.142110 64 67 135
0.577030 0.110724 0.220619 66 62 133
0.118882 -0.110210 -0.400708 68 1 84
-0.563351 -0.036187 0.176356 72 28 110
-0.258193 0.421352 -0.085734 67 60 132
0.080573 -0.448049 -0.254923 68 1 84
0.118528 -0.113653 -0.400570 68 1 84
0.620316 -0.131662 0.295792 37 171 129
0.123212 -0.287589 -0.229069 68 1 84
-0.332546 -0.179670 -0.170633 68 1 84
-0.145121 0.585755 -0.163680 68 3 87
0.289084 0.305928 -0.096059 68 1 84
-0.533956 -0.468054 0.071222 60 77 138
0.367603 -0.247737 -0.140217 37 131 141
0.483760 0.314589 0.110801 72 26 108
0.557599 -0.443211 0.103277 175 220 46
-0.041153 -0.004495 -0.321502 68 1 84
-0.150758 -0.519058 -0.274539 68 1 84
-0.188168 -0.069153 -0.220275 68 1 84
-0.564046 -0.385176 0.108390 65 66 134
0.315985 -0.194181 -0.160878 43 116 142
-0.029201 -0.328710 -0.311739 68 1 84
-0.589912 -0.244368 0.159695 69 52 127
-0.011387 -0.449589 -0.272710 68 1 84
-0.094144 0.163688 -0.304721 68 1 84
0.115508 -0.112517 -0.410442 68 1 84
-0.630893 -0.167211 0.433015 68 57 130
0.438499 0.439192 0.320215 68 1 84
-0.121424 0.005926 -0.246376 68 1 84
0.614097 -0.485880 0.309628 183 221 41
-0.656577 -0.592340 0.431401 32 144 140
-0.492989 0.074569 0.015909 68 1 84
0.647830 -0.204356 0.554430 30 157 136
0.232820 0.607290 0.041936 68 1 84
0.348468 0.159634 -0.132313 68 1 84
-0.444089 0.007381 -0.087997 71 43 122
-0.636219 -0.242550 0.413781 71 22 105
0.639753 -0.425961 0.374551 202 224 30
-0.224597 0.178981 -0.204034 68 1 84
0.483528 -0.285296 -0.022582 57 185 118
0.553295 -0.462181 0.098234 173 220 48
0.128778 0.630839 -0.125087 68 1 84
0.094340 -0.341870 -0.234345 68 1 84
0.137813 0.202344 -0.273087 68 1 84
-0.534312 -0.020682 0.078474 68 1 84
-0.499927 0.261021 0.110569 68 1 84
0.480118 0.175720 0.038366 63 69 135
-0.486387 0.356251 0.373580 68 1 84
-0.156844 0.321004 -0.218932 68 1 84
-0.466671 0.399747 0.125134 68 1 84
0.454411 -0.386823 -0.068138 30 155 137
0.036582 -0.015850 -0.414742 68 1 84
0.585001 0.197253 0.422038 54 90 140
-0.450080 0.271353 0.015664 68 1 84
-0.538453 -0.566657 0.108670 47 106 141
0.159928 -0.343561 -0.159474 69 53 128
-0.203032 -0.374686 -0.148098 68 1 84
0.558429 0.163168 0.187034 68 55 129
0.404280 -0.188430 -0.127894 34 138 141
-0.617627 -0.254824 0.249070 71 43 122
-0.613382 0.017977 0.496667 71 21 103
-0.370184 -0.137343 -0.167138 72 28 110
0.278496 0.578910 0.052857 68 1 84
0.629460 -0.317322 0.232544 173 220 48
-0.137889 0.335288 -0.231387 68 1 84
0.186736 0.560254 -0.113744 68 3 87
-0.573330 0.209575 0.414990 68 1 84
-0.175216 0.631600 -0.046822 68 1 84
0.150549 0.124406 -0.257052 68 1 84
-0.321146 -0.163450 -0.180948 71 24 106
-0.045277 -0.121101 -0.460868 68 1 84
0.535114 0.053931 0.082203 40 122 142
-0.649459 -0.439541 0.398907 54 91 140
0.197089 0.019971 -0.197579 68 1 84
-0.587714 -0.312104 0.144075 66 62 133
-0.505654 0.345191 0.335215 68 1 84
-0.440488 0.019387 -0.090650 70 45 124
-0.157580 0.135565 -0.258682 68 1 84
-0.499360 0.361113 0.213020 68 1 84
-0.601302 -0.272185 0.184709 66 62 133
0.083618 0.563053 -0.211893 68 1 84
-0.417420 0.222991 -0.055842 68 2 85
-0.132575 -0.474883 -0.237871 68 1 84
-0.600225 -0.351580 0.172553 70 45 124
-0.544770 -0.300958 0.057390 72 26 108
-0.480418 -0.440458 -0.032997 71 37 117
0.481797 -0.127241 -0.076512 69 54 129
-0.245225 0.484459 -0.086865 53 93 140
0.110637 -0.103145 -0.421274 68 1 84
0.644973 -0.298435 0.333410 134 212 73
-0.199267 -0.556174 -0.268292 68 1 84
-0.491147 0.183408 0.063409 69 5 88
-0.493095 0.376316 0.263158 68 1 84
0.052419 0.143926 -0.317022 68 1 84
-0.625278 -0.300754 0.265048 65 65 134
0.584858 0.148753 0.256774 52 95 141
0.236292 -0.136917 -0.200458 69 50 127
0.019528 0.273762 -0.282685 68 1 84
0.630560 -0.273416 0.239488 131 211 75
0.162965 0.637274 -0.045802 68 1 84
-0.550790 -0.143055 0.054519 70 14 97
-0.241831 0.313132 -0.135336 72 34 115
-0.138820 -0.350274 -0.157529 72 35 116
0.076071 0.431782 -0.219723 68 1 84
0.593870 0.137315 0.290464 61 75 137
0.327787 -0.417849 -0.162041 57 84 139
-0.501111 -0.206630 -0.036043 64 68 135
0.399737 0.505157 0.184356 68 1 84
-0.355873 0.530523 0.099018 68 1 84
-0.236845 0.590721 -0.007951 68 1 84
0.169435 0.629429 -0.060320 68 1 84
-0.559885 0.246250 0.346896 68 1 84
-0.068984 0.230169 -0.274316 68 1 84
0.311442 0.269011 -0.102777 68 1 84
-0.184220 0.133318 -0.238693 68 1 84
-0.096483 -0.296672 -0.220517 68 1 84
-0.617463 0.013587 0.411289 69 6 90
-0.571461 0.200219 0.450994 68 1 84
0.282198 -0.525016 -0.234750 72 33 114
0.476829 0.354086 0.121524 68 1 84
-0.198900 0.304914 -0.175436 68 1 84
-0.534270 0.021498 0.102403 71 20 102
-0.517880 -0.409992 0.036657 68 55 129
0.470399 0.050173 -0.036871 53 92 140
0.426826 -0.030444 -0.111172 54 91 140
0.650623 -0.507420 0.440327 183 221 41
-0.602420 -0.059157 0.297379 71 22 105
-0.162966 -0.393757 -0.154245 68 1 84
-0.555827 0.005472 0.174918 69 6 90
0.595288 -0.203035 0.121579 83 197 103
-0.359559 -0.025091 -0.186338 68 1 84
0.139756 -0.001416 -0.256835 68 1 84
0.043790 -0.021679 -0.371360 68 1 84
-0.332528 0.247151 -0.112626 68 1 84
-0.131325 0.400497 -0.199337 68 1 84
-0.478563 0.359577 0.116986 68 1 84
-0.555566 0.002581 0.172819 71 17 99
-0.159642 0.045055 -0.227203 68 1 84
0.602838 0.069713 0.299451 61 75 137
-0.618863 -0.095935 0.352681 71 38 118
-0.598885 0.120962 0.420824 69 8 91
0.649526 -0.220235 0.553030 34 167 132
0.516399 0.310405 0.185759 72 33 114
-0.528957 -0.448671 0.054179 63 69 135
0.308164 -0.445171 -0.186664 69 52 127
0.574199 0.191098 0.477251 70 49 126
0.561361 -0.037312 0.092916 46 107 142
0.481933 -0.110094 -0.072512 62 72 136
-0.619862 -0.537309 0.293458 51 97 141
0.493942 0.367605 0.375569 68 1 84
-0.472089 0.254628 0.048629 68 1 84
0.324196 0.187335 -0.134542 68 1 84
-0.011680 0.477937 -0.251081 69 53 128
-0.053912 0.229401 -0.281180 68 1 84
-0.613360 -0.169045 0.295277 65 66 134
0.091431 0.002234 -0.283442 68 1 84
0.650075 -0.218150 0.538002 37 171 129
-0.536049 -0.019783 0.084173 71 20 102
0.053743 -0.121461 -0.471587 68 1 84
0.420953 0.374116 0.035176 68 1 84
-0.358094 0.538969 0.148703 68 1 84
-0.383122 -0.100913 -0.163764 69 8 91
-0.273102 0.112173 -0.192800 68 1 84
0.460390 0.353537 0.086556 68 1 84
-0.534493 0.301632 0.292196 68 1 84
0.029937 -0.532685 -0.290100 68 1 84
-0.034968 0.630604 -0.184482 68 1 84
0.420817 -0.079153 -0.125907 60 78 138
-0.518925 -0.503475 0.048769 62 72 136
-0.606223 -0.117481 0.285750 71 39 119
0.124315 -0.100775 -0.385918 68 1 84
-0.364088 0.527343 0.109535 68 1 84
0.169341 0.079131 -0.231814 68 1 84
0.315367 0.021792 -0.187657 68 1 84
0.576321 -0.558558 0.193016 37 171 129
0.538650 0.046690 0.086295 39 126 142
-0.132171 0.006106 -0.234653 68 1 84
0.509943 -0.259741 -0.010931 37 171 129
0.328104 0.385783 -0.046846 68 1 84
-0.010378 -0.524897 -0.289178 68 1 84
-0.550834 -0.288871 0.062596 71 44 123
0.467129 -0.535503 -0.121248 30 151 138
-0.442028 0.439387 0.307210 68 1 84
0.072819 -0.040904 -0.359586 68 1 84
0.381623 0.519100 0.227062 68 1 84
0.597392 0.026243 0.510102 44 113 142
-0.277168 0.405620 -0.076533 71 21 103
-0.457258 0.426543 0.138230 68 1 84
-0.552843 0.211466 0.228225 68 1 84
-0.523766 0.090611 0.105447 68 1 84
0.265684 -0.281204 -0.168504 70 47 124
0.090888 -0.368701 -0.227084 68 1 84
-0.287837 -0.318404 -0.159222 68 1 84
-0.220749 -0.352684 -0.156230 68 1 84
0.021786 0.500302 -0.246594 70 14 97
-0.660514 -0.422074 0.502209 44 114 142
0.318742 -0.067749 -0.185202 72 35 116
-0.185013 -0.110979 -0.226610 68 1 84
0.488177 -0.201538 -0.059815 33 140 141
-0.518873 -0.197967 -0.015747 72 28 110
0.637799 -0.148417 0.467898 43 177 125
-0.183230 0.535260 -0.146820 72 30 112
0.195390 0.110819 -0.221189 68 1 84
-0.624308 -0.195364 0.355599 68 57 130
-0.063143 -0.287593 -0.286052 68 1 84
0.437185 -0.240840 -0.089377 38 128 142
-0.131275 0.348212 -0.230278 68 1 84
-0.005012 0.096196 -0.311000 68 1 84
-0.101485 0.355534 -0.244585 68 1 84
-0.277599 0.523320 -0.043595 71 18 101
-0.132898 0.588128 -0.172445 69 5 88
0.075816 -0.010539 -0.299136 68 1 84
-0.208348 0.499664 -0.123080 72 32 113
0.068908 -0.305859 -0.308696 68 1 84
0.612957 -0.389160 0.223091 149 215 63
-0.370811 0.285557 -0.078292 68 1 84
0.607506 0.031418 0.316949 61 76 137
0.083967 0.230506 -0.269157 68 1 84
0.595778 -0.187511 0.129962 69 191 111
-0.392018 0.117602 -0.128585 68 1 84
-0.541490 -0.585059 0.116688 48 104 141
-0.499659 0.250491 0.107104 68 1 84
0.297781 -0.083999 -0.191573 65 65 134
0.171649 0.245681 -0.207551 68 1 84
0.662319 -0.477475 0.512100 119 208 82
-0.534051 0.192723 0.171629 71 39 119
0.089727 -0.043870 -0.382742 68 1 84
-0.349240 0.462712 -0.001085 70 14 97
0.552761 0.248218 0.222839 71 38 118
-0.449930 0.388062 0.077932 72 34 115
0.348923 0.417116 -0.017452 68 1 84
0.136566 -0.348341 -0.175659 72 34 115
-0.519364 -0.099146 0.005638 68 1 84
-0.504739 -0.172679 -0.035527 71 42 121
0.294303 0.570175 0.060693 70 9 92
-0.526054 -0.197841 -0.005575 71 44 123
0.414702 -0.064679 -0.128573 61 75 137
0.568164 0.239031 0.262942 71 39 119
0.516582 0.107964 0.074404 53 92 140
-0.286781 0.198191 -0.162947 68 1 84
-0.663342 -0.577891 0.475412 39 125 142
-0.266551 0.063213 -0.202890 68 1 84
0.294580 0.363632 -0.070658 68 1 84
-0.049746 -0.304912 -0.298789 68 1 84
-0.565283 -0.285734 0.090674 71 38 118
-0.225941 0.155794 -0.207179 68 1 84
0.601596 -0.376453 0.176441 154 216 60
-0.070724 -0.130015 -0.429919 68 1 84
0.133727 -0.468978 -0.246323 68 1 84
0.577481 -0.463037 0.183219 175 220 46
0.350846 -0.497924 -0.193518 50 98 141
0.393188 0.507795 0.220748 68 1 84
0.617360 0.010533 0.463512 39 124 142
0.629503 -0.215511 0.283050 42 176 126
-0.216339 0.083330 -0.207605 68 1 84
0.661077 -0.431752 0.511458 199 224 31
0.603619 0.046789 0.296419 46 107 142
0.109745 0.622977 -0.149480 64 67 135
0.347615 0.510675 0.042218 68 1 84
0.623371 -0.061794 0.497730 30 151 138
0.398000 -0.094142 -0.143841 63 71 136
-0.401750 0.503315 0.209395 68 1 84
-0.344899 0.345142 -0.063950 68 1 84
-0.433840 0.363303 0.032275 68 1 84
-0.111447 0.538738 -0.220875 71 24 106
-0.600357 -0.061519 0.286092 71 24 106
-0.490623 0.084367 0.014431 68 1 84
-0.388729 0.084610 -0.140812 68 1 84
0.092268 -0.213312 -0.332313 68 1 84
-0.501453 0.340275 0.371004 68 1 84
0.641221 -0.188262 0.396136 77 194 107
0.478733 -0.488965 -0.108489 38 172 129
-0.248198 -0.075490 -0.224682 68 1 84
-0.533472 0.112717 0.144608 69 53 128
-0.353825 -0.080755 -0.187429 68 1 84
0.257278 0.602241 0.096061 68 1 84
-0.316334 -0.094818 -0.202516 69 6 90
0.538005 -0.531367 0.065938 131 211 75
0.043602 -0.327511 -0.317288 68 1 84
0.485162 -0.404029 -0.050556 47 179 123
-0.631538 -0.132639 0.527203 72 34 115
-0.472691 0.174433 0.016290 68 1 84
-0.607002 0.077345 0.393060 71 18 101
-0.457708 0.224964 0.009980 68 1 84
-0.018737 -0.009273 -0.400720 68 1 84
0.554377 0.281103 0.390104 72 32 113
0.507207 0.354423 0.371627 68 1 84
0.139168 -0.286947 -0.208803 70 11 94
0.013965 0.125180 -0.314016 68 1 84
-0.337958 0.514362 0.027412 68 1 84
0.474160 -0.501177 -0.116141 31 162 134
0.395210 0.071755 -0.121427 71 18 101
0.207759 -0.522195 -0.268503 68 1 84
0.539158 0.317004 0.270556 68 1 84
-0.136965 0.445785 -0.189769 68 1 84
-0.609843 0.064261 0.405686 71 18 101
-0.133076 -0.103736 -0.266150 68 1 84
-0.178046 0.111007 -0.238531 68 1 84
0.435546 0.086046 -0.076565 71 21 103
-0.627060 -0.170822 0.390442 64 67 135
0.472497 -0.429724 -0.080978 36 170 130
0.623915 -0.507125 0.364147 197 223 33
-0.523402 0.323157 0.290606 68 2 85
-0.332172 0.240783 -0.115948 68 1 84
0.542664 0.299072 0.397314 71 42 121
0.087133 0.021533 -0.284092 68 1 84
-0.589327 0.160325 0.341315 68 1 84
-0.573872 -0.572723 0.206954 47 106 141
0.541709 -0.320029 0.042511 44 177 125
-0.603682 -0.365628 0.185009 67 60 132
0.383412 -0.042210 -0.150028 72 35 116
-0.112070 0.007197 -0.256516 68 1 84
-0.621766 -0.037225 0.513926 69 52 127
-0.486759 0.351569 0.411533 68 1 84
0.549226 -0.498309 0.097719 189 222 38
0.615190 -0.279625 0.182801 105 204 91
-0.021914 -0.326323 -0.319770 68 1 84
0.310337 0.574664 0.118366 68 1 84
-0.431979 0.463253 0.248665 68 1 84
-0.489489 0.349584 0.393756 68 1 84
-0.262284 0.114887 -0.194887 68 1 84
-0.366167 0.115944 -0.151992 68 1 84
0.581532 -0.540158 0.216727 87 198 101
-0.539209 0.132041 0.164554 69 54 129
0.203266 0.367542 -0.143559 68 1 84
-0.525621 0.149444 0.141822 64 67 135
0.500133 0.353473 0.410758 68 1 84
-0.575337 0.191072 0.299160 68 1 84
0.470165 0.414769 0.242308 68 1 84
-0.517063 0.304055 0.448526 68 1 84
-0.605925 0.072191 0.366827 71 18 101
0.220697 -0.382950 -0.136438 55 88 140
0.533370 -0.103627 -0.007127 33 141 140
0.275132 -0.229793 -0.167631 61 76 137
-0.569526 -0.141968 0.115991 67 59 131
0.068588 0.100898 -0.304766 68 1 84
0.045342 0.649301 -0.153793 68 1 84
0.164802 0.120226 -0.245803 68 1 84
-0.581455 0.177369 0.440210 68 1 84
0.269993 0.512318 -0.042702 71 22 105
0.218559 0.043456 -0.192449 68 1 84
0.545094 -0.324796 0.047378 46 178 124
-0.419604 0.401537 0.037177 71 15 98
-0.597139 0.126319 0.432159 69 6 90
0.314680 -0.431117 -0.176539 64 68 135
0.652215 -0.332784 0.422601 183 221 41
0.593399 -0.109791 0.174880 31 149 139
-0.570721 -0.508720 0.183759 48 103 141
-0.573735 -0.514453 0.195918 42 117 142
0.633387 -0.150300 0.375796 40 174 127
-0.104516 0.212039 -0.282771 68 1 84
-0.623634 -0.033417 0.426275 70 11 94
0.577899 -0.098019 0.104304 33 140 141
0.477887 0.202481 0.047656 68 3 87
0.591510 0.167859 0.299560 54 91 140
-0.316865 -0.319206 -0.150506 68 1 84
-0.002188 0.078700 -0.312596 68 1 84
0.175351 0.492525 -0.131160 56 87 140
-0.109008 0.597499 -0.182622 72 26 108
-0.494642 -0.261513 -0.019626 63 71 136
-0.277302 -0.365219 -0.140538 70 48 125
0.525592 -0.233787 -0.010228 31 148 139
0.567272 0.045859 0.168445 49 102 141
0.198759 -0.176821 -0.206920 69 50 127
0.407859 -0.112353 -0.138621 51 96 141
-0.634282 -0.343280 0.329694 59 81 138
-0.269805 -0.578313 -0.244274 68 1 84
-0.508057 -0.225118 -0.023857 67 58 131
-0.600436 0.076437 0.498183 69 8 91
-0.519111 0.308823 0.196225 68 1 84
-0.266117 -0.427230 -0.158574 70 11 94
-0.058441 0.130038 -0.311006 68 1 84
0.616181 -0.069313 0.310611 37 131 141
0.197560 0.078242 -0.209679 68 1 84
-0.275316 -0.556439 -0.235971 68 1 84
-0.630988 -0.126644 0.515788 71 44 123
0.451262 -0.433890 -0.105537 30 154 137
0.277474 -0.141208 -0.182509 69 54 129
0.027649 -0.067687 -0.474151 68 1 84
-0.168082 0.057647 -0.226692 68 1 84
0.189702 -0.316719 -0.164267 61 74 137
-0.456228 -0.372783 -0.015720 64 67 135
-0.133941 -0.473896 -0.236081 68 1 84
-0.600099 -0.408671 0.200709 57 85 139
-0.411562 -0.492105 -0.122134 70 12 95
-0.532094 0.110350 0.140063 69 53 128
-0.437893 -0.360563 -0.030800 67 60 132
0.474889 -0.375530 -0.042915 33 167 132
-0.052699 -0.421918 -0.238995 68 1 84
-0.098770 -0.054370 -0.344050 68 1 84
-0.087490 0.439882 -0.230550 68 1 84
-0.093819 -0.345018 -0.184899 68 1 84
-0.296052 -0.428196 -0.154479 71 18 101
-0.210979 0.608796 -0.027508 68 1 84
-0.398857 -0.275120 -0.100958 69 54 129
0.145912 0.552711 -0.158252 44 113 142
0.107663 -0.307157 -0.235871 68 1 84
-0.441534 0.442507 0.295212 68 1 84
0.128841 0.462071 -0.170099 71 15 98
0.061460 0.573983 -0.217383 68 1 84
0.588050 0.119309 0.484897 54 90 140
0.654029 -0.534219 0.459265 149 215 63
0.241135 0.236790 -0.160707 68 1 84
0.352894 -0.141587 -0.159529 43 116 142
0.059969 0.476902 -0.234210 70 9 92
-0.621753 -0.008693 0.440315 71 20 102
-0.526854 0.152236 0.145375 63 71 136
-0.396402 0.350418 -0.026556 68 1 84
-0.393249 0.513005 0.167768 68 1 84
-0.556827 -0.491175 0.135339 53 93 140
-0.663494 -0.476022 0.469144 41 120 142
0.254410 0.567577 -0.016119 68 1 84
0.415287 0.346702 0.014078 68 1 84
0.529265 0.161530 0.130400 71 42 121
-0.615774 0.000739 0.503973 70 12 95
-0.247753 -0.091359 -0.222825 68 1 84
0.290146 0.470816 -0.036292 68 1 84
0.119845 0.443388 -0.178576 71 20 102
0.321301 0.568048 0.121274 68 1 84
0.645867 -0.343688 0.301635 144 214 67
0.164429 0.482878 -0.140380 51 96 141
-0.252871 -0.433690 -0.173626 68 1 84
-0.347291 0.446724 -0.011119 71 43 122
-0.166631 -0.195380 -0.213135 68 1 84
0.229965 0.470099 -0.084126 68 1 84
0.312025 -0.248908 -0.162015 47 106 141
-0.059449 -0.375427 -0.226930 68 1 84
0.650475 -0.345744 0.385837 194 223 34
-0.487108 -0.518591 -0.050935 71 22 105
-0.552171 -0.232943 0.047683 68 55 129
-0.027075 -0.017594 -0.399363 68 1 84
-0.477973 0.242295 0.055700 68 1 84
0.644492 -0.178262 0.480842 42 176 126
-0.090367 -0.131214 -0.363140 68 1 84
0.190757 0.517984 -0.117229 54 91 140
0.452594 0.221049 0.009444 68 1 84
-0.363350 0.500094 0.044905 68 1 84
-0.487185 0.369705 0.157755 69 6 90
0.341424 -0.421329 -0.165353 60 77 138
-0.550725 -0.587808 0.140974 47 106 141
0.067572 0.577649 -0.213628 68 1 84
-0.617886 0.020219 0.443369 72 30 112
0.493615 0.120351 0.033341 60 77 138
0.449406 0.205662 -0.005442 68 1 84
-0.468811 -0.334742 -0.000878 58 83 139
-0.238845 0.575587 -0.042628 68 1 84
0.308097 0.426451 -0.038640 68 1 84
-0.018633 0.213251 -0.314051 68 1 84
-0.385959 0.514353 0.126357 68 1 84
-0.445770 -0.041402 -0.094922 72 32 113
-0.385723 -0.330188 -0.103296 68 1 84
0.513808 -0.439766 -0.031479 46 178 124
0.181579 0.555953 -0.120696 69 50 127
-0.627314 -0.175194 0.389657 59 81 138
0.169173 -0.392676 -0.155871 66 62 133
-0.129278 -0.058448 -0.320198 68 1 84
-0.527530 0.315280 0.254925 70 11 94
0.127123 -0.121840 -0.326299 68 1 84
0.297737 0.580696 0.107422 68 1 84
-0.053294 -0.190765 -0.393703 68 1 84
-0.027842 -0.351688 -0.294312 68 1 84
0.496042 0.294843 0.124999 62 73 137
0.608705 -0.133158 0.222855 31 163 134
-0.033563 -0.023914 -0.406439 68 1 84
-0.570937 -0.110476 0.150547 67 58 131
0.456019 0.397212 0.112226 68 1 84
-0.403218 0.495928 0.116357 68 1 84
-0.171189 0.627418 -0.088828 68 1 84
-0.646983 -0.437154 0.385427 51 96 141
-0.657391 -0.383100 0.525340 53 92 140
-0.613801 0.004750 0.514699 70 12 95
0.350801 0.549488 0.156284 68 1 84
0.631539 -0.120056 0.416212 35 169 130
0.241118 0.533329 -0.063191 68 1 84
0.653274 -0.267065 0.546642 48 180 122
-0.537316 0.268714 0.219204 71 17 99
-0.328883 -0.215031 -0.156721 68 1 84
0.032758 -0.203899 -0.427293 68 1 84
-0.552254 -0.494738 0.125761 54 90 140
0.407168 0.493064 0.126782 68 1 84
0.181158 -0.143924 -0.226058 68 1 84
-0.548816 0.249090 0.462030 68 1 84
-0.418783 0.387502 0.025695 71 22 105
-0.101690 -0.036827 -0.289634 68 1 84
-0.456127 -0.208782 -0.077548 69 53 128
-0.448147 0.435902 0.124747 68 1 84
-0.228124 -0.292200 -0.173429 68 1 84
0.334362 -0.374468 -0.137571 41 120 142
0.211436 -0.363499 -0.138853 46 109 142
0.287915 0.505771 -0.027094 72 32 113
-0.369231 -0.365435 -0.106345 71 24 106
-0.219298 -0.210472 -0.187419 68 1 84
-0.394437 -0.019649 -0.155140 71 17 99
-0.259096 0.329729 -0.119173 70 11 94
0.598754 -0.299694 0.140135 69 191 111
-0.247425 0.264015 -0.138451 68 1 84
-0.333176 -0.130054 -0.187504 70 14 97
0.099448 0.496670 -0.205782 69 50 127
-0.368265 0.181336 -0.124115 68 1 84
-0.314252 0.554028 0.081459 68 1 84
-0.134746 0.211696 -0.269691 68 1 84
0.616317 -0.248436 0.189575 112 206 86
0.364733 -0.387427 -0.126107 36 133 141
-0.535617 0.298043 0.278658 68 1 84
0.044626 -0.252048 -0.374503 68 1 84
0.143814 0.614957 -0.128776 68 1 84
0.638889 -0.332169 0.271408 114 207 85
-0.557452 -0.412837 0.103362 64 67 135
-0.083004 0.300011 -0.275450 68 1 84
0.373746 -0.312002 -0.128855 35 136 141
-0.512134 0.284145 0.151263 68 1 84
0.138956 0.139549 -0.268681 68 1 84
0.256211 -0.162497 -0.182705 59 81 138
-0.560234 -0.121617 0.092924 71 44 123
0.604219 -0.021055 0.268714 52 94 141
0.415106 -0.169277 -0.128535 41 120 142
0.501520 -0.313323 0.004729 51 182 121
-0.626895 -0.543930 0.314891 45 110 142
0.482829 0.157979 0.033373 65 66 134
0.595107 0.133401 0.294250 57 84 139
0.562075 -0.448001 0.119525 173 220 48
0.578627 0.224271 0.293508 69 53 128
0.118410 -0.084480 -0.402561 68 1 84
-0.463222 0.336796 0.068466 69 5 88
-0.462676 -0.034249 -0.068233 61 76 137
-0.152942 -0.127442 -0.234241 68 1 84
0.154620 -0.014295 -0.263048 68 1 84
0.533918 0.323815 0.259914 68 1 84
0.060911 -0.032915 -0.386633 68 1 84
-0.199602 -0.128316 -0.223205 68 1 84
0.115607 0.564469 -0.186939 68 1 84
0.039167 -0.006158 -0.348091 68 1 84
-0.499849 -0.388626 0.017918 64 67 135
0.544942 0.073324 0.120336 41 121 142
0.625984 -0.048086 0.424797 35 136 141
0.459037 0.272255 0.046549 71 40 120
-0.011490 0.003728 -0.373941 68 1 84
0.473582 -0.394436 -0.056447 32 165 133
0.563176 0.268602 0.376053 70 48 125
0.524654 -0.298638 0.021813 79 195 105
0.142531 0.478313 -0.158622 66 62 133
0.647324 -0.189700 0.513957 39 173 128
-0.516213 0.221345 0.139753 68 1 84
0.066019 0.638181 -0.160861 68 1 84
-0.447484 -0.445037 -0.065721 71 20 102
0.204538 -0.556266 -0.278295 68 1 84
-0.348609 -0.178857 -0.165523 70 14 97
-0.144468 0.139813 -0.268585 68 1 84
0.056876 -0.047593 -0.448565 68 1 84
-0.313029 -0.351073 -0.141759 68 1 84
0.610375 -0.288831 0.169750 136 213 71
-0.594264 0.127416 0.457445 68 1 84
0.452656 0.422406 0.331098 68 1 84
0.591236 0.195050 0.365717 55 89 140
-0.006880 0.164477 -0.324080 68 1 84
0.452922 0.273447 0.036486 68 55 129
-0.305622 -0.534895 -0.203915 68 1 84
0.586130 0.165432 0.460144 65 66 134
0.023204 0.567974 -0.228613 68 1 84
0.123795 0.423570 -0.181512 68 1 84
-0.653986 -0.579142 0.417094 34 139 141
-0.467278 -0.098812 -0.074973 70 11 94
0.161188 -0.047180 -0.305661 68 1 84
0.651593 -0.344179 0.412733 197 223 33
-0.256495 0.585859 0.040495 68 1 84
-0.607773 -0.342792 0.191048 66 62 133
-0.184015 0.280818 -0.189577 68 1 84
0.157847 0.487205 -0.146302 63 71 136
-0.559625 -0.465464 0.129206 51 96 141
-0.562051 -0.070679 0.146699 64 68 135
0.495382 0.370973 0.199721 68 1 84
-0.536483 0.128778 0.157795 65 66 134
0.601204 0.097353 0.302635 58 82 139
-0.237850 0.309301 -0.138708 71 38 118
0.183394 -0.507930 -0.266485 68 1 84
0.478112 -0.357300 -0.029561 35 168 131
0.465386 0.419979 0.186877 68 1 84
-0.367049 -0.191315 -0.150426 72 26 108
0.593459 -0.212601 0.111783 96 201 96
0.185092 -0.202713 -0.205656 69 53 128
-0.569882 -0.050072 0.192625 71 18 101
-0.615828 -0.095609 0.337513 72 33 114
-0.549659 -0.289815 0.060982 71 40 120
0.161087 -0.079568 -0.253095 68 1 84
0.450104 0.397119 0.098341 68 1 84
0.009544 0.444396 -0.246668 69 6 90
0.629282 -0.116933 0.395192 33 166 133
0.644324 -0.315565 0.298544 144 214 67
-0.175479 0.631830 -0.043380 68 1 84
-0.465154 0.280749 0.046194 68 1 84
0.436508 0.015773 -0.089005 60 78 138
-0.051189 -0.318322 -0.284682 68 1 84
0.406252 0.100759 -0.104174 68 1 84
0.354758 -0.459536 -0.173160 56 87 140
-0.417976 0.367781 0.011345 68 3 87
0.490966 -0.507807 -0.090567 57 185 118
-0.070013 -0.199411 -0.345146 68 1 84
0.601310 0.136063 0.337504 67 58 131
0.519414 0.311900 0.469232 68 1 84
0.271793 0.591065 0.088427 68 1 84
-0.606486 0.021704 0.324724 68 1 84
-0.595916 -0.462159 0.228143 57 84 139
-0.540000 0.035394 0.130398 69 5 88
-0.294250 0.276184 -0.113675 68 1 84
-0.205312 0.097607 -0.216456 68 1 84
-0.512982 0.338264 0.224548 70 12 95
0.631742 -0.103837 0.542242 40 174 127
-0.491525 0.370808 0.315464 68 1 84
-0.125952 0.357649 -0.228622 68 1 84
0.260737 -0.423214 -0.159131 69 53 128
0.386161 0.280318 -0.053430 68 1 84
0.225431 0.123774 -0.202224 68 1 84
0.115408 0.364480 -0.230438 68 1 84
0.539038 0.271972 0.481158 71 38 118
0.615673 0.043546 0.451300 46 109 142
0.124626 0.566641 -0.177215 70 12 95
0.077987 -0.043913 -0.420671 68 1 84
-0.491513 0.053897 0.005390 68 1 84
-0.179699 0.626750 -0.064641 68 1 84
-0.627148 -0.455762 0.320388 48 104 141
-0.407595 -0.058569 -0.143865 72 25 107
0.289840 -0.345581 -0.145252 42 117 142
-0.619480 -0.087262 0.357358 72 33 114
-0.121088 0.218443 -0.266753 68 1 84
-0.643433 -0.319525 0.405690 65 66 134
0.497720 0.008544 -0.010932 54 90 140
-0.109014 -0.322416 -0.181643 69 6 90
0.153138 0.005082 -0.223792 68 1 84
0.284490 -0.547497 -0.246631 71 40 120
-0.496337 0.128727 0.047921 71 24 106
0.404044 -0.359869 -0.098621 30 155 137
-0.355437 -0.467351 -0.147334 68 1 84
-0.413454 -0.232500 -0.100637 72 28 110
0.172392 0.422619 -0.139124 70 9 92
0.289667 0.536130 -0.004330 68 1 84
-0.271560 0.425552 -0.075140 62 72 136
0.549418 -0.041000 0.055155 32 144 140
-0.431867 -0.479372 -0.100494 71 15 98
0.600821 -0.094989 0.211709 36 132 141
0.139652 0.318987 -0.227028 68 1 84
0.524755 -0.061921 -0.002626 33 140 141
0.191433 0.441905 -0.117813 70 14 97
-0.584673 -0.240609 0.143649 72 33 114
0.355848 0.336343 -0.057321 68 1 84
0.621503 -0.543050 0.347394 197 223 33
0.505462 -0.553084 -0.038439 33 140 141
-0.487722 0.377630 0.309853 68 1 84
-0.449243 0.292183 0.022777 68 1 84
-0.062772 -0.047416 -0.378995 68 1 84
-0.472091 -0.016712 -0.048840 56 87 140
-0.484939 0.388909 0.228791 68 1 84
-0.547029 -0.587494 0.131188 46 109 142
0.599907 -0.090508 0.211377 35 135 141
-0.426103 0.345389 0.009360 72 32 113
0.457466 -0.564179 -0.127047 35 137 141
0.355883 0.521793 0.065360 68 1 84
0.212501 -0.157632 -0.204686 67 60 132
-0.628292 -0.083076 0.496432 69 52 127
-0.334329 0.535361 0.065727 68 1 84
0.036186 0.126589 -0.314881 68 1 84
0.573790 -0.096173 0.089206 34 137 141
-0.619167 -0.026395 0.535480 66 62 133
0.509787 -0.459266 -0.046203 59 186 117
0.569009 0.221258 0.457932 72 33 114
0.183104 -0.109974 -0.222893 68 1 84
-0.444475 -0.194351 -0.093468 72 29 111
0.424188 -0.414690 -0.112149 31 147 139
-0.366707 0.534434 0.170578 68 1 84
0.066895 0.283968 -0.274379 68 1 84
-0.453075 0.432222 0.275948 68 1 84
0.006965 -0.397563 -0.279560 68 1 84
0.559427 0.281641 0.346919 71 40 120
-0.549477 0.259552 0.266367 68 1 84
-0.207367 -0.000020 -0.207622 68 1 84
-0.042164 0.214732 -0.302575 68 1 84
-0.599439 0.109086 0.454353 70 14 97
-0.155204 0.638234 -0.083883 68 1 84
-0.103310 -0.448949 -0.222615 68 1 84
0.523407 -0.444716 -0.008266 83 197 103
0.285071 0.567298 0.036110 68 1 84
-0.514425 -0.531393 0.046527 61 76 137
0.570086 0.254220 0.300135 69 50 127
-0.511114 -0.065323 0.004984 68 1 84
0.622419 -0.342784 0.218312 173 220 48
-0.022597 -0.213744 -0.409335 68 1 84
0.449277 0.002942 -0.078267 54 90 140
-0.608596 0.038996 0.499408 69 5 88
0.443322 -0.024281 -0.093130 57 85 139
-0.558136 -0.073556 0.125674 55 88 140
0.572560 0.072362 0.197450 64 68 135
-0.414607 0.480771 0.110881 68 1 84
0.042024 0.260334 -0.273462 68 1 84
-0.617052 -0.013727 0.519074 72 33 114
0.604031 0.080351 0.310006 63 71 136
0.192107 -0.456538 -0.198794 70 12 95
0.590179 0.114926 0.482038 52 95 141
-0.129515 0.557423 -0.198474 72 29 111
-0.070261 -0.226550 -0.321820 68 1 84
-0.466976 0.418283 0.184310 70 9 92
-0.577122 0.000659 0.228132 69 5 88
0.569053 0.148555 0.206210 69 50 127
0.159072 0.640832 -0.039531 68 1 84
0.600021 0.002837 0.544838 34 139 141
0.519086 0.123264 0.088385 62 72 136
0.610558 -0.230298 0.175714 85 198 102
0.079443 0.336846 -0.262348 68 1 84
0.334867 -0.591310 -0.227842 71 24 106
-0.438140 -0.244669 -0.073225 56 86 139
0.625447 -0.531421 0.363966 197 223 33
-0.007558 0.448490 -0.249174 72 34 115
-0.282784 -0.412228 -0.139468 71 42 121
-0.414742 0.301590 -0.029024 68 1 84
0.029986 0.655569 -0.145719 68 1 84
-0.007808 0.486036 -0.250813 72 30 112
0.626386 -0.154805 0.323547 56 185 118
0.037496 -0.262170 -0.370242 68 1 84
-0.223279 0.370813 -0.135504 68 1 84
-0.147554 -0.301156 -0.174266 69 8 91
0.555001 0.254797 0.452227 67 58 131
0.607160 0.114477 0.393248 64 68 135
0.220866 0.596362 -0.020780 68 1 84
0.084071 0.616161 -0.177517 68 1 84
-0.563470 -0.139868 0.091772 67 60 132
0.085144 -0.135855 -0.446573 68 1 84
-0.537756 0.281534 0.391007 68 1 84
0.006369 -0.365584 -0.298790 68 1 84
-0.082364 0.116661 -0.297426 68 1 84
-0.084868 -0.141163 -0.370389 68 1 84
0.521898 0.245120 0.153589 72 35 116
-0.416641 0.076207 -0.110662 68 1 84
-0.218282 0.578931 -0.078533 68 1 84
0.167153 0.497723 -0.139099 49 100 141
0.574212 0.217252 0.441998 55 88 140
-0.441382 -0.345592 -0.026536 59 81 138
-0.388983 -0.415424 -0.093084 68 1 84
-0.557670 -0.260560 0.066173 71 39 119
0.499625 0.346944 0.174572 68 1 84
-0.017627 -0.182795 -0.439817 68 1 84
-0.544359 0.167863 0.185988 71 40 120
-0.590415 0.039828 0.271875 68 1 84
0.619423 -0.036712 0.490082 30 152 138
-0.549026 0.263216 0.272847 68 1 84
0.348898 -0.561483 -0.217554 69 54 129
-0.417349 -0.036626 -0.131670 72 25 107
0.502012 0.163358 0.075549 55 89 140
-0.006721 0.282085 -0.288136 68 1 84
-0.503255 0.090798 0.048129 72 29 111
-0.465863 0.038052 -0.045592 72 35 116
0.529516 0.333635 0.333346 71 22 105
0.309250 0.279560 -0.098952 68 1 84
-0.183822 0.503929 -0.149163 72 29 111
-0.620352 -0.002450 0.427220 70 9 92
0.655457 -0.556363 0.475095 69 191 111
0.371760 0.513128 0.079213 68 1 84
-0.452054 -0.116759 -0.095801 71 17 99
-0.103747 0.616354 -0.168079 68 1 84
0.621135 -0.314153 0.203186 154 216 60
0.151341 -0.087341 -0.299909 68 1 84
0.650624 -0.453675 0.420987 253 231 36
0.635509 -0.167779 0.364657 54 184 119
-0.471488 0.394620 0.332642 68 1 84
-0.628689 -0.091737 0.508658 67 58 131
-0.227121 0.600794 -0.000479 68 1 84
-0.629897 -0.240375 0.341012 71 42 121
-0.311344 -0.089270 -0.205684 68 1 84
-0.459383 -0.018742 -0.069685 70 45 124
-0.631552 -0.159604 0.453658 67 58 131
0.245404 -0.047915 -0.207579 68 1 84
-0.080104 -0.532746 -0.286074 68 1 84
-0.233109 -0.566377 -0.259380 68 1 84
0.312422 0.058744 -0.182750 68 1 84
0.454734 0.149569 -0.026658 70 49 126
0.391030 -0.383200 -0.109778 33 142 140
0.068518 -0.353168 -0.269289 68 1 84
0.188881 -0.050613 -0.207110 68 1 84
-0.478737 0.152388 0.018137 68 1 84
-0.440504 -0.214527 -0.087394 70 45 124
0.509086 -0.271182 -0.004599 39 173 128
-0.541985 -0.443639 0.080989 60 77 138
-0.577878 0.023534 0.234404 68 1 84
-0.363154 0.378599 -0.037399 71 21 103
-0.014639 -0.431769 -0.268974 68 1 84
-0.099033 0.558680 -0.220852 68 1 84
-0.279680 0.323064 -0.104765 70 12 95
0.378560 0.272634 -0.063586 68 1 84
0.435438 0.079286 -0.077790 72 25 107
-0.377485 0.463171 0.029357 68 1 84
0.244167 -0.569163 -0.267163 68 1 84
-0.054108 -0.042897 -0.374060 68 1 84
0.316432 0.520165 0.013845 68 1 84
0.583849 0.204767 0.295473 64 68 135
-0.152013 0.495247 -0.187211 70 47 124
0.486571 0.266862 0.095881 71 20 102
0.449742 -0.260000 -0.074570 37 130 142
0.018591 -0.391031 -0.281951 68 1 84
0.321372 -0.560213 -0.232154 72 33 114
0.548055 -0.134269 0.005946 36 134 141
-0.639776 -0.580636 0.366335 41 120 142
0.179252 -0.444727 -0.193238 70 14 97
0.496493 0.378613 0.273587 68 1 84
0.640873 -0.327349 0.277999 119 208 82
-0.088255 0.603998 -0.191884 68 1 84
0.504373 -0.541074 -0.040158 30 159 136
-0.122284 0.212208 -0.275828 68 1 84
0.492648 -0.334112 -0.004798 43 177 125
-0.209469 0.478954 -0.120888 59 81 138
0.406202 0.352654 0.005355 68 1 84
0.152149 -0.411647 -0.177120 72 33 114
-0.611562 -0.239319 0.236728 70 48 125
0.386477 -0.233285 -0.130368 35 136 141
-0.091119 0.137583 -0.299302 68 1 84
0.487889 0.380925 0.185933 68 1 84
0.560978 0.058870 0.156885 44 112 142
-0.359975 0.155163 -0.141780 68 1 84
-0.014411 0.045330 -0.318135 68 1 84
-0.127840 -0.075058 -0.321325 68 1 84
-0.435863 0.114636 -0.073167 68 1 84
0.404265 0.478902 0.091317 68 1 84
0.573931 -0.555080 0.185618 44 177 125
-0.055386 -0.119657 -0.454029 68 1 84
0.093465 -0.127405 -0.441758 68 1 84
-0.262219 0.359193 -0.106246 70 11 94
0.107118 0.236099 -0.254162 68 1 84
-0.224374 0.223814 -0.182298 68 1 84
0.206189 0.102710 -0.210971 68 1 84
0.513503 0.268751 0.148403 66 61 132
-0.068338 0.489953 -0.244661 69 50 127
0.152657 -0.013434 -0.271879 68 1 84
0.497403 0.357576 0.408290 68 1 84
-0.134331 0.356507 -0.223497 68 1 84
0.011424 -0.256617 -0.385090 68 1 84
0.649359 -0.330143 0.341439 186 222 39
-0.050168 -0.369901 -0.247350 68 1 84
-0.520704 0.330743 0.250608 69 6 90
-0.153464 0.509488 -0.186832 62 72 136
0.588199 0.085909 0.251046 57 84 139
0.002751 -0.267874 -0.373747 68 1 84
-0.366037 0.203483 -0.115239 68 1 84
0.174196 -0.436728 -0.188074 71 24 106
0.642245 -0.184664 0.431993 43 177 125
0.110183 -0.370131 -0.199526 68 1 84
-0.363421 0.113570 -0.154887 68 1 84
0.613453 0.017709 0.369489 49 101 141
0.101081 0.069244 -0.278544 68 1 84
-0.471755 0.410653 0.229066 68 1 84
0.607614 0.065412 0.329147 54 91 140
-0.380218 0.515082 0.109631 68 1 84
-0.646657 -0.544691 0.385630 39 124 142
-0.087487 0.066964 -0.282177 68 1 84
0.516118 0.288566 0.165903 70 48 125
-0.656346 -0.392056 0.482992 45 110 142
-0.104892 -0.243243 -0.252036 68 1 84
-0.075202 0.632892 -0.168021 68 1 84
-0.395413 0.175033 -0.102519 68 1 84
-0.003464 0.003519 -0.387434 68 1 84
0.465884 -0.324757 -0.033850 40 174 127
-0.100476 0.387854 -0.227094 68 1 84
-0.416152 -0.282744 -0.079322 70 49 126
0.290144 0.297879 -0.099193 68 1 84
-0.133256 -0.080835 -0.304270 68 1 84
0.050198 0.065267 -0.309767 68 1 84
-0.615233 -0.003316 0.516186 71 18 101
-0.552911 -0.539675 0.145844 45 111 142
-0.642925 -0.339079 0.379431 59 80 138
-0.486639 0.286271 0.090237 68 1 84
-0.520331 0.303497 0.392822 68 1 84
0.510804 0.359634 0.293416 68 1 84
-0.213515 0.237004 -0.170983 68 1 84
0.647250 -0.187059 0.522801 35 168 131
0.614913 -0.071436 0.287243 43 116 142
-0.508170 -0.359878 0.031971 62 72 136
0.588049 0.181908 0.431828 61 76 137
-0.043758 -0.394266 -0.248317 68 1 84
-0.324849 0.484965 -0.014660 71 42 121
-0.593563 0.149496 0.366690 68 1 84
0.364743 -0.396821 -0.132881 39 124 142
0.507869 0.131620 0.069385 50 98 141
-0.583893 0.131775 0.501780 68 1 84
0.317632 0.143167 -0.157029 68 1 84
0.563919 -0.567643 0.146478 81 196 104
