ply
format ascii 1.0
element vertex 1279
property float x
property float y
property float z
property uchar red
property uchar green
property uchar blue
end_header
-0.065979 -0.426786 -0.292321 68 1 84
0.050889 0.032612 -0.445064 38 129 142
-0.535573 -0.314217 -0.013700 68 1 84
0.571715 -0.145845 0.014065 69 8 91
-0.459060 0.270235 0.011666 68 1 84
-0.485375 -0.039168 -0.084775 68 1 84
-0.094975 -0.303600 -0.206004 68 1 84
-0.319106 0.582727 0.053755 68 1 84
0.151300 0.291586 -0.213777 30 153 138
-0.358304 0.450119 -0.032587 68 1 84
-0.420651 -0.306168 -0.089632 68 1 84
0.467952 0.264359 0.035212 68 1 84
0.124955 0.570975 -0.232044 30 160 135
0.617845 -0.128633 0.303139 67 58 131
-0.247266 -0.183596 -0.154978 68 1 84
0.636248 -0.361282 0.243352 34 138 141
-0.617645 -0.151556 0.455652 68 1 84
0.435460 0.477043 0.175710 68 1 84
-0.437511 0.479727 0.306920 68 1 84
0.498789 0.388199 0.224629 68 1 84
-0.281542 0.512239 -0.130426 52 94 141
0.106511 0.534952 -0.251740 79 195 105
-0.566579 0.206561 0.235019 68 1 84
-0.296829 -0.393325 -0.147547 68 1 84
-0.621929 -0.105117 0.359856 68 1 84
-0.432460 -0.463753 -0.212444 68 1 84
0.388439 0.263839 -0.088142 68 1 84
0.176342 -0.483890 -0.297271 68 1 84
0.575725 -0.037619 0.068381 68 1 84
0.617900 -0.108258 0.465210 71 24 106
-0.645683 -0.237382 0.254064 68 1 84
-0.645843 -0.215345 0.279196 68 1 84
-0.647475 -0.238693 0.271689 68 1 84
-0.208577 -0.474953 -0.294311 68 1 84
-0.051226 0.039116 -0.405934 51 97 141
-0.468406 -0.440554 -0.173025 68 1 84
0.244314 0.371985 -0.168083 51 96 141
0.598467 -0.009850 0.444940 68 1 84
-0.642487 -0.247111 0.227411 68 1 84
-0.156981 -0.415173 -0.235680 68 1 84
0.495717 0.373453 0.476232 68 1 84
-0.592824 0.052306 0.219388 68 1 84
-0.350718 0.028388 -0.169781 68 1 84
0.592136 -0.237637 0.060764 59 80 138
0.371505 0.350154 -0.063981 68 1 84
-0.574012 0.185803 0.269806 68 1 84
-0.071450 0.056230 -0.270253 71 44 123
0.189291 0.404050 -0.193411 36 134 141
-0.261886 0.544657 -0.145813 45 110 142
0.269289 -0.459247 -0.254196 68 1 84
-0.430668 0.303608 -0.007926 68 1 84
0.245417 -0.341013 -0.148908 68 1 84
-0.357733 -0.258881 -0.122557 68 1 84
0.597806 -0.031020 0.369426 68 1 84
0.238585 0.605374 -0.086354 71 15 98
-0.615785 -0.096732 0.389959 68 1 84
0.612558 -0.335079 0.147225 42 118 142
0.111472 0.540993 -0.248129 61 187 116
0.103506 -0.332818 -0.164608 68 1 84
-0.035286 0.027357 -0.438369 42 117 142
-0.307384 -0.398634 -0.165123 68 1 84
-0.578971 0.066206 0.495186 68 1 84
0.535087 0.324083 0.286980 68 1 84
0.104887 0.196025 -0.286873 69 191 111
0.692878 -0.479747 0.431043 202 224 30
-0.537488 0.216841 0.115696 68 1 84
-0.366070 0.550879 0.107041 68 1 84
-0.487442 -0.135845 -0.082250 68 1 84
-0.605681 -0.036922 0.389364 68 1 84
0.264985 0.390514 -0.150824 61 74 137
-0.554488 0.195157 0.507377 68 1 84
0.168454 0.027659 -0.274210 60 77 138
0.580330 -0.106265 0.039864 69 5 88
0.077721 0.594496 -0.251505 40 174 127
0.585781 -0.209297 0.042631 71 18 101
0.447745 -0.133425 -0.114354 68 1 84
0.554226 -0.515233 0.019274 43 115 142
0.546887 -0.351198 0.002956 53 92 140
-0.644543 -0.433096 0.277817 68 1 84
0.292060 -0.458676 -0.248700 68 1 84
-0.003887 0.651009 -0.188605 38 127 142
-0.546326 0.261522 0.474379 68 1 84
-0.286363 -0.156096 -0.156074 68 1 84
-0.354489 0.443029 -0.041521 68 1 84
0.266877 -0.288155 -0.148629 68 1 84
-0.225718 0.554179 -0.181290 37 131 141
0.568874 -0.040631 0.044794 68 1 84
0.165503 -0.358310 -0.128380 68 1 84
-0.429585 0.367443 0.032756 68 1 84
-0.218487 -0.452358 -0.270769 68 1 84
-0.182799 0.293544 -0.214949 30 159 136
-0.411921 -0.210540 -0.108100 68 1 84
-0.600305 -0.159119 0.056126 68 1 84
0.265531 0.188827 -0.209460 52 95 141
0.257223 -0.056729 -0.200909 68 1 84
0.097758 -0.257224 -0.234834 68 1 84
0.652233 -0.417488 0.340587 83 197 103
-0.529818 0.034101 -0.014367 68 1 84
0.347267 -0.394777 -0.147724 68 1 84
-0.662067 -0.538804 0.307772 62 73 137
-0.233142 -0.227734 -0.141572 68 1 84
-0.286866 0.431196 -0.127887 59 80 138
0.616684 -0.206597 0.130471 68 55 129
0.074198 -0.291028 -0.250934 68 1 84
-0.615628 -0.133119 0.466273 68 1 84
-0.466513 -0.064731 -0.100453 68 1 84
-0.514782 0.361627 0.214472 68 1 84
-0.554343 0.031450 0.028707 68 1 84
-0.251118 -0.254215 -0.137988 68 1 84
0.154114 0.064084 -0.235672 53 93 140
-0.259324 0.593967 -0.111678 60 77 138
0.055925 -0.301356 -0.289518 68 1 84
-0.638295 -0.447972 0.249935 68 1 84
-0.357690 0.360842 -0.079619 68 1 84
-0.398779 -0.049113 -0.144169 68 1 84
0.583911 0.067360 0.305037 68 1 84
0.518174 -0.491783 -0.099546 63 71 136
-0.567569 -0.459650 -0.016505 68 1 84
0.396152 -0.555163 -0.240553 68 1 84
0.464976 0.190726 -0.014757 68 1 84
0.047279 0.346848 -0.265605 131 211 75
0.012445 0.488990 -0.280017 173 220 48
0.320624 -0.079142 -0.174844 68 1 84
-0.439436 0.293332 -0.001761 68 1 84
0.620219 -0.156548 0.184726 62 73 137
0.548211 0.176652 0.159302 68 1 84
0.404582 -0.024746 -0.142013 68 1 84
0.497878 0.353586 0.165426 68 1 84
0.512600 -0.185155 -0.059141 71 18 101
-0.192889 0.169403 -0.238417 32 145 140
0.428322 -0.096892 -0.126755 68 1 84
0.521699 -0.493756 -0.088107 62 72 136
0.225175 -0.193379 -0.165704 68 1 84
0.570996 0.100772 0.502194 68 1 84
0.472655 0.425212 0.434825 68 1 84
0.580883 -0.102057 0.042382 68 1 84
-0.464634 0.301225 0.039965 68 1 84
0.218934 0.626247 -0.074754 68 1 84
-0.581401 0.022134 0.109850 68 1 84
0.199769 0.637182 -0.079837 68 1 84
0.377506 -0.478610 -0.238256 68 1 84
0.273141 0.547972 -0.097266 63 71 136
-0.540614 -0.448013 -0.093419 68 1 84
-0.421367 -0.528571 -0.232796 68 1 84
0.092228 -0.091057 -0.409387 46 107 142
0.096010 -0.258200 -0.237391 68 1 84
0.146147 -0.076672 -0.263829 68 55 129
0.325179 0.573696 0.137896 68 1 84
-0.345379 0.013732 -0.172319 68 1 84
0.649718 -0.303817 0.337720 42 119 142
0.515529 0.109642 0.027263 68 1 84
-0.510390 -0.224977 -0.050064 68 1 84
0.347090 -0.174257 -0.147362 68 1 84
0.556160 0.205766 0.218373 68 1 84
-0.577708 0.131443 0.437925 68 1 84
0.074521 0.132413 -0.296274 42 176 126
0.617715 -0.380602 0.188971 31 147 139
0.547974 0.259634 0.449728 68 1 84
-0.561495 0.240020 0.255112 68 1 84
0.482071 0.284686 0.074702 68 1 84
0.625530 -0.528971 0.223277 48 180 122
0.442908 0.460324 0.159462 68 1 84
0.057183 0.656974 -0.160405 60 77 138
-0.247688 0.114614 -0.201303 71 44 123
0.136385 0.393145 -0.221380 30 160 135
-0.596168 -0.205350 0.047873 68 1 84
-0.555622 0.233574 0.465712 68 1 84
-0.342106 0.518906 -0.027619 68 1 84
0.592829 0.005040 0.391290 68 1 84
-0.433154 0.299807 -0.006680 68 1 84
-0.042195 -0.290905 -0.320619 68 1 84
0.441697 -0.361667 -0.078066 68 1 84
-0.616195 -0.115195 0.395603 68 1 84
-0.593993 0.003453 0.458763 68 1 84
0.112041 -0.107042 -0.337391 72 30 112
-0.559493 0.245789 0.248627 68 1 84
0.637683 -0.250561 0.501691 70 47 124
-0.505863 -0.214602 -0.056184 68 1 84
-0.631080 -0.247146 0.468988 68 1 84
0.595843 -0.024847 0.217072 68 1 84
-0.312024 -0.396179 -0.206976 68 1 84
0.363352 0.470354 -0.004010 68 1 84
-0.254070 0.558707 -0.148892 41 120 142
-0.033220 -0.497296 -0.316247 68 1 84
0.371153 0.445538 -0.008654 68 1 84
0.465900 0.113084 -0.053423 68 1 84
0.449138 0.240419 -0.010537 68 1 84
0.654039 -0.535115 0.303374 202 224 30
0.079908 -0.223041 -0.305664 68 1 84
0.464970 0.269003 0.032827 68 1 84
0.327166 0.487536 -0.050429 68 1 84
0.583708 0.013813 0.171890 68 1 84
-0.251157 0.587766 -0.132335 48 104 141
-0.498983 0.363122 0.157174 68 1 84
-0.424762 -0.250735 -0.093971 68 1 84
0.136961 0.620809 -0.187470 46 107 142
-0.340761 0.536280 -0.013801 68 1 84
-0.360006 -0.151103 -0.141394 68 1 84
0.051187 0.401760 -0.242496 75 194 108
0.325304 0.079359 -0.184058 71 38 118
-0.607629 -0.318242 0.102552 68 1 84
0.543830 0.250081 0.480374 68 1 84
-0.422488 0.070515 -0.123973 68 1 84
-0.445625 0.476643 0.262578 68 1 84
0.492083 0.324878 0.123604 68 1 84
0.446415 0.236765 -0.017341 68 1 84
-0.409025 0.515477 0.217212 68 1 84
-0.047364 0.041270 -0.371665 56 87 140
0.461519 0.034717 -0.085643 68 1 84
-0.327636 0.198252 -0.150487 72 29 111
-0.548731 0.283418 0.243471 68 1 84
-0.599992 -0.053317 0.488108 68 1 84
-0.062856 0.170669 -0.295001 38 172 129
0.156042 -0.165229 -0.224393 68 2 85
0.589762 -0.488175 0.117275 36 134 141
-0.562339 0.207270 0.460287 68 1 84
0.084867 -0.199854 -0.312811 68 1 84
-0.132789 0.231384 -0.250318 32 144 140
-0.433167 -0.513614 -0.227146 68 1 84
0.585478 0.067002 0.378417 68 1 84
-0.580003 0.057584 0.143646 68 1 84
0.057123 -0.013163 -0.464749 38 128 142
-0.156193 0.231493 -0.236555 30 156 137
0.171094 -0.100611 -0.229617 72 25 107
-0.590402 0.034859 0.183031 68 1 84
-0.533550 0.214268 0.103346 68 1 84
0.171948 0.575885 -0.188415 34 137 141
-0.267740 0.025365 -0.188268 68 1 84
-0.156951 -0.369977 -0.147420 68 1 84
-0.636640 -0.155924 0.314401 68 1 84
-0.197092 -0.134911 -0.190383 68 1 84
-0.077032 -0.391254 -0.264012 68 1 84
0.258132 0.602573 -0.045240 68 1 84
-0.591255 0.045681 0.200799 68 1 84
0.494996 -0.085537 -0.079355 68 1 84
-0.322791 -0.388835 -0.145194 68 1 84
-0.464965 0.446501 0.181980 68 1 84
0.664125 -0.383200 0.404959 77 194 107
-0.002158 -0.406793 -0.298479 68 1 84
-0.124430 0.405078 -0.235899 79 195 105
0.510324 0.111387 0.017890 68 1 84
-0.650461 -0.319120 0.348300 68 1 84
0.007310 -0.302685 -0.328970 68 1 84
-0.014793 0.006815 -0.459307 42 118 142
0.226193 0.060752 -0.202725 71 40 120
0.333094 0.541802 0.008243 68 1 84
-0.382109 0.122448 -0.135031 68 1 84
-0.329188 0.402983 -0.091670 68 1 84
0.581509 0.099736 0.358326 68 1 84
0.456524 -0.441695 -0.155277 68 1 84
-0.378302 -0.208573 -0.120253 68 1 84
-0.641174 -0.179912 0.300111 68 1 84
0.235528 0.254394 -0.198091 36 134 141
-0.477414 0.163571 -0.024497 68 1 84
-0.007102 -0.050124 -0.459515 42 117 142
-0.105727 -0.030411 -0.362171 52 95 141
-0.005435 -0.216816 -0.378414 68 3 87
-0.277291 0.102946 -0.182050 69 6 90
0.674603 -0.516844 0.377340 223 227 24
-0.297027 0.150992 -0.175946 72 28 110
-0.611365 -0.088628 0.423196 68 1 84
-0.231503 0.133674 -0.215316 42 119 142
0.569114 0.194284 0.372254 68 1 84
0.113066 -0.071254 -0.383200 64 67 135
-0.338733 -0.199903 -0.133264 68 1 84
0.561221 0.070344 0.119065 68 1 84
-0.182984 0.640417 -0.114834 71 37 117
0.668526 -0.367300 0.452644 31 162 134
-0.499234 0.222881 0.041062 68 1 84
-0.129033 -0.323225 -0.149188 68 1 84
0.469653 0.280001 0.048330 68 1 84
0.085684 -0.395266 -0.246280 68 1 84
-0.171668 0.528965 -0.242945 134 212 73
-0.509946 -0.008983 -0.054863 68 1 84
0.254332 0.215443 -0.212291 44 114 142
-0.511966 0.203835 0.050694 68 1 84
-0.439403 0.043550 -0.115283 68 1 84
0.303747 0.359489 -0.136390 65 65 134
0.491107 0.289862 0.096900 68 1 84
0.640414 -0.275957 0.421161 30 153 138
0.220141 -0.191932 -0.168230 68 1 84
0.260887 0.115481 -0.201347 57 85 139
0.383279 0.360775 -0.039287 68 1 84
-0.160149 0.033343 -0.204943 69 8 91
0.327701 0.510258 -0.034280 68 1 84
-0.162748 -0.207398 -0.186754 68 1 84
0.563703 -0.376438 0.032186 46 107 142
0.561122 0.148068 0.185412 68 1 84
-0.518104 0.328963 0.172549 68 1 84
-0.553499 0.276477 0.343439 68 1 84
0.684376 -0.534951 0.398708 197 223 33
0.572892 0.168124 0.390875 68 1 84
0.119285 0.043591 -0.286107 40 122 142
-0.602727 -0.032668 0.426245 68 1 84
0.315676 0.058515 -0.189441 71 44 123
0.227257 -0.117911 -0.193976 68 1 84
0.440948 0.412749 0.090647 68 1 84
0.439733 0.470718 0.337048 68 1 84
-0.649275 -0.324081 0.388202 68 1 84
-0.507756 0.071861 -0.030298 68 1 84
0.291779 0.591757 0.036720 68 1 84
0.566956 -0.189357 0.007720 69 5 88
0.300845 0.474267 -0.091824 68 1 84
0.076363 -0.195761 -0.331150 68 1 84
-0.327377 0.331246 -0.123697 63 71 136
-0.129931 0.289339 -0.254869 44 177 125
-0.352834 0.464351 -0.035649 68 1 84
-0.324224 0.579157 0.056566 68 1 84
-0.236040 0.625805 -0.061668 68 1 84
-0.646792 -0.470025 0.273546 70 11 94
0.545403 0.293921 0.381638 68 1 84
0.106553 0.151225 -0.280981 69 191 111
0.225408 -0.367828 -0.145272 68 1 84
-0.576687 0.178753 0.298449 68 1 84
0.660187 -0.380511 0.388738 85 198 102
-0.222714 0.624712 -0.111779 61 74 137
-0.365591 0.549298 0.094634 68 1 84
-0.605796 -0.415602 0.124835 68 1 84
0.521341 0.281739 0.523287 68 1 84
0.245250 -0.101395 -0.192117 68 1 84
0.006794 -0.279756 -0.343105 68 1 84
-0.531095 0.260515 0.136047 68 1 84
-0.637872 -0.187667 0.354772 68 1 84
-0.334501 -0.143343 -0.149304 68 1 84
0.546784 -0.540313 -0.006024 54 91 140
0.221096 0.628276 -0.054380 68 1 84
0.117813 -0.068420 -0.373048 71 38 118
-0.613735 -0.128575 0.432118 68 1 84
-0.459670 0.457696 0.290874 68 1 84
0.598506 -0.454913 0.139270 31 146 140
-0.072532 -0.335737 -0.251368 68 1 84
0.594015 -0.050613 0.154202 68 1 84
-0.504692 0.378328 0.202256 68 1 84
0.515862 -0.238163 -0.044096 68 1 84
0.367361 -0.304591 -0.122688 72 29 111
-0.232978 -0.420449 -0.224960 68 1 84
0.113836 0.052229 -0.287911 41 121 142
0.402909 0.388153 0.007322 68 1 84
0.099610 -0.215045 -0.273030 68 1 84
0.430325 -0.307694 -0.081724 70 9 92
-0.142652 0.005745 -0.292208 72 25 107
-0.185391 -0.419593 -0.226502 68 1 84
-0.073597 -0.458758 -0.306861 68 1 84
0.531186 0.185566 0.117486 68 1 84
-0.597052 0.010273 0.392175 68 1 84
0.204365 0.580069 -0.159101 49 101 141
0.502143 -0.347360 -0.040579 72 34 115
0.475727 -0.047425 -0.091276 68 1 84
-0.490087 0.124783 -0.029312 68 1 84
-0.616751 -0.082220 0.200622 68 1 84
-0.268562 -0.189315 -0.147677 68 1 84
-0.428903 0.476379 0.119005 68 1 84
0.226576 0.625876 -0.046549 68 1 84
-0.584981 -0.283829 0.042971 68 1 84
-0.622726 -0.099634 0.241324 68 1 84
0.467241 -0.001253 -0.089526 68 1 84
0.048253 0.156767 -0.297234 32 164 133
0.250873 0.133252 -0.207786 51 97 141
-0.642100 -0.191556 0.263171 68 1 84
0.576443 0.053564 0.516605 68 1 84
-0.211876 -0.159899 -0.177474 68 1 84
0.126366 0.257630 -0.243385 39 124 142
-0.026470 0.050029 -0.330864 59 80 138
0.506484 -0.223008 -0.056228 70 14 97
0.276304 -0.149658 -0.168531 68 1 84
0.561435 -0.179968 -0.002134 71 22 105
0.338896 0.124973 -0.171089 68 1 84
-0.632624 -0.148644 0.342096 68 1 84
0.118098 -0.082774 -0.350041 72 34 115
0.003134 0.063098 -0.404920 53 92 140
0.299728 -0.173891 -0.156711 68 1 84
0.539135 0.277094 0.217439 68 1 84
-0.133236 -0.156008 -0.236961 68 1 84
0.604939 -0.290463 0.102131 41 120 142
-0.065366 0.649773 -0.171307 72 32 113
-0.625409 -0.201990 0.493995 68 1 84
0.004993 -0.052821 -0.462792 45 110 142
0.335508 0.514364 -0.017942 68 1 84
0.639818 -0.475012 0.268725 91 200 98
-0.134348 0.278637 -0.249538 33 167 132
0.564793 0.024421 0.090357 68 1 84
0.555280 -0.103226 -0.006727 68 3 87
0.391074 -0.519495 -0.245466 68 1 84
-0.243211 -0.292662 -0.144879 68 1 84
-0.630126 -0.199217 0.155227 68 1 84
-0.240864 0.294147 -0.170483 38 127 142
-0.279870 0.517162 -0.131579 52 94 141
0.525230 0.306971 0.198612 68 1 84
-0.231830 0.421946 -0.180537 31 149 139
0.530900 0.202067 0.127380 68 1 84
-0.394923 0.456356 0.030741 68 1 84
0.353002 0.548020 0.086133 68 1 84
-0.180747 0.230178 -0.220031 36 133 141
0.059068 -0.128794 -0.415734 46 107 142
0.521924 0.170837 0.084464 68 1 84
0.587068 -0.364060 0.084321 37 131 141
0.589527 -0.105683 0.063389 68 1 84
0.511974 0.136165 0.037224 68 1 84
-0.062933 0.140888 -0.291642 51 182 121
0.256211 0.253718 -0.196108 40 122 142
-0.067850 0.231431 -0.279590 56 185 118
0.088961 -0.399778 -0.249466 68 1 84
-0.569947 -0.312163 0.023822 68 1 84
0.596016 -0.016696 0.288387 68 1 84
-0.629996 -0.454966 0.223597 68 1 84
-0.622096 -0.415801 0.187018 68 1 84
0.643976 -0.233987 0.292651 48 103 141
-0.531291 0.320504 0.438656 68 1 84
0.383144 -0.513659 -0.247467 68 1 84
0.369623 0.035081 -0.163870 72 26 108
-0.190105 0.041110 -0.198283 71 21 103
-0.507254 0.389100 0.315820 68 1 84
0.587820 0.020065 0.215246 68 1 84
0.206197 -0.295548 -0.146715 68 1 84
-0.633039 -0.207483 0.397845 68 1 84
-0.500383 -0.369144 -0.070058 68 1 84
-0.587624 0.005875 0.530204 68 1 84
-0.668380 -0.413901 0.438452 71 42 121
-0.416028 0.288886 -0.038466 68 1 84
0.192597 -0.255245 -0.148207 68 1 84
-0.242085 -0.465215 -0.276921 68 1 84
0.017751 -0.415517 -0.297366 68 1 84
-0.021434 0.273010 -0.283531 109 206 88
0.581627 0.088065 0.306662 68 1 84
-0.344729 -0.137892 -0.147858 68 1 84
-0.609022 -0.536350 0.142256 68 1 84
-0.650332 -0.333191 0.385877 68 1 84
-0.263898 0.159080 -0.199662 44 113 142
0.260727 0.600110 -0.045582 68 2 85
-0.641177 -0.462230 0.256817 68 2 85
0.388328 -0.517575 -0.246264 68 1 84
0.579834 0.087415 0.461798 68 1 84
0.563262 -0.167917 -0.000370 70 11 94
0.234536 0.132067 -0.213440 52 95 141
0.332419 0.419833 -0.077962 68 1 84
-0.524013 0.343520 0.418250 68 1 84
-0.606638 -0.062569 0.134484 68 1 84
-0.335156 0.371425 -0.099101 70 48 125
0.323215 -0.025576 -0.183845 72 28 110
0.033865 0.388809 -0.248268 87 198 101
0.209287 0.023194 -0.203885 68 1 84
-0.136469 -0.201188 -0.218443 68 1 84
-0.149685 0.221626 -0.251104 30 153 138
0.602969 -0.040797 0.438009 68 1 84
-0.555680 -0.179408 -0.015824 68 1 84
0.513457 -0.037406 -0.047491 68 1 84
0.594205 -0.003365 0.395073 68 1 84
0.666607 -0.364642 0.445894 30 160 135
0.342401 -0.375442 -0.132071 68 1 84
-0.454123 -0.048053 -0.109280 68 1 84
-0.078169 0.521132 -0.286463 233 228 25
0.567810 0.165819 0.245941 68 1 84
-0.584654 0.117139 0.240014 68 1 84
-0.506924 0.268044 0.086037 68 1 84
-0.265660 -0.483966 -0.285362 68 1 84
-0.599850 -0.048338 0.478958 68 1 84
0.594308 -0.349161 0.097082 36 132 141
-0.354456 0.397951 -0.062681 68 1 84
0.280800 -0.408423 -0.203794 68 1 84
-0.260703 0.612523 -0.050639 68 1 84
0.175097 0.493906 -0.195592 33 140 141
-0.087065 -0.070593 -0.359966 65 66 134
0.676094 -0.494966 0.384314 233 228 25
0.564060 0.142156 0.502496 68 1 84
-0.201002 0.474643 -0.212405 33 167 132
-0.542091 0.148187 0.074762 68 1 84
0.493946 -0.417381 -0.100014 69 6 90
-0.359916 0.412169 -0.047019 68 1 84
-0.120881 -0.382125 -0.195595 68 1 84
0.115023 -0.256023 -0.203443 68 1 84
-0.510274 0.383238 0.278058 68 1 84
0.691529 -0.456961 0.448244 146 215 65
-0.181707 0.477561 -0.228521 87 198 101
0.156421 -0.381526 -0.150229 68 1 84
0.642682 -0.240037 0.356876 51 96 141
-0.139875 0.256596 -0.236204 30 157 136
-0.646545 -0.322623 0.266368 68 1 84
-0.524131 0.356647 0.327636 68 1 84
-0.068439 0.648941 -0.174431 59 81 138
-0.072017 0.327295 -0.270528 186 222 39
-0.513782 0.377067 0.321511 68 1 84
-0.475734 -0.379747 -0.094179 68 1 84
0.495500 -0.398553 -0.080273 68 1 84
0.223377 -0.152234 -0.184249 68 1 84
0.595435 -0.013878 0.302410 68 1 84
-0.040797 0.131479 -0.293533 50 181 122
0.251201 -0.251845 -0.144412 68 1 84
0.640653 -0.223329 0.267297 47 106 141
-0.542188 0.301762 0.237580 68 1 84
0.564082 0.222066 0.340507 68 1 84
0.650095 -0.335304 0.302229 30 157 136
-0.098755 -0.248848 -0.243206 68 1 84
-0.539932 -0.532512 -0.078597 68 1 84
0.259458 0.150215 -0.207136 48 103 141
0.461922 0.241666 0.010857 68 1 84
0.367117 0.249915 -0.119002 68 1 84
-0.173150 0.262592 -0.211735 30 152 138
-0.085209 -0.317042 -0.222637 68 1 84
0.075321 0.357488 -0.254273 87 198 101
-0.273259 -0.219979 -0.136643 68 1 84
0.074239 -0.189576 -0.340201 67 58 131
0.635885 -0.227430 0.489689 64 68 135
-0.422199 0.502896 0.252908 68 1 84
0.346430 0.363085 -0.090634 70 12 95
0.482880 -0.048777 -0.084838 68 1 84
0.149641 0.306821 -0.219734 43 177 125
-0.365927 0.114123 -0.144492 68 1 84
-0.553577 -0.238243 -0.005908 68 1 84
-0.006129 -0.319652 -0.317958 68 1 84
0.619262 -0.104715 0.474205 70 14 97
0.057992 0.638736 -0.213670 30 152 138
-0.554862 0.047378 0.039840 68 1 84
0.368317 -0.331637 -0.123965 70 9 92
-0.502612 -0.030694 -0.067467 68 1 84
-0.245942 0.039955 -0.188345 68 1 84
0.126940 0.019249 -0.305052 48 103 141
-0.150797 -0.356247 -0.138737 68 1 84
0.180429 0.335025 -0.201171 33 141 140
0.649292 -0.312206 0.291288 35 136 141
-0.467807 0.431048 0.159855 68 1 84
0.015945 0.651295 -0.190657 39 125 142
-0.159521 -0.221574 -0.181604 68 1 84
-0.633816 -0.378497 0.220198 68 1 84
-0.437020 0.480749 0.301106 68 1 84
-0.170684 0.361743 -0.219407 98 202 95
-0.522488 -0.278355 -0.026775 68 1 84
0.460067 0.435003 0.167584 68 1 84
-0.596321 0.001656 0.437460 68 1 84
-0.340297 0.571156 0.115457 68 1 84
0.041603 -0.296811 -0.315011 68 1 84
0.320264 0.375553 -0.113762 68 2 85
0.134905 0.611386 -0.199301 43 116 142
0.236501 -0.136420 -0.184433 68 1 84
-0.649285 -0.304121 0.302271 68 1 84
0.567429 0.204207 0.363255 68 1 84
-0.267648 -0.262791 -0.138064 68 1 84
-0.297840 -0.435139 -0.241138 68 1 84
-0.592656 -0.015466 0.490759 68 1 84
0.548804 0.289537 0.338005 68 1 84
0.121418 -0.081796 -0.340247 70 48 125
-0.605052 -0.062733 0.455930 68 1 84
-0.376167 -0.381814 -0.178731 68 1 84
0.634453 -0.172660 0.485306 72 34 115
-0.042891 0.292736 -0.287221 136 213 71
0.212635 0.125989 -0.220567 53 93 140
-0.614180 -0.061843 0.344464 68 1 84
0.558382 -0.440514 0.010985 50 99 141
0.554339 -0.130223 -0.012492 70 14 97
-0.579586 -0.432861 0.030598 68 1 84
0.520577 0.134459 0.055402 68 1 84
0.565610 0.189799 0.264386 68 1 84
0.024383 -0.242189 -0.361793 68 1 84
0.591869 -0.018187 0.189562 68 1 84
-0.464551 -0.399251 -0.123190 68 1 84
0.586325 -0.029569 0.131720 69 8 91
-0.411490 0.242846 -0.066360 68 1 84
-0.313344 -0.408664 -0.222437 68 1 84
0.493829 -0.101516 -0.082034 69 8 91
0.654693 -0.488638 0.307308 157 217 58
-0.069380 -0.038777 -0.418822 46 109 142
-0.309349 -0.408039 -0.222595 68 1 84
-0.014106 -0.467351 -0.316456 68 1 84
-0.195773 -0.367654 -0.135397 68 1 84
0.571622 0.037675 0.131362 68 1 84
0.449669 0.443496 0.149246 68 1 84
-0.517296 -0.321752 -0.029623 68 1 84
0.380806 -0.318158 -0.113391 71 24 106
-0.195542 -0.124384 -0.193712 68 1 84
0.601912 -0.337210 0.112422 36 134 141
-0.367553 -0.227301 -0.119048 68 1 84
0.694402 -0.555144 0.457842 30 157 136
0.570949 0.174671 0.300960 68 1 84
0.026929 0.302869 -0.285887 116 208 84
0.204425 0.621370 -0.116338 71 39 119
0.022039 0.003837 -0.468698 42 117 142
0.457709 0.175003 -0.035364 71 21 103
0.525666 0.088185 0.034086 68 1 84
0.192762 0.325674 -0.192758 38 128 142
0.515915 0.245284 0.120186 68 1 84
-0.338859 -0.409921 -0.217180 68 1 84
0.516384 0.313869 0.175312 68 1 84
-0.689794 -0.539969 0.423702 72 30 112
0.227537 0.103805 -0.209665 56 87 140
-0.573127 -0.133276 0.006692 68 1 84
0.498326 0.389254 0.438119 68 1 84
0.256348 0.251963 -0.197214 40 122 142
-0.288664 0.145820 -0.181835 70 9 92
-0.188147 0.637291 -0.120122 55 89 140
-0.423943 0.480259 0.111251 68 1 84
0.035138 -0.003076 -0.468468 38 128 142
0.521422 -0.283594 -0.027958 72 32 113
-0.325345 0.036396 -0.177662 68 1 84
0.253325 -0.271904 -0.145599 68 1 84
-0.504725 0.385732 0.225026 68 1 84
-0.657142 -0.440171 0.338987 71 17 99
-0.388311 0.070933 -0.147376 68 1 84
-0.249350 -0.397077 -0.199580 68 1 84
-0.199046 -0.176370 -0.176009 68 1 84
0.561633 0.022793 0.077672 68 1 84
0.451378 0.446190 0.158958 68 1 84
-0.476844 0.437366 0.275305 68 1 84
0.623530 -0.144220 0.289571 71 43 122
0.127868 -0.138073 -0.272507 69 5 88
0.503095 0.041597 -0.031879 68 1 84
-0.199115 0.234368 -0.195177 40 122 142
-0.648764 -0.335438 0.477358 71 24 106
-0.106089 -0.004480 -0.369789 62 72 136
0.646575 -0.369733 0.295983 41 175 127
0.357672 -0.342618 -0.129915 68 1 84
-0.592943 0.054337 0.360790 68 1 84
0.367211 -0.437629 -0.206397 68 1 84
-0.573560 -0.394973 0.011000 68 1 84
-0.024212 -0.222445 -0.368573 68 1 84
0.471832 -0.519405 -0.174917 70 47 124
0.520481 -0.124309 -0.056179 68 1 84
0.570116 0.173099 0.434236 68 1 84
-0.183001 0.571101 -0.221400 33 167 132
-0.326641 0.576617 0.052342 68 1 84
0.101997 0.076261 -0.295344 32 144 140
-0.441307 0.383731 0.061737 68 1 84
0.638500 -0.436824 0.276028 81 196 104
0.523300 -0.523407 -0.066639 69 50 127
-0.489888 -0.325686 -0.049999 68 1 84
0.346392 -0.125272 -0.156381 68 1 84
0.274570 0.360556 -0.154895 53 92 140
-0.263246 0.359691 -0.159943 30 157 136
0.526094 -0.216073 -0.039742 68 1 84
-0.249255 0.273515 -0.159967 49 102 141
0.503076 -0.244327 -0.053506 70 11 94
0.606081 -0.413387 0.156256 30 154 137
0.440190 0.118530 -0.085258 68 1 84
0.125255 0.299969 -0.237078 47 179 123
0.051699 0.618783 -0.243144 36 170 130
0.499594 -0.016549 -0.057893 68 1 84
-0.328619 -0.538438 -0.278641 68 1 84
0.267218 -0.407140 -0.194299 68 1 84
0.644349 -0.232877 0.325787 52 95 141
0.617456 -0.303440 0.148243 40 123 142
0.508099 0.348782 0.473450 68 1 84
0.487275 0.420595 0.318136 68 1 84
-0.475735 0.092310 -0.063567 68 1 84
0.602429 -0.048088 0.311453 68 1 84
-0.354828 0.243934 -0.124065 69 50 127
-0.627179 -0.209663 0.456691 68 1 84
0.568954 0.195046 0.384030 68 1 84
0.505102 0.193909 0.061668 68 1 84
0.463572 0.449150 0.252629 68 1 84
-0.410429 0.089443 -0.129159 68 1 84
0.114601 0.298992 -0.245010 114 207 85
-0.202670 0.600134 -0.176227 34 139 141
-0.284664 0.450652 -0.128396 61 75 137
-0.424237 0.257581 -0.043516 68 1 84
-0.568735 -0.251049 0.013746 68 1 84
-0.052679 0.645320 -0.196279 44 114 142
0.307245 0.193915 -0.184408 52 94 141
0.031732 0.508150 -0.280385 225 227 24
0.474628 -0.526652 -0.169707 72 29 111
-0.532045 0.335786 0.274480 68 1 84
-0.061926 0.263110 -0.275314 59 186 117
-0.495193 -0.478532 -0.170885 68 1 84
0.420772 -0.001343 -0.129960 71 22 105
-0.027985 -0.469366 -0.316010 68 1 84
0.677098 -0.397101 0.473045 33 167 132
0.006078 0.423470 -0.251419 87 198 101
-0.631750 -0.472322 0.226953 68 1 84
0.468948 0.396088 0.136585 68 1 84
0.394234 0.384197 -0.008429 68 1 84
-0.040115 0.048425 -0.396150 55 88 140
0.634065 -0.188948 0.352643 62 72 136
0.449351 0.175483 -0.047524 68 1 84
0.601049 -0.048522 0.410692 68 1 84
0.070720 0.031182 -0.338293 52 95 141
-0.043567 0.034526 -0.340394 70 47 124
-0.599743 -0.524549 0.109075 68 1 84
0.135169 0.479750 -0.220499 33 167 132
0.609971 -0.092152 0.253461 63 71 136
0.650451 -0.363015 0.329821 30 153 138
-0.460797 0.431580 0.139311 68 1 84
-0.556332 0.190191 0.155713 68 1 84
-0.424818 0.497901 0.164814 68 1 84
-0.002892 0.632557 -0.231819 31 163 134
0.411425 -0.488082 -0.226931 68 1 84
0.312951 0.374148 -0.121314 65 66 134
-0.638665 -0.201393 0.211370 68 1 84
0.555740 0.061414 0.091972 68 1 84
-0.623561 -0.249768 0.131242 68 1 84
-0.028515 0.047659 -0.331837 57 85 139
0.560646 -0.430467 0.017383 44 113 142
0.069883 -0.324992 -0.232658 68 1 84
0.070334 0.019855 -0.446621 40 123 142
0.324405 0.107056 -0.180287 70 45 124
0.405616 0.143884 -0.117779 68 1 84
-0.126428 -0.050069 -0.289293 72 32 113
0.318143 -0.170149 -0.154199 68 1 84
0.432385 -0.223800 -0.103770 68 1 84
-0.443821 -0.290944 -0.078482 68 1 84
-0.467469 -0.355288 -0.072685 68 1 84
0.366151 -0.277951 -0.119439 69 8 91
-0.154705 -0.299240 -0.139281 68 1 84
-0.095581 -0.433912 -0.291045 68 1 84
-0.571736 -0.407066 0.002266 68 1 84
-0.084594 0.430868 -0.254664 165 218 53
0.513306 0.143263 0.045196 68 1 84
-0.483327 0.414835 0.378468 68 1 84
0.442050 0.404606 0.084943 68 1 84
-0.647768 -0.330806 0.286164 68 1 84
-0.579727 0.152912 0.272023 68 1 84
0.551747 0.165681 0.529965 68 1 84
0.616900 -0.121438 0.270505 72 30 112
-0.265134 0.486242 -0.151714 49 101 141
-0.462214 -0.300129 -0.067139 68 1 84
0.646639 -0.310804 0.274335 40 174 127
-0.430623 0.496296 0.203523 68 1 84
-0.534338 0.293810 0.185736 68 1 84
0.305063 0.581197 0.036572 68 1 84
0.349396 0.217818 -0.145905 68 1 84
0.571050 0.158505 0.267196 68 1 84
-0.561604 -0.507878 -0.028013 68 1 84
0.193058 -0.392730 -0.160264 68 1 84
-0.179921 0.238143 -0.210214 30 151 138
0.059568 0.391094 -0.244198 81 196 104
-0.306297 0.434754 -0.107816 52 95 141
0.669495 -0.387929 0.422893 68 190 112
0.575378 -0.169990 0.020306 68 1 84
-0.392748 -0.363831 -0.109344 68 1 84
0.407526 0.506650 0.287528 68 1 84
-0.512919 -0.262225 -0.038492 68 1 84
-0.349610 0.503262 -0.022879 68 1 84
-0.608514 -0.060133 0.415910 68 1 84
-0.522195 0.333585 0.452362 68 1 84
0.611851 -0.340082 0.147333 38 128 142
-0.597349 0.032606 0.269342 68 1 84
-0.231197 0.221594 -0.185139 42 117 142
0.577740 0.082421 0.484393 68 1 84
0.600005 -0.192440 0.074417 72 35 116
-0.589414 -0.007735 0.115020 68 1 84
0.334754 0.566626 0.143642 68 1 84
-0.448845 0.084421 -0.095553 68 1 84
-0.420052 0.171685 -0.090076 68 1 84
-0.224845 0.375108 -0.184981 41 175 127
0.599981 -0.037789 0.337264 68 1 84
0.043797 0.393277 -0.245608 69 191 111
-0.021147 0.628964 -0.238124 40 174 127
0.148015 0.015407 -0.320020 58 82 139
-0.429937 0.412548 0.064003 68 1 84
-0.206671 -0.400301 -0.196709 68 1 84
0.291775 -0.312065 -0.148063 68 1 84
0.334646 -0.404048 -0.166452 68 1 84
-0.174644 0.174474 -0.248924 35 137 141
0.440657 -0.326059 -0.073541 71 22 105
-0.282769 -0.423371 -0.233205 68 1 84
0.542067 0.300941 0.394803 68 1 84
-0.373115 -0.028113 -0.158583 68 1 84
0.261923 0.064031 -0.199830 59 80 138
-0.457682 -0.024534 -0.106794 68 1 84
0.095959 -0.089512 -0.403430 58 83 139
-0.578237 0.167578 0.353977 68 1 84
0.659469 -0.524251 0.318030 210 225 27
0.634653 -0.190722 0.260953 52 95 141
-0.599788 0.006930 0.328267 68 1 84
0.431695 -0.186219 -0.116041 68 1 84
0.117052 0.422225 -0.224649 32 165 133
0.073852 0.604651 -0.246430 94 201 97
0.163900 -0.398756 -0.175420 68 1 84
0.598723 -0.030808 0.291542 68 1 84
-0.504683 0.131119 -0.004660 68 1 84
0.107026 -0.166568 -0.295833 68 1 84
-0.527724 0.288629 0.507431 68 1 84
-0.512343 0.351121 0.453554 68 1 84
0.539463 -0.473613 -0.045914 56 87 140
-0.127779 0.222576 -0.263337 32 165 133
-0.527557 0.347473 0.352683 68 1 84
-0.651749 -0.348850 0.394527 68 1 84
0.507445 -0.339713 -0.035736 72 33 114
0.591066 -0.017750 0.183105 68 1 84
0.501100 0.289939 0.117909 68 1 84
-0.646948 -0.300601 0.261799 68 1 84
-0.177949 -0.495098 -0.307172 68 1 84
-0.658082 -0.480692 0.313951 69 6 90
0.469441 0.215631 0.007856 68 1 84
-0.685064 -0.480206 0.433230 69 54 129
0.597349 -0.032049 0.221553 68 3 87
-0.094861 -0.178658 -0.279400 68 1 84
0.391799 0.415659 0.008221 68 1 84
-0.622904 -0.204332 0.123737 68 1 84
-0.255512 -0.410540 -0.219188 68 1 84
0.475547 0.034292 -0.069771 68 1 84
0.536845 -0.128141 -0.036556 72 26 108
-0.380380 0.218608 -0.104838 68 1 84
0.138571 -0.201665 -0.222507 68 1 84
-0.509860 -0.102523 -0.066590 68 1 84
-0.600542 -0.031349 0.447383 68 1 84
-0.434588 0.253423 -0.032004 68 1 84
0.583770 0.065682 0.287621 68 1 84
0.512198 0.140807 0.040919 68 1 84
0.537450 0.311752 0.404514 68 1 84
-0.067955 -0.127304 -0.352536 68 1 84
0.330787 0.539071 -0.000760 68 1 84
0.033678 0.177706 -0.296195 105 204 91
0.206093 -0.197970 -0.170511 68 1 84
-0.615482 -0.397343 0.154675 68 1 84
0.051141 -0.200607 -0.365841 69 54 129
-0.592581 0.066583 0.307926 68 1 84
-0.649943 -0.277148 0.350687 68 1 84
-0.085329 -0.296722 -0.232796 68 1 84
-0.381697 0.539776 0.206017 68 1 84
-0.226463 -0.409492 -0.213166 68 1 84
-0.607957 -0.309803 0.100804 68 1 84
0.639707 -0.238685 0.239537 42 117 142
-0.379770 -0.379346 -0.169172 68 1 84
-0.473511 0.378955 0.115210 68 1 84
-0.545623 0.232585 0.156643 68 1 84
-0.651886 -0.456065 0.306022 68 1 84
-0.638090 -0.256265 0.199254 68 1 84
-0.330228 0.255986 -0.140137 68 1 84
0.236357 -0.117967 -0.190367 68 1 84
0.188327 -0.268129 -0.145678 68 1 84
0.114115 -0.391777 -0.206703 68 1 84
0.591875 0.008556 0.271652 68 1 84
0.012924 0.637793 -0.222297 54 184 119
0.469427 0.378822 0.120166 68 1 84
0.559334 -0.437975 0.013655 45 111 142
-0.077131 0.294190 -0.279661 109 206 88
0.636184 -0.208040 0.242560 55 88 140
-0.377814 0.284953 -0.092294 68 1 84
-0.529984 -0.011298 -0.030784 68 1 84
0.270023 -0.028987 -0.201621 68 1 84
0.603452 -0.057409 0.258940 70 12 95
0.577873 0.104232 0.253293 68 1 84
-0.129862 0.642203 -0.167930 62 73 137
0.681996 -0.422135 0.440589 119 208 82
-0.649468 -0.341672 0.316032 68 1 84
-0.500017 -0.318972 -0.041993 68 1 84
-0.346085 0.569298 0.160721 68 1 84
0.241623 -0.076876 -0.201401 68 1 84
0.485737 0.214994 0.036681 68 1 84
0.522125 -0.117054 -0.054057 69 6 90
0.449699 0.253748 -0.001965 68 1 84
0.559015 -0.236194 0.003243 71 17 99
-0.562515 0.133211 0.130532 68 1 84
-0.625453 -0.109382 0.249918 68 1 84
-0.624068 -0.132695 0.158497 68 1 84
-0.434668 0.088180 -0.108821 68 1 84
0.470064 -0.193233 -0.092498 68 1 84
-0.216664 -0.274231 -0.140089 68 1 84
-0.554272 -0.039932 -0.004943 68 1 84
0.002720 0.180259 -0.291971 79 195 105
-0.649060 -0.299609 0.373456 68 1 84
0.212961 -0.417834 -0.209336 68 1 84
0.082064 -0.325973 -0.203682 68 1 84
0.062926 0.367118 -0.252820 103 204 92
0.483902 -0.532248 -0.154327 68 3 87
-0.373901 0.133623 -0.133692 68 1 84
0.190984 0.292932 -0.185678 44 112 142
-0.519381 0.348954 0.209209 68 1 84
-0.431345 0.495538 0.203505 68 1 84
0.495288 -0.171158 -0.077789 70 11 94
0.561278 -0.433466 0.019707 39 126 142
-0.641581 -0.486615 0.249845 68 1 84
-0.588230 0.077573 0.387645 68 1 84
0.059760 -0.235098 -0.333493 68 1 84
0.592775 0.014854 0.458759 68 1 84
-0.353873 -0.097144 -0.153865 68 1 84
0.614262 -0.124437 0.360158 68 1 84
-0.530017 0.314507 0.196875 68 1 84
0.146449 0.625033 -0.173962 40 122 142
0.493245 0.203364 0.043763 68 1 84
0.537650 0.208327 0.541485 68 1 84
-0.613148 -0.118120 0.425952 68 1 84
-0.580539 0.023960 0.107737 68 1 84
0.084675 0.565328 -0.261572 116 208 84
-0.554650 0.220869 0.182158 68 1 84
0.428762 0.042978 -0.117493 70 9 92
0.453348 -0.103237 -0.112204 68 3 87
0.003985 0.478778 -0.277909 178 221 44
0.572258 -0.470840 0.067881 36 170 130
-0.591230 0.030299 0.183828 68 1 84
0.458956 -0.093319 -0.108334 68 1 84
-0.275425 0.070717 -0.180665 68 1 84
0.526961 0.214701 0.126071 68 1 84
-0.253174 0.621149 -0.022850 68 1 84
0.121952 -0.432329 -0.276373 68 1 84
-0.156511 0.501403 -0.251893 129 211 76
0.253032 -0.109012 -0.187239 68 1 84
0.578963 0.122570 0.370478 68 1 84
-0.170327 -0.290334 -0.137263 68 1 84
-0.491136 -0.034911 -0.079050 68 1 84
-0.351195 -0.376633 -0.137210 68 1 84
0.512481 0.329089 0.490762 68 1 84
-0.570578 0.086873 0.126969 68 1 84
-0.571582 0.012032 0.059029 68 1 84
-0.384190 0.185401 -0.110502 68 1 84
0.301738 -0.475616 -0.257742 68 1 84
-0.104423 0.582661 -0.263199 100 203 93
-0.023377 0.076391 -0.306764 68 57 130
-0.554142 -0.395636 -0.028135 68 1 84
0.028975 -0.443507 -0.304732 68 1 84
0.461253 0.429053 0.160918 68 1 84
-0.421942 -0.445856 -0.202627 68 1 84
-0.010896 0.214284 -0.300425 136 213 71
-0.125255 -0.042285 -0.305833 66 64 133
0.396402 0.329077 -0.039064 68 1 84
-0.020554 0.598635 -0.267895 107 205 89
-0.596720 -0.003777 0.441243 68 1 84
0.105616 0.369829 -0.238877 68 190 112
0.067287 0.044763 -0.385085 64 67 135
-0.073616 0.395785 -0.244909 56 185 118
-0.050164 -0.058324 -0.430422 48 104 141
-0.468379 0.109983 -0.064482 68 1 84
0.289784 0.364766 -0.144191 70 48 125
0.568116 -0.185915 0.009247 69 6 90
-0.315652 0.562043 -0.034025 68 1 84
0.515880 0.370760 0.308421 68 1 84
0.377274 0.278453 -0.095080 68 1 84
0.262305 -0.297725 -0.149672 68 1 84
-0.606098 -0.037172 0.192171 68 1 84
-0.628680 -0.136341 0.202752 68 1 84
-0.036470 -0.066981 -0.438312 37 130 142
-0.304994 0.401819 -0.115370 66 62 133
0.649332 -0.306579 0.292165 33 140 141
0.084172 -0.376768 -0.226509 68 1 84
-0.013518 0.398963 -0.250903 112 206 86
0.557264 -0.104392 -0.003817 68 1 84
0.104714 -0.158721 -0.305360 68 1 84
0.470468 -0.476900 -0.176272 68 1 84
0.024115 -0.086201 -0.453385 40 123 142
-0.346073 0.498925 -0.031751 68 1 84
-0.651668 -0.339762 0.375038 68 1 84
0.537091 -0.533698 -0.035089 58 82 139
0.184800 -0.211790 -0.173472 68 1 84
-0.312550 -0.291610 -0.141034 68 1 84
-0.352133 0.219023 -0.127873 68 1 84
-0.594489 -0.009789 0.469784 68 1 84
0.485861 0.416680 0.404838 68 1 84
-0.110036 -0.263137 -0.211566 68 1 84
0.288586 -0.100691 -0.179320 68 1 84
0.458381 0.454513 0.233336 68 1 84
0.178026 0.337073 -0.202911 31 146 140
0.625194 -0.195871 0.176777 61 74 137
0.520133 0.340707 0.443504 68 1 84
0.315937 -0.119891 -0.166550 68 1 84
-0.082131 0.589161 -0.264505 126 210 78
0.171916 -0.296430 -0.140811 68 1 84
0.232764 -0.154306 -0.180153 68 1 84
0.293454 0.117052 -0.190761 71 21 103
0.639091 -0.362792 0.252981 30 157 136
0.481740 -0.476475 -0.165120 68 1 84
0.432274 0.466220 0.137258 68 1 84
0.305016 -0.091009 -0.177024 68 1 84
-0.401864 -0.334539 -0.099110 68 1 84
-0.496197 0.407882 0.312060 68 1 84
0.304901 0.586577 0.088619 68 1 84
-0.149233 0.296797 -0.241789 31 146 140
-0.523549 0.293379 0.146968 68 1 84
-0.573085 0.132031 0.475866 68 1 84
-0.622441 -0.169796 0.468168 68 1 84
-0.388319 0.272653 -0.083635 68 1 84
-0.646084 -0.350930 0.274688 68 1 84
-0.095027 0.457141 -0.266388 205 224 29
0.507496 0.387757 0.346944 68 1 84
0.363393 0.279765 -0.111378 68 1 84
0.362902 0.389483 -0.052081 68 1 84
0.537090 -0.504914 -0.034307 55 88 140
0.000244 0.638819 -0.218833 30 159 136
0.612154 -0.119175 0.373366 71 17 99
-0.484733 -0.513779 -0.179357 68 1 84
-0.513006 0.379014 0.303128 68 1 84
-0.372501 -0.480872 -0.246237 68 1 84
0.483657 0.424011 0.349292 68 1 84
0.240419 0.504185 -0.146373 59 81 138
-0.514529 0.316010 0.146235 68 1 84
-0.650065 -0.319122 0.371510 68 1 84
-0.558479 0.211751 0.190279 68 1 84
-0.559068 0.177248 0.509447 68 1 84
-0.255074 0.176997 -0.201621 41 120 142
0.155532 0.427939 -0.207924 30 156 137
0.351478 0.518200 0.015430 68 1 84
0.127442 -0.106126 -0.289393 71 39 119
-0.632496 -0.333512 0.196981 68 1 84
-0.609506 -0.056708 0.182561 68 1 84
0.519953 0.362518 0.340029 68 1 84
-0.619927 -0.079449 0.301964 68 1 84
0.268456 0.337035 -0.163959 36 133 141
0.311194 0.487003 -0.073448 71 17 99
0.381896 0.163872 -0.134331 68 1 84
0.257086 -0.500671 -0.287498 68 1 84
-0.555779 -0.257381 0.000372 68 1 84
0.261244 0.170207 -0.209566 50 98 141
-0.106825 -0.308839 -0.178839 68 1 84
-0.619180 -0.383989 0.164216 68 1 84
0.153670 0.057619 -0.245734 50 98 141
0.540801 0.308766 0.372935 68 1 84
-0.472590 -0.483262 -0.196050 68 1 84
0.332474 -0.232314 -0.134467 68 1 84
-0.497579 0.267955 0.068750 68 1 84
0.651202 -0.470630 0.305084 124 210 79
-0.258793 0.028917 -0.188972 68 1 84
-0.670760 -0.459858 0.383686 69 52 127
0.420289 0.374462 0.024768 68 1 84
0.272531 0.492312 -0.117364 71 42 121
-0.105452 0.636213 -0.201831 34 138 141
0.349576 -0.250575 -0.126649 68 1 84
0.561720 0.037419 0.091722 68 1 84
0.095410 -0.254248 -0.243574 68 1 84
0.630540 -0.184695 0.227950 48 104 141
-0.295372 -0.274420 -0.139751 68 1 84
-0.144986 -0.189027 -0.213845 68 1 84
0.194711 0.291891 -0.183132 53 93 140
-0.172703 0.143631 -0.245196 34 139 141
0.344043 0.421864 -0.061733 68 1 84
0.110846 0.555327 -0.247483 124 210 79
-0.338869 0.143410 -0.145104 68 1 84
-0.507004 -0.391580 -0.086421 68 1 84
0.081970 -0.119634 -0.397653 62 72 136
0.455187 -0.195374 -0.101582 68 1 84
-0.568844 0.189669 0.227764 68 1 84
-0.059417 -0.266479 -0.312955 68 1 84
0.558506 0.143288 0.170089 68 1 84
0.460453 0.384095 0.104442 68 1 84
-0.195165 0.558874 -0.213936 30 155 137
0.229466 0.171175 -0.224006 40 122 142
0.553726 -0.226016 -0.006196 72 25 107
0.517629 -0.213240 -0.048323 68 3 87
0.496757 -0.536679 -0.131593 67 58 131
0.096032 0.652984 -0.157281 61 76 137
-0.108832 -0.393328 -0.237664 68 1 84
-0.437550 -0.366495 -0.089291 68 1 84
-0.418685 -0.066292 -0.130977 68 1 84
-0.005297 -0.362446 -0.296091 68 1 84
0.513360 0.366112 0.250637 68 1 84
0.330350 0.497647 -0.038151 68 1 84
-0.138770 -0.297715 -0.147744 68 1 84
0.171399 0.389705 -0.204441 30 151 138
-0.123034 -0.038347 -0.317525 66 61 132
-0.577605 -0.422369 0.020938 68 1 84
0.511003 -0.280160 -0.038030 70 45 124
0.469759 -0.284875 -0.066910 71 15 98
0.592807 0.020390 0.436732 68 1 84
0.396078 -0.376300 -0.117554 68 1 84
0.424166 0.470989 0.123803 68 1 84
0.394921 0.426910 0.020473 68 1 84
-0.330902 -0.388427 -0.148304 68 1 84
-0.413312 0.336824 -0.012807 68 1 84
-0.238586 -0.337126 -0.142489 68 1 84
0.158732 -0.246204 -0.163100 69 5 88
0.231167 0.470199 -0.156267 63 69 135
0.412696 0.428038 0.052926 68 1 84
0.150855 0.555993 -0.213620 41 175 127
-0.491127 0.416670 0.272680 68 1 84
0.626654 -0.183096 0.198576 56 87 140
0.258641 -0.097169 -0.189378 68 1 84
-0.297800 -0.464449 -0.263438 68 1 84
0.315662 0.239840 -0.174361 56 87 140
0.303139 0.585621 0.066994 68 1 84
0.605233 -0.062452 0.437580 68 1 84
-0.654614 -0.366162 0.421554 71 17 99
-0.559226 0.031349 0.040025 68 1 84
0.167748 -0.000838 -0.301962 61 76 137
-0.154436 0.163933 -0.259460 37 171 129
-0.137881 -0.389116 -0.189066 68 1 84
-0.110776 -0.340719 -0.170364 68 1 84
0.398300 -0.216610 -0.120302 68 1 84
0.590949 -0.487804 0.120298 33 142 140
-0.448122 0.456381 0.140657 68 1 84
0.155509 -0.225424 -0.183905 68 1 84
-0.069860 0.231954 -0.278409 59 186 117
-0.565226 0.235303 0.305944 68 1 84
0.635608 -0.384780 0.249886 30 159 136
-0.474125 -0.411558 -0.133299 68 1 84
-0.414742 -0.153186 -0.119828 68 1 84
-0.306527 -0.096393 -0.168212 68 1 84
0.432366 0.485297 0.221114 68 1 84
-0.129682 0.291423 -0.255397 41 175 127
-0.549999 -0.187189 -0.020857 68 1 84
-0.209538 0.358020 -0.196127 64 189 114
-0.127018 -0.272209 -0.178093 68 1 84
-0.311732 -0.195523 -0.139600 68 1 84
0.629365 -0.203465 0.195710 51 96 141
0.586899 -0.006644 0.166566 68 1 84
0.576923 -0.487399 0.083863 39 126 142
0.570121 0.085225 0.518388 68 1 84
-0.520090 -0.115746 -0.056921 68 1 84
-0.628318 -0.481715 0.215569 68 1 84
0.445085 0.113242 -0.080848 68 1 84
-0.570445 -0.522543 0.009719 68 1 84
-0.534181 0.269025 0.154851 68 1 84
0.602678 -0.036613 0.442936 68 1 84
-0.540456 0.292306 0.210597 68 1 84
-0.216523 0.038938 -0.192161 72 30 112
-0.635406 -0.187789 0.368887 68 1 84
0.576768 -0.218507 0.027291 72 35 116
-0.485382 -0.447065 -0.167192 68 1 84
-0.645694 -0.265921 0.248095 68 1 84
-0.331879 -0.085809 -0.163935 68 1 84
-0.028518 -0.200520 -0.376605 70 9 92
-0.688250 -0.546849 0.433616 70 11 94
0.284405 -0.498700 -0.277718 68 1 84
-0.070109 0.128908 -0.289425 31 161 135
0.320457 0.564301 0.024074 68 1 84
-0.591594 -0.011654 0.497591 68 1 84
0.600718 -0.035471 0.421873 68 1 84
0.031620 0.529709 -0.283574 253 231 36
-0.218676 0.234191 -0.176714 59 80 138
0.314731 -0.359656 -0.138975 68 1 84
-0.243526 -0.223691 -0.141405 68 1 84
0.065107 0.344190 -0.263632 151 216 62
-0.430110 0.487519 0.307157 68 1 84
-0.077093 -0.486034 -0.312811 68 1 84
0.552017 0.259029 0.270329 68 1 84
-0.377377 0.269628 -0.097883 68 1 84
0.640068 -0.211405 0.348025 64 67 135
-0.538055 -0.021035 -0.022446 68 1 84
-0.417395 0.466764 0.079427 68 1 84
-0.060002 -0.300315 -0.293982 68 1 84
0.571168 -0.275600 0.029291 49 102 141
0.412947 0.492409 0.132085 68 1 84
-0.520016 0.076226 -0.010923 68 1 84
-0.565330 0.221625 0.401075 68 1 84
0.042317 0.060299 -0.390868 53 93 140
0.623238 -0.294230 0.167714 42 119 142
0.229602 -0.428609 -0.226562 68 1 84
-0.056833 0.309988 -0.282391 71 192 110
0.584571 -0.424671 0.095040 35 137 141
0.140411 0.601193 -0.202745 35 136 141
-0.653119 -0.504090 0.278671 71 38 118
0.539061 0.185209 0.138611 68 1 84
-0.606433 -0.026122 0.223970 68 1 84
0.099223 0.616252 -0.221371 34 138 141
-0.131303 -0.411431 -0.252948 68 1 84
-0.304268 -0.150037 -0.154238 68 1 84
-0.418492 0.400946 0.037148 68 1 84
0.224122 0.242351 -0.211052 49 100 141
-0.647305 -0.221469 0.302473 68 1 84
-0.586306 0.104023 0.367019 68 1 84
0.399017 -0.276845 -0.102707 68 1 84
0.138701 -0.070298 -0.297868 71 42 121
0.614032 -0.131555 0.393448 71 42 121
-0.563500 0.070819 0.082196 68 1 84
-0.164070 -0.013925 -0.200592 71 21 103
-0.596616 0.036581 0.276919 68 1 84
-0.504165 -0.345415 -0.048669 68 1 84
-0.647648 -0.411436 0.297338 68 1 84
0.525113 -0.526109 -0.063331 69 52 127
0.515617 0.092812 0.016083 68 1 84
-0.633888 -0.387355 0.223551 68 1 84
0.496856 -0.218855 -0.065467 68 1 84
-0.453557 0.356512 0.061286 68 1 84
-0.480393 -0.480957 -0.188130 68 1 84
0.161811 0.231559 -0.250643 50 98 141
-0.503114 0.253542 0.068254 68 1 84
0.486518 -0.002442 -0.068721 68 1 84
-0.529466 0.343938 0.343525 68 1 84
-0.531555 0.307771 0.464436 68 1 84
-0.579973 0.122410 0.425902 68 1 84
0.185967 0.516697 -0.188200 41 121 142
0.367648 -0.204634 -0.133880 68 1 84
0.147746 0.043975 -0.277978 60 77 138
0.173433 0.005488 -0.237083 72 28 110
0.070500 0.183083 -0.299591 98 202 95
0.137586 -0.062761 -0.316928 65 66 134
-0.232353 0.619268 -0.110296 64 68 135
0.560143 0.144964 0.178709 68 1 84
0.127014 0.358893 -0.231728 51 182 121
-0.491936 -0.527620 -0.165700 68 1 84
-0.629000 -0.117542 0.283159 68 1 84
-0.282127 -0.203301 -0.140362 68 1 84
-0.132451 -0.043841 -0.280189 70 45 124
-0.142746 0.443646 -0.242093 124 210 79
-0.496215 0.407901 0.263508 68 1 84
-0.635005 -0.223721 0.177254 68 1 84
-0.604969 -0.470515 0.128542 68 1 84
0.601171 -0.102860 0.119256 68 1 84
0.028458 -0.346585 -0.290746 68 1 84
0.299781 0.363894 -0.137422 65 65 134
0.429839 0.261985 -0.028993 68 1 84
-0.266464 -0.335130 -0.140968 68 1 84
0.120517 -0.117264 -0.299154 68 1 84
0.560907 -0.146043 -0.003866 70 14 97
0.479495 0.227774 0.032947 68 1 84
-0.248405 -0.419913 -0.226246 68 1 84
0.233680 -0.405727 -0.189246 68 1 84
-0.563653 0.192564 0.473042 68 1 84
-0.065095 -0.397301 -0.276118 68 1 84
0.587967 -0.042904 0.120512 68 1 84
-0.278997 -0.174851 -0.151110 68 1 84
0.519805 -0.511241 -0.079230 69 53 128
0.369857 -0.082458 -0.155244 68 1 84
-0.518760 0.328887 0.474225 68 1 84
-0.050402 -0.242750 -0.336182 68 1 84
0.133521 0.419164 -0.218615 33 166 133
-0.573633 0.184596 0.381700 68 1 84
0.472048 -0.443440 -0.147010 70 49 126
-0.473773 -0.219007 -0.076967 68 1 84
-0.642507 -0.245257 0.227666 68 1 84
-0.137549 0.581350 -0.249407 94 201 97
-0.356467 0.305278 -0.107876 68 1 84
0.637059 -0.202351 0.477349 66 62 133
-0.611903 -0.419056 0.147098 68 1 84
-0.450004 -0.052036 -0.112217 68 1 84
-0.650339 -0.317156 0.343577 68 1 84
0.558119 0.146885 0.171682 68 1 84
0.468920 0.330591 0.079234 68 1 84
0.575627 0.105660 0.224302 68 1 84
0.577201 0.122299 0.429275 68 1 84
0.028052 0.009484 -0.466483 40 122 142
0.430085 0.062475 -0.112872 68 1 84
-0.592219 0.012805 0.169474 68 1 84
0.072818 -0.014963 -0.457013 34 139 141
-0.135950 -0.293016 -0.151763 68 1 84
-0.443893 0.425166 0.096248 68 1 84
-0.655030 -0.368588 0.415592 72 28 110
0.045418 -0.297945 -0.309349 68 1 84
0.571284 0.066159 0.534375 68 1 84
-0.499180 0.393724 0.212740 68 1 84
-0.123015 0.244161 -0.247110 32 145 140
0.456941 0.452187 0.342934 68 1 84
-0.643625 -0.234947 0.237906 68 1 84
-0.551677 0.269095 0.416573 68 1 84
-0.579539 0.107991 0.192044 68 1 84
0.545107 0.296745 0.371838 68 1 84
-0.331392 -0.500138 -0.272710 68 1 84
0.396769 0.517856 0.259121 68 1 84
-0.113534 0.160297 -0.278280 37 171 129
0.510406 0.324426 0.505880 68 1 84
0.286181 0.183690 -0.198419 57 85 139
-0.539488 0.318464 0.281615 68 1 84
0.539460 0.313291 0.290942 68 1 84
0.582075 -0.453737 0.093927 38 128 142
0.213183 -0.039107 -0.210382 68 1 84
0.452345 0.446663 0.163052 68 1 84
0.020083 -0.235025 -0.366987 68 1 84
0.376716 0.533691 0.134975 68 1 84
-0.395976 -0.356316 -0.103378 68 1 84
-0.598530 0.007751 0.366363 68 1 84
0.543184 -0.514896 -0.013386 54 91 140
-0.612749 -0.185960 0.089303 68 1 84
0.471438 0.421348 0.180311 68 1 84
-0.629137 -0.320489 0.176643 68 1 84
0.579038 -0.186716 0.028150 71 15 98
-0.225130 0.088698 -0.202963 71 18 101
0.068456 -0.345068 -0.235105 68 1 84
-0.487406 -0.002453 -0.077706 68 1 84
0.643475 -0.261264 0.366135 51 96 141
-0.101189 -0.119704 -0.284968 72 30 112
0.136064 -0.073257 -0.302612 70 45 124
-0.209928 0.193976 -0.223649 36 134 141
0.465483 0.443626 0.348566 68 1 84
-0.411891 -0.327133 -0.092512 68 1 84
-0.641544 -0.314034 0.232867 68 1 84
-0.574335 0.127003 0.471892 68 1 84
0.152934 -0.049010 -0.277201 65 66 134
0.099863 -0.158447 -0.315682 68 3 87
0.326148 -0.185013 -0.149135 68 1 84
0.007716 0.224963 -0.299969 119 208 82
-0.561231 -0.442516 -0.042138 68 1 84
-0.176899 -0.498119 -0.307748 68 1 84
-0.456112 0.457534 0.323881 68 1 84
-0.567723 0.075057 0.103290 68 1 84
-0.396965 0.451806 0.031214 68 1 84
-0.627072 -0.443264 0.213554 68 1 84
-0.678941 -0.524631 0.365120 66 62 133
0.393737 -0.075071 -0.145455 68 1 84
-0.157341 0.142694 -0.252756 36 134 141
-0.183127 -0.389211 -0.170163 68 1 84
0.408850 -0.432917 -0.178651 68 1 84
0.520333 0.241499 0.128411 68 1 84
-0.238562 0.620221 -0.091594 69 52 127
-0.467079 0.433328 0.390599 68 1 84
-0.585698 0.074159 0.435926 68 1 84
-0.118182 -0.222229 -0.231193 68 1 84
0.453145 0.379650 0.084690 68 1 84
0.163505 -0.340469 -0.128900 68 1 84
-0.414019 0.175818 -0.093401 68 1 84
-0.248452 -0.488511 -0.292257 68 1 84
-0.626867 -0.205237 0.461835 68 1 84
-0.050633 0.417914 -0.252178 94 201 97
0.647133 -0.387170 0.315648 37 171 129
-0.524280 -0.363552 -0.042851 68 1 84
0.297646 -0.445857 -0.237548 68 1 84
