ply
format ascii 1.0
element vertex 1277
property float x
property float y
property float z
property uchar red
property uchar green
property uchar blue
end_header
0.266230 0.459264 -0.072296 68 1 84
-0.404382 -0.425177 -0.167511 68 1 84
-0.117551 -0.023222 -0.366225 68 1 84
-0.419981 0.348787 0.024698 68 1 84
0.572527 0.004608 0.104258 72 28 110
0.129284 0.328735 -0.230489 56 86 139
-0.572783 -0.138078 0.005774 70 45 124
0.573178 -0.060199 0.050792 71 17 99
0.249860 -0.339559 -0.150454 68 1 84
0.061154 0.554464 -0.164768 68 1 84
-0.612492 -0.224586 0.113510 48 103 141
-0.624716 -0.132942 0.175072 45 111 142
0.322323 -0.371475 -0.158467 68 1 84
-0.525036 -0.368039 0.002128 68 1 84
0.386377 -0.032882 -0.161145 64 67 135
-0.620453 -0.316241 0.175700 34 138 141
-0.117474 0.231078 -0.258942 66 64 133
0.001413 0.248286 -0.280388 60 78 138
0.314413 0.221622 -0.176035 72 30 112
0.651664 -0.359738 0.352822 66 62 133
-0.312215 0.050801 -0.204895 68 1 84
-0.623769 -0.100172 0.348675 31 150 139
-0.679790 -0.372986 0.426401 79 195 105
-0.364853 -0.398332 -0.188388 68 1 84
0.552736 0.207708 0.320215 68 1 84
-0.459379 -0.403343 -0.107483 68 1 84
0.178776 0.050580 -0.202598 42 117 142
0.386427 0.135284 -0.144792 71 17 99
-0.366671 0.235049 -0.122112 68 1 84
-0.287618 0.436172 -0.058444 68 1 84
0.281766 -0.068005 -0.192800 70 12 95
-0.440375 -0.320534 -0.084918 68 1 84
-0.548397 0.003519 0.009091 70 48 125
-0.619138 -0.094840 0.408287 30 160 135
-0.617964 -0.411559 0.217981 32 145 140
0.287775 -0.225545 -0.162706 68 1 84
0.058806 -0.461601 -0.206398 68 1 84
0.148266 0.322115 -0.215829 63 69 135
-0.541028 -0.085370 -0.042600 68 1 84
-0.228027 -0.555351 -0.231881 68 1 84
0.677526 -0.381699 0.473360 30 152 138
0.533079 -0.015986 -0.012863 71 37 117
-0.013594 0.293201 -0.267684 54 90 140
-0.128499 -0.104771 -0.283676 68 1 84
-0.250565 -0.380848 -0.158262 68 1 84
0.475880 0.091569 -0.058742 72 29 111
0.524821 -0.468065 0.054789 71 18 101
-0.639862 -0.210834 0.216791 43 116 142
0.278472 0.072093 -0.203176 60 78 138
-0.453866 -0.526791 -0.115043 68 1 84
0.197113 -0.280958 -0.161720 68 1 84
0.476472 0.376990 0.219180 68 1 84
-0.642106 -0.238465 0.412393 105 204 91
0.622309 -0.088025 0.375714 64 67 135
0.091202 0.409328 -0.219066 71 39 119
0.644948 -0.307907 0.340328 62 73 137
0.676810 -0.543770 0.421905 191 223 36
0.099217 -0.014855 -0.334430 71 22 105
0.531650 -0.030944 -0.021889 68 1 84
0.078413 0.066959 -0.254226 58 83 139
0.670545 -0.526612 0.389077 191 223 36
-0.638077 -0.294002 0.234818 40 123 142
-0.592339 -0.015161 0.168693 47 105 141
0.502302 0.245883 0.085947 68 1 84
0.243744 -0.403031 -0.214472 68 1 84
0.568666 0.111068 0.193936 68 1 84
-0.306572 0.365452 -0.077031 68 1 84
-0.139274 0.513143 -0.152006 68 1 84
0.278357 0.072441 -0.203197 58 82 139
0.165682 0.047994 -0.202428 53 93 140
0.487019 -0.317399 -0.025389 68 1 84
0.376791 -0.260701 -0.131191 71 37 117
-0.390201 -0.236113 -0.133068 68 1 84
0.635111 -0.267431 0.242003 31 146 140
0.603354 -0.328954 0.160825 60 77 138
0.628999 -0.370127 0.264609 47 106 141
-0.582263 -0.321839 0.081458 51 96 141
0.541520 0.239090 0.400817 68 1 84
-0.202146 0.520863 -0.100184 68 1 84
0.020280 0.008919 -0.326311 72 25 107
-0.043610 -0.171920 -0.367253 68 1 84
0.553168 -0.328065 0.054789 71 21 103
-0.114027 -0.332325 -0.160058 68 1 84
-0.384395 -0.117280 -0.165491 68 1 84
-0.315575 0.544685 0.169665 68 1 84
-0.673762 -0.322892 0.417166 68 190 112
-0.364140 -0.335562 -0.134017 68 1 84
-0.109774 0.373598 -0.232454 72 32 113
-0.435992 -0.379783 -0.129923 68 1 84
0.319238 0.279033 -0.148882 68 1 84
-0.465399 -0.492936 -0.108799 68 1 84
-0.375824 0.459436 0.076087 68 1 84
-0.148467 -0.444811 -0.185105 68 1 84
0.154801 -0.187587 -0.187688 68 1 84
0.054300 -0.521895 -0.227866 68 1 84
-0.515637 0.247927 0.399826 68 1 84
0.533361 -0.538581 0.083630 68 1 84
0.643022 -0.306354 0.324661 69 52 127
0.454025 0.387186 0.120804 68 1 84
0.279334 0.565333 0.069461 68 1 84
0.250871 0.191445 -0.212560 57 85 139
0.489946 0.298180 0.105141 68 1 84
0.110577 -0.465808 -0.194592 68 1 84
0.161422 0.436476 -0.164425 68 1 84
0.130145 -0.027434 -0.288446 71 40 120
-0.608403 -0.311233 0.136275 37 130 142
0.069289 -0.186353 -0.275350 68 1 84
-0.502320 0.274745 0.125471 68 1 84
-0.440898 0.387753 0.110981 68 1 84
0.636867 -0.260574 0.251975 30 155 137
0.191930 -0.365942 -0.160350 68 1 84
-0.562226 0.138153 0.252841 68 1 84
-0.160867 0.437987 -0.156082 68 1 84
-0.164353 0.361761 -0.195710 71 20 102
-0.370022 -0.410567 -0.193868 68 1 84
-0.525117 0.231404 0.381675 68 1 84
-0.598029 -0.129008 0.068409 65 66 134
0.595248 0.058575 0.395460 68 1 84
-0.057944 -0.071466 -0.439394 68 1 84
0.205263 0.320540 -0.170497 72 34 115
-0.354468 -0.003059 -0.194388 68 1 84
-0.154675 -0.449036 -0.186398 68 1 84
0.528888 0.262997 0.466304 68 1 84
-0.234534 -0.173604 -0.183328 68 1 84
0.571690 0.022651 0.122866 68 1 84
-0.148669 0.587178 -0.115667 68 1 84
0.574869 0.118014 0.311361 68 1 84
-0.031949 0.007886 -0.399380 70 12 95
0.257288 0.235301 -0.200780 61 76 137
-0.547512 0.169494 0.167420 68 1 84
-0.347638 0.358876 -0.055484 68 1 84
-0.052494 0.005799 -0.379970 68 1 84
-0.095577 -0.182558 -0.296668 68 1 84
-0.516810 0.258928 0.352908 68 1 84
-0.652706 -0.508809 0.354451 157 217 58
0.530886 -0.481415 0.071929 71 22 105
-0.606132 -0.044871 0.232884 64 67 135
0.573041 0.019023 0.125927 68 1 84
-0.109991 0.002124 -0.294730 72 34 115
0.626510 -0.108113 0.410523 72 35 116
-0.531925 0.241143 0.278234 68 1 84
-0.086072 0.539219 -0.173270 68 1 84
0.326961 -0.142845 -0.167110 68 1 84
-0.489124 0.231291 0.041656 68 1 84
-0.121006 -0.151214 -0.262100 68 1 84
-0.327358 -0.382034 -0.147698 68 1 84
0.678547 -0.552626 0.445378 151 216 62
-0.555981 0.116310 0.435443 67 60 132
-0.587925 0.033598 0.341998 71 44 123
0.388718 0.083813 -0.150631 71 42 121
0.636256 -0.395938 0.290148 33 140 141
0.619400 -0.365548 0.230668 30 158 136
-0.558871 -0.142795 -0.019559 71 18 101
0.345235 0.435771 -0.005989 68 1 84
-0.353669 -0.274304 -0.148332 68 1 84
-0.641832 -0.508839 0.305574 48 180 122
0.207412 -0.421692 -0.196689 68 1 84
-0.209546 0.571926 -0.071642 68 1 84
-0.194400 0.250107 -0.178236 69 54 129
0.111786 -0.147888 -0.229528 68 1 84
0.220451 0.204568 -0.219142 58 83 139
0.015382 -0.269237 -0.280907 68 1 84
0.462093 0.385451 0.147691 68 1 84
0.584257 0.060411 0.273302 68 1 84
-0.225539 -0.232341 -0.169194 68 1 84
0.440455 -0.197345 -0.117496 72 29 111
0.092258 0.365450 -0.248615 64 67 135
-0.082093 0.392595 -0.225116 67 59 131
-0.668974 -0.378532 0.387872 47 179 123
-0.233529 -0.234053 -0.167948 68 1 84
-0.330955 -0.280283 -0.154574 68 1 84
0.022180 -0.190850 -0.340323 68 1 84
0.226870 0.473674 -0.095153 68 1 84
-0.594692 -0.042959 0.498379 31 162 134
-0.397420 -0.110262 -0.161961 68 1 84
-0.464685 -0.137890 -0.123470 68 1 84
0.446541 0.031228 -0.111655 70 47 124
-0.535323 0.194021 0.415706 66 61 132
-0.115533 0.315058 -0.255349 69 52 127
0.328400 0.482428 0.017000 68 1 84
-0.538588 0.170258 0.121675 68 1 84
-0.623407 -0.501259 0.243197 30 151 138
0.622470 -0.097447 0.292126 50 99 141
0.207585 -0.273621 -0.164739 68 1 84
-0.203964 0.405774 -0.141025 68 1 84
0.095850 0.272609 -0.240361 51 96 141
0.127354 0.639070 -0.059402 68 1 84
0.416209 -0.532433 -0.126796 68 1 84
0.151186 0.296234 -0.203588 62 72 136
-0.263738 0.571559 0.032459 68 1 84
-0.612883 -0.060936 0.350119 32 143 140
0.678337 -0.391874 0.462006 35 168 131
-0.074121 0.664775 -0.052342 68 1 84
-0.067986 -0.518433 -0.229255 68 1 84
0.121222 0.581065 -0.113266 68 1 84
-0.126207 0.366969 -0.226290 71 42 121
0.592929 0.023843 0.284518 68 1 84
-0.320406 0.540997 0.181655 68 1 84
-0.468856 -0.022625 -0.120120 68 1 84
-0.624876 -0.306735 0.185799 43 116 142
0.290731 0.313013 -0.144515 68 1 84
-0.403898 0.345228 -0.006536 68 1 84
0.465186 0.394553 0.276557 68 1 84
0.509181 0.314424 0.253521 68 1 84
0.521732 -0.066817 -0.051518 71 17 99
-0.257988 0.500508 -0.056981 68 1 84
0.529706 -0.238968 -0.019224 56 86 139
-0.429948 0.431651 0.211762 68 1 84
-0.551797 0.084891 0.078775 72 25 107
0.130800 0.120672 -0.239609 54 90 140
0.252735 0.131407 -0.210760 61 75 137
0.203290 -0.135694 -0.188564 71 39 119
-0.613545 -0.062221 0.267155 49 102 141
-0.250607 0.588601 0.042186 68 1 84
0.474167 0.376730 0.188913 68 1 84
-0.258570 -0.500986 -0.199542 68 1 84
0.484506 0.251796 0.047777 68 1 84
-0.101591 -0.292932 -0.188243 68 1 84
-0.211933 -0.263130 -0.163796 68 1 84
-0.557048 -0.479307 0.061527 70 12 95
-0.603398 -0.346095 0.138668 56 87 140
-0.632941 -0.146070 0.244649 36 132 141
0.264506 0.483329 -0.057630 68 1 84
0.196729 -0.505032 -0.205891 68 1 84
0.554285 -0.091759 -0.006190 72 35 116
0.567576 0.119151 0.194743 68 1 84
-0.248752 -0.080947 -0.204167 68 1 84
-0.220286 0.113088 -0.217948 72 29 111
-0.138055 0.512762 -0.152861 68 1 84
0.516818 0.299521 0.383473 68 1 84
-0.302035 -0.515800 -0.196842 68 1 84
0.134908 0.420676 -0.188598 72 30 112
0.053686 -0.135953 -0.382007 68 1 84
-0.573227 -0.292813 0.056217 61 74 137
-0.176692 -0.212240 -0.186244 68 1 84
-0.024781 0.017064 -0.386890 72 35 116
0.375564 -0.020612 -0.165880 69 52 127
-0.643237 -0.238559 0.436401 81 196 104
0.461892 0.396721 0.177786 68 1 84
-0.658810 -0.334962 0.355193 94 201 97
-0.322235 0.260883 -0.124444 68 1 84
0.375437 0.005968 -0.164522 68 57 130
0.035536 0.435307 -0.201999 72 32 113
0.558805 0.170943 0.219477 68 1 84
-0.367103 0.496819 0.144204 68 1 84
0.126897 0.640281 -0.057838 68 1 84
-0.136755 0.404215 -0.188774 71 24 106
-0.431203 0.325483 0.018823 68 1 84
-0.095188 0.533970 -0.171072 68 1 84
0.129048 0.476906 -0.160243 68 1 84
-0.652638 -0.520326 0.347213 146 215 65
0.227853 -0.295824 -0.165154 68 1 84
-0.620651 -0.351771 0.196566 39 125 142
-0.686488 -0.470947 0.493075 183 221 41
-0.078502 0.298345 -0.267204 72 30 112
-0.417944 0.313218 -0.018053 68 1 84
0.290688 0.560433 0.082949 68 1 84
-0.037850 -0.258812 -0.296006 68 1 84
0.570078 0.032739 0.127020 68 1 84
0.240597 0.228952 -0.207774 61 74 137
0.047040 0.242561 -0.271216 53 93 140
0.560174 0.184422 0.372029 68 1 84
0.488466 -0.458200 -0.030999 68 1 84
0.191104 -0.227980 -0.166834 68 1 84
0.278501 0.318649 -0.145873 68 1 84
-0.553215 0.138182 0.415314 71 21 103
-0.418788 0.066280 -0.152876 68 1 84
0.186567 0.219322 -0.227185 53 92 140
0.085227 -0.183089 -0.246204 68 1 84
0.478610 -0.238734 -0.071421 70 11 94
-0.537157 0.175053 0.121369 68 1 84
0.357987 -0.480153 -0.170702 68 1 84
0.460878 -0.499558 -0.076936 68 1 84
0.581243 -0.046330 0.085780 72 25 107
0.503127 0.325319 0.353221 68 1 84
0.592055 -0.007017 0.208300 68 1 84
-0.089950 0.538334 -0.172137 68 1 84
-0.523189 -0.435638 -0.018641 68 1 84
-0.166338 0.000588 -0.234358 70 45 124
-0.309904 0.057762 -0.205020 68 1 84
-0.492134 0.282122 0.440079 71 37 117
0.412788 -0.508860 -0.134748 68 1 84
-0.098377 -0.153249 -0.332100 68 1 84
-0.377373 0.335012 -0.050211 68 1 84
0.574622 0.145071 0.394011 68 1 84
-0.632196 -0.211738 0.175895 49 101 141
0.544438 0.204995 0.192956 68 1 84
-0.452974 0.357693 0.099220 68 1 84
-0.596074 -0.526777 0.155518 57 85 139
-0.544360 0.171700 0.152534 68 1 84
-0.066236 -0.273893 -0.266896 68 1 84
0.231700 -0.570586 -0.222063 68 1 84
-0.503907 0.293484 0.331937 68 1 84
-0.281956 -0.330571 -0.149931 68 1 84
0.016413 -0.263699 -0.283924 68 1 84
-0.045992 -0.334746 -0.236658 68 1 84
0.553935 0.174449 0.496944 68 1 84
0.598895 0.037948 0.411024 68 1 84
0.587037 -0.324060 0.115479 60 78 138
-0.127496 -0.304504 -0.161296 68 1 84
0.442320 -0.535617 -0.095273 68 1 84
0.284528 -0.240190 -0.162973 68 1 84
0.139730 -0.341204 -0.145934 68 1 84
0.353088 0.041620 -0.174438 70 49 126
0.128869 0.230344 -0.255010 58 82 139
-0.486748 -0.301378 -0.037947 68 1 84
0.493535 0.331109 0.167658 68 1 84
-0.104853 0.299182 -0.257966 70 48 125
-0.582305 0.014665 0.149579 58 83 139
0.028782 -0.468561 -0.215971 68 1 84
0.645273 -0.307294 0.342785 65 66 134
-0.541101 -0.438111 0.020566 69 8 91
0.419804 0.086617 -0.125986 72 33 114
0.070431 -0.388223 -0.171445 68 1 84
-0.585303 0.045876 0.315511 72 25 107
-0.401329 0.467554 0.225449 68 1 84
-0.563146 -0.472833 0.074028 68 1 84
0.350637 -0.443904 -0.181701 68 1 84
-0.295311 0.531185 0.029400 68 1 84
-0.634096 -0.164641 0.212312 36 132 141
0.059326 0.353667 -0.271281 65 66 134
-0.205516 0.231854 -0.199941 65 66 134
0.491611 -0.144923 -0.093391 66 62 133
0.577935 0.126867 0.371341 68 1 84
-0.199780 0.058653 -0.207514 71 15 98
0.517839 -0.127222 -0.066075 72 26 108
0.246644 0.408217 -0.121712 68 1 84
-0.231347 0.599097 0.004979 68 1 84
-0.333401 0.525560 0.125238 68 1 84
-0.500895 0.293819 0.351909 68 1 84
-0.301723 0.546333 0.084206 68 1 84
-0.578105 0.007229 0.485681 36 133 141
0.617418 -0.257570 0.153275 54 91 140
0.610351 -0.331126 0.183312 53 93 140
0.157241 0.602389 -0.072586 68 1 84
-0.009847 0.513306 -0.185926 68 1 84
-0.343160 -0.195088 -0.157112 68 1 84
0.150645 0.385157 -0.197160 72 26 108
0.592639 -0.382820 0.163349 67 59 131
0.594341 0.061850 0.383773 68 1 84
0.254220 0.042948 -0.205401 61 75 137
-0.208386 0.212514 -0.209963 68 55 129
0.409505 0.252537 -0.072484 68 1 84
0.214517 0.283878 -0.173263 67 59 131
0.228200 -0.238456 -0.166648 68 1 84
0.206516 0.597790 -0.014483 68 1 84
-0.485638 0.075149 -0.078379 68 1 84
0.175753 0.629783 0.014175 68 1 84
0.555865 -0.112799 -0.007409 71 43 122
0.212086 0.259497 -0.194088 63 71 136
-0.117781 -0.335359 -0.158124 68 1 84
-0.632548 -0.267107 0.192524 39 126 142
-0.275428 0.496692 -0.039704 68 1 84
-0.418894 0.127870 -0.136660 68 1 84
-0.251818 -0.133281 -0.192000 68 1 84
0.475456 0.256132 0.032931 68 1 84
0.433883 0.280949 -0.018584 68 1 84
-0.306627 0.354098 -0.082466 68 1 84
0.589423 0.064820 0.460877 70 9 92
-0.313517 -0.511347 -0.192405 68 1 84
0.503571 0.318959 0.431480 68 1 84
-0.284619 0.358796 -0.095118 68 1 84
-0.112105 0.288706 -0.250109 65 66 134
0.160915 -0.552287 -0.233806 68 1 84
-0.194907 -0.323497 -0.144603 68 1 84
-0.601220 -0.354134 0.136500 55 88 140
-0.189200 -0.441211 -0.180223 68 1 84
0.397911 0.305542 -0.055175 68 1 84
0.544850 0.203314 0.496348 68 1 84
-0.560772 -0.268048 0.027180 58 83 139
0.575916 -0.214863 0.041530 66 64 133
0.122586 0.596064 -0.103763 68 1 84
-0.527293 0.219458 0.402851 68 2 85
-0.567930 0.052838 0.455540 49 100 141
0.543034 -0.211802 -0.013558 68 55 129
0.597300 -0.035024 0.185064 68 1 84
0.560736 -0.215647 0.015613 66 64 133
0.392986 -0.023830 -0.157289 68 1 84
-0.593939 -0.386662 0.130236 47 105 141
0.336900 0.129187 -0.177833 69 52 127
0.246687 0.172716 -0.214537 55 88 140
-0.560601 0.140235 0.222076 68 1 84
0.639295 -0.186046 0.262198 59 80 138
0.097873 -0.065185 -0.356989 71 15 98
-0.079668 -0.274135 -0.247003 68 1 84
-0.530967 0.203572 0.133240 68 1 84
-0.211076 -0.550932 -0.234250 68 1 84
-0.645173 -0.371846 0.295753 46 178 124
0.131595 -0.500714 -0.214610 68 1 84
-0.439419 0.320907 0.029476 68 1 84
-0.270741 0.308915 -0.115479 70 9 92
-0.110421 0.620056 -0.114549 68 1 84
-0.628937 -0.550310 0.258173 44 177 125
-0.184805 -0.170153 -0.195724 68 1 84
-0.039988 -0.448672 -0.219511 68 1 84
0.449513 0.283994 0.008948 68 1 84
-0.408392 0.344712 0.000060 68 1 84
0.275267 -0.175156 -0.167098 68 1 84
-0.597029 -0.000944 0.371357 60 77 138
-0.232275 0.076682 -0.209466 71 18 101
-0.535271 -0.376593 0.015799 70 11 94
-0.682171 -0.521018 0.475512 139 213 70
0.626775 -0.377313 0.259710 37 131 141
-0.204556 -0.066800 -0.201278 68 1 84
-0.450591 0.366946 0.105766 68 1 84
0.350813 -0.539973 -0.173745 68 1 84
0.152511 -0.031481 -0.197952 67 58 131
0.541527 -0.076230 -0.023978 68 1 84
-0.650333 -0.376058 0.311582 34 167 132
0.355694 0.530052 0.193634 68 1 84
-0.448804 0.376772 0.370431 68 1 84
0.279994 0.393228 -0.106156 68 1 84
-0.440994 0.397593 0.329207 68 1 84
0.538998 0.152352 0.118625 68 1 84
-0.528067 0.208295 0.127238 68 1 84
0.039851 0.001402 -0.305957 72 33 114
-0.489929 0.330156 0.291570 68 1 84
-0.603399 -0.061191 0.454111 81 196 104
-0.215575 -0.431282 -0.178889 68 1 84
-0.243082 0.159434 -0.213118 57 85 139
0.106938 -0.246784 -0.184803 68 1 84
0.041091 0.010666 -0.299464 68 55 129
0.631704 -0.258256 0.215148 40 122 142
0.505074 0.068666 -0.021466 69 6 90
-0.183027 0.051779 -0.206430 68 2 85
-0.542243 0.201589 0.327664 68 1 84
-0.372393 -0.332045 -0.132193 68 1 84
-0.457681 0.389021 0.249878 68 1 84
-0.648849 -0.344573 0.318839 61 187 116
-0.341823 0.366961 -0.053591 68 1 84
0.426388 0.044805 -0.127193 67 59 131
0.521400 -0.017752 -0.033555 72 33 114
-0.545623 0.111252 0.081496 72 26 108
-0.476313 -0.139614 -0.113779 68 1 84
0.064393 0.303320 -0.268537 55 88 140
-0.430858 0.294150 -0.014276 68 1 84
-0.576527 0.070855 0.372686 67 60 132
0.576980 0.121812 0.348056 68 1 84
0.385942 0.356924 -0.027883 68 1 84
-0.196534 0.235275 -0.201964 65 66 134
-0.626468 -0.148292 0.417207 77 194 107
0.052619 0.446436 -0.194072 69 8 91
-0.634342 -0.190459 0.475628 165 218 53
0.110417 -0.380690 -0.159893 68 1 84
-0.310934 -0.534478 -0.200503 68 1 84
0.220924 -0.265692 -0.166206 68 1 84
-0.484736 -0.024179 -0.104005 68 1 84
0.527475 0.274119 0.341682 68 1 84
0.317725 -0.277050 -0.160291 68 1 84
-0.295094 0.392013 -0.071056 68 1 84
0.193571 0.030082 -0.199305 44 113 142
0.034191 0.004183 -0.309862 69 53 128
0.109209 -0.359560 -0.154848 68 1 84
-0.400504 -0.141516 -0.155327 68 1 84
-0.410731 0.415401 0.083369 68 1 84
-0.620437 -0.123540 0.494587 144 214 67
0.211059 -0.209103 -0.168140 68 1 84
0.293053 0.296132 -0.152441 68 1 84
0.479198 -0.030988 -0.092791 71 44 123
-0.454007 0.396025 0.207948 68 1 84
-0.413060 0.450422 0.255224 68 1 84
-0.535228 0.087150 0.029265 68 1 84
-0.574188 0.076216 0.384110 62 72 136
0.248676 0.417398 -0.114756 68 1 84
-0.635692 -0.149262 0.270165 31 148 139
0.637027 -0.154164 0.491203 41 121 142
0.063482 0.659253 -0.070302 68 1 84
0.471138 0.224643 0.004189 68 1 84
0.536062 -0.247225 -0.006488 61 75 137
0.644677 -0.224366 0.368680 46 107 142
0.508368 -0.512498 0.027228 68 1 84
0.453393 0.140591 -0.071086 68 1 84
-0.262256 0.405147 -0.094757 68 1 84
0.143216 -0.399656 -0.167061 68 1 84
0.646516 -0.268656 0.351132 71 42 121
-0.485872 -0.454043 -0.087122 68 1 84
-0.087363 -0.106585 -0.405941 68 1 84
-0.120138 -0.134682 -0.278358 68 1 84
0.517624 -0.533652 0.048266 68 1 84
-0.558119 -0.041061 0.005069 71 18 101
0.238171 0.379236 -0.140710 68 1 84
0.090084 -0.247805 -0.196978 68 1 84
-0.164065 0.556622 -0.119793 68 1 84
-0.471463 0.253386 0.025742 68 1 84
-0.590778 -0.538968 0.139197 69 53 128
-0.620105 -0.187773 0.131864 49 100 141
-0.346029 0.377342 -0.043454 68 1 84
0.448937 -0.485658 -0.099832 68 1 84
0.026670 -0.105850 -0.427678 68 1 84
0.317191 -0.446249 -0.197215 68 1 84
0.622480 -0.444473 0.267256 35 135 141
-0.018698 -0.484760 -0.224356 68 1 84
0.062818 -0.173240 -0.308369 68 1 84
-0.639018 -0.214627 0.452876 129 211 76
-0.371455 -0.380452 -0.158530 68 1 84
-0.600448 -0.015617 0.268316 60 77 138
0.584250 -0.021356 0.125910 68 1 84
0.340546 0.464529 0.015677 68 1 84
-0.345128 0.521739 0.194005 68 1 84
-0.353398 0.054735 -0.192095 68 1 84
-0.424553 -0.472225 -0.144372 68 1 84
-0.552675 0.157359 0.182174 68 1 84
-0.476416 0.333045 0.128694 68 1 84
0.603346 0.015906 0.424861 68 1 84
-0.546881 0.190697 0.214991 68 1 84
0.606225 -0.010169 0.361571 68 1 84
-0.567781 0.092151 0.401130 71 17 99
-0.350938 0.202944 -0.151772 68 1 84
-0.455058 0.351772 0.096515 68 1 84
0.581405 -0.485871 0.178876 68 55 129
-0.011626 -0.507230 -0.227612 68 1 84
-0.642865 -0.190697 0.266905 30 152 138
0.272743 0.558275 0.038806 68 1 84
0.047282 -0.008134 -0.324124 72 28 110
0.121575 -0.087788 -0.233725 68 1 84
0.410110 -0.064069 -0.150113 69 5 88
0.501711 0.278122 0.119463 68 1 84
-0.431300 -0.140636 -0.143158 68 1 84
0.224752 -0.347996 -0.149328 68 1 84
0.510082 0.186851 0.062111 68 1 84
0.047659 0.671593 -0.036450 68 1 84
0.383144 0.363316 -0.025578 68 1 84
0.647270 -0.420233 0.334802 43 115 142
-0.295058 0.468593 -0.034116 68 1 84
0.360031 -0.061414 -0.172683 71 38 118
0.024668 -0.196881 -0.331455 68 1 84
0.373865 0.348934 -0.052623 68 1 84
0.473182 0.279946 0.046905 68 1 84
0.672978 -0.355027 0.481540 32 145 140
0.001288 0.214779 -0.306544 70 48 125
-0.112055 -0.431606 -0.186013 68 1 84
0.336084 0.538829 0.131786 68 1 84
-0.027426 -0.002151 -0.412658 69 6 90
0.466707 0.379108 0.383988 68 1 84
0.268483 -0.471485 -0.190193 68 1 84
0.212846 -0.466436 -0.186325 68 1 84
-0.425800 0.339464 0.024402 68 1 84
-0.448535 0.285066 0.010392 68 1 84
0.474590 -0.411690 -0.049780 68 1 84
0.313777 -0.446767 -0.197784 68 1 84
0.454573 -0.329554 -0.048124 68 1 84
0.492585 -0.167228 -0.089297 69 53 128
-0.122204 0.040618 -0.255694 62 73 137
0.608938 -0.004607 0.446019 72 26 108
0.645282 -0.231103 0.371935 45 110 142
-0.276349 0.509350 -0.029567 68 1 84
0.608467 -0.383114 0.208138 48 103 141
0.194543 -0.518806 -0.216057 68 1 84
-0.509545 -0.233300 -0.051942 69 5 88
0.468586 -0.057924 -0.108081 68 57 130
0.535110 -0.328220 0.028141 71 18 101
0.477483 0.193273 -0.003538 68 1 84
-0.558371 0.093485 0.451451 67 58 131
0.477907 0.262222 0.042248 68 1 84
0.370137 -0.365865 -0.141145 68 1 84
0.420971 0.116650 -0.118498 68 1 84
0.676200 -0.428422 0.417899 34 139 141
-0.679739 -0.449794 0.417720 57 185 118
0.064527 0.418846 -0.219039 71 24 106
-0.529581 -0.437901 -0.004984 68 1 84
-0.334860 0.264048 -0.118489 68 1 84
-0.295901 -0.521864 -0.200710 68 1 84
0.608641 -0.023196 0.354554 68 1 84
-0.212523 0.286716 -0.157173 68 1 84
-0.463570 0.378590 0.260184 68 1 84
0.609345 -0.467153 0.244624 44 114 142
-0.517967 -0.422034 -0.025304 68 1 84
-0.447472 0.406153 0.210937 68 1 84
0.291161 -0.173167 -0.166233 68 1 84
-0.575299 0.069311 0.205281 72 29 111
0.190031 -0.289608 -0.159077 68 1 84
-0.470803 0.353783 0.331958 68 1 84
-0.680082 -0.538574 0.450457 178 221 44
0.063620 -0.390922 -0.178149 68 1 84
-0.630940 -0.166538 0.182425 42 117 142
0.219200 -0.386123 -0.182779 68 1 84
-0.334868 -0.381604 -0.149070 68 1 84
-0.465618 0.189198 -0.041604 68 1 84
0.008435 -0.085615 -0.442542 68 1 84
0.650652 -0.286561 0.393742 43 115 142
0.306754 -0.421585 -0.218159 68 1 84
0.511660 -0.440098 0.019779 68 1 84
0.503492 -0.483575 0.011166 68 1 84
-0.015873 0.023400 -0.364177 72 33 114
0.314597 0.460296 -0.022714 68 1 84
0.622147 -0.087412 0.377405 56 86 139
-0.431408 -0.164410 -0.137915 68 1 84
-0.231241 -0.020580 -0.203430 69 5 88
-0.043417 0.572075 -0.172796 68 1 84
0.333883 -0.445472 -0.190717 68 1 84
-0.607375 -0.038551 0.300602 57 84 139
-0.665555 -0.309278 0.403675 112 206 86
0.018627 -0.236493 -0.302141 68 1 84
0.458666 -0.022709 -0.111070 68 55 129
-0.621616 -0.092705 0.262795 50 98 141
0.357047 0.050711 -0.172124 69 8 91
0.610064 -0.005988 0.473086 61 76 137
-0.664717 -0.294049 0.464494 116 208 84
0.568451 -0.005444 0.078404 71 18 101
0.440200 0.217678 -0.049192 68 1 84
-0.508888 0.223211 0.485794 70 49 126
-0.253562 0.572006 0.001133 68 1 84
0.314954 0.101317 -0.191082 71 37 117
-0.595524 -0.003685 0.236364 69 53 128
-0.335230 0.418136 -0.023704 68 1 84
-0.314901 -0.002334 -0.205832 68 1 84
-0.391858 0.215885 -0.115993 68 1 84
0.417149 0.308195 -0.024975 68 1 84
0.445890 0.241775 -0.025598 68 1 84
-0.322132 0.284625 -0.109092 68 1 84
0.278749 0.158702 -0.204570 66 62 133
-0.623244 -0.361959 0.211888 31 148 139
-0.210248 0.320149 -0.164487 69 53 128
0.596444 0.031049 0.336740 68 1 84
-0.069050 0.653771 -0.082108 68 1 84
0.320632 0.305399 -0.134146 68 1 84
-0.171570 -0.021440 -0.238021 69 6 90
0.627784 -0.093056 0.434308 71 44 123
-0.399086 0.131511 -0.150419 68 1 84
-0.619934 -0.381264 0.209801 30 155 137
0.089502 0.618133 -0.110782 68 1 84
-0.422737 0.440787 0.227967 68 1 84
-0.579397 0.067142 0.248666 68 1 84
-0.537248 0.196963 0.392581 72 32 113
-0.641940 -0.182019 0.272751 30 153 138
-0.415341 0.449037 0.243248 68 1 84
0.493707 0.342614 0.346099 68 1 84
-0.439104 0.297140 0.003868 68 1 84
0.469073 -0.093498 -0.112175 66 62 133
-0.092710 -0.204147 -0.278063 68 1 84
-0.470978 0.367186 0.259207 68 1 84
0.427004 0.207628 -0.074203 68 1 84
0.662211 -0.322601 0.434316 51 96 141
-0.640633 -0.225518 0.481760 96 201 96
0.078098 -0.067827 -0.396249 68 1 84
-0.223996 0.042033 -0.203838 68 1 84
0.637037 -0.505515 0.312259 30 155 137
-0.552783 -0.311213 0.030426 68 1 84
0.531262 0.265324 0.336077 68 1 84
0.434345 0.130237 -0.099703 68 1 84
-0.561764 -0.004620 0.035599 70 48 125
-0.155780 0.550446 -0.129818 68 1 84
0.390185 0.211555 -0.117108 68 1 84
0.638074 -0.134177 0.463651 58 82 139
-0.241120 -0.059809 -0.205345 68 1 84
-0.137893 0.301636 -0.236316 63 69 135
0.475270 0.130964 -0.042608 68 1 84
-0.613719 -0.471898 0.216623 32 165 133
-0.104995 0.413134 -0.198282 71 43 122
-0.514301 -0.284477 -0.019548 69 5 88
-0.234109 0.449905 -0.100177 68 1 84
-0.662165 -0.420049 0.360959 31 146 140
0.217875 0.574852 -0.031502 68 1 84
-0.580364 0.066560 0.263306 68 1 84
-0.241506 -0.558059 -0.228471 68 1 84
-0.472654 -0.453807 -0.103446 68 1 84
0.564292 0.108468 0.168356 68 1 84
0.532831 -0.261528 -0.004143 59 80 138
-0.392229 -0.227132 -0.134023 68 1 84
0.556292 0.042102 0.081230 68 2 85
-0.198308 0.627019 0.016740 68 1 84
0.380687 0.494882 0.132316 68 1 84
-0.405169 0.429468 0.091006 68 1 84
-0.503910 0.252555 0.456197 70 45 124
0.633533 -0.205117 0.199039 40 123 142
0.179108 -0.319391 -0.146712 68 1 84
-0.594699 -0.447655 0.147755 50 99 141
-0.429501 -0.016648 -0.152195 68 1 84
0.327772 -0.168860 -0.162576 68 1 84
-0.450848 0.228593 -0.035735 68 1 84
-0.684124 -0.351901 0.468783 253 231 36
0.042094 -0.009792 -0.341014 69 8 91
0.374352 0.514789 0.191664 68 1 84
0.648502 -0.267113 0.381715 49 100 141
0.374270 0.343557 -0.056869 68 1 84
0.573576 0.003490 0.107615 70 14 97
0.615034 -0.478625 0.262186 34 138 141
-0.549496 0.174669 0.193606 68 1 84
0.065946 -0.300313 -0.187352 68 1 84
-0.338040 0.005872 -0.200227 68 1 84
0.218697 0.265479 -0.187524 66 64 133
0.324807 0.529798 0.081749 68 1 84
-0.609599 -0.073313 0.443742 119 208 82
-0.188132 0.206098 -0.223967 67 60 132
0.502685 -0.474865 0.007071 68 1 84
0.627808 -0.111559 0.416505 69 52 127
0.424192 -0.092776 -0.143359 71 38 118
-0.022513 -0.454352 -0.221415 68 1 84
0.425775 0.433431 0.119191 68 1 84
0.495815 -0.399944 -0.011898 68 1 84
0.541999 0.128909 0.109707 68 1 84
0.626058 -0.177446 0.167021 31 150 139
-0.212798 0.582678 -0.060317 68 1 84
-0.523034 0.225884 0.132097 68 1 84
0.004364 -0.272745 -0.283895 68 1 84
0.365405 0.182394 -0.149426 71 20 102
0.461795 0.398077 0.183127 68 1 84
0.272288 0.157597 -0.206750 63 71 136
-0.064865 -0.124524 -0.408309 68 1 84
-0.491321 0.323456 0.171289 68 1 84
-0.405801 0.284396 -0.058452 68 1 84
-0.681716 -0.523218 0.466867 146 215 65
-0.458706 0.353710 0.397376 68 1 84
-0.473856 -0.365340 -0.068523 68 1 84
0.524022 0.257586 0.176354 68 1 84
0.528523 0.184621 0.111526 68 1 84
-0.014527 0.676363 -0.035077 68 1 84
-0.422886 0.422192 0.321479 68 1 84
0.313779 -0.354596 -0.149736 68 1 84
-0.191711 -0.426179 -0.175379 68 1 84
-0.177780 0.357967 -0.185661 71 44 123
-0.027151 -0.501752 -0.226920 68 1 84
0.039243 0.615534 -0.141719 68 1 84
0.469683 0.267944 0.030960 68 1 84
0.614735 -0.083422 0.216599 71 15 98
-0.031569 -0.370200 -0.223749 68 1 84
-0.478445 -0.476853 -0.096594 68 1 84
-0.121255 0.522036 -0.161494 68 1 84
0.100065 -0.094808 -0.307273 69 8 91
0.358853 0.451097 0.026081 68 1 84
0.281617 0.277367 -0.168119 71 17 99
-0.506762 -0.385598 -0.030938 68 1 84
-0.565120 -0.526322 0.081635 71 22 105
0.341044 -0.033950 -0.180960 71 42 121
-0.497735 0.041347 -0.072969 68 1 84
0.195844 0.123634 -0.220638 50 98 141
-0.467225 0.110431 -0.090511 68 1 84
0.528260 -0.372513 0.034663 66 64 133
0.221495 0.528669 -0.063581 68 1 84
-0.492137 0.320570 0.316178 68 1 84
0.111276 0.650356 -0.052773 68 1 84
0.390099 0.461683 0.083597 68 1 84
0.292344 0.525436 0.016337 68 1 84
0.118008 0.400017 -0.209837 71 24 106
-0.038102 0.018540 -0.347056 71 43 122
-0.018758 -0.114807 -0.428294 68 1 84
-0.392500 0.461046 0.116212 68 1 84
0.096832 -0.286616 -0.167454 68 1 84
-0.549290 -0.195016 -0.022900 71 44 123
0.324688 -0.175221 -0.162018 68 1 84
0.216562 0.583089 -0.022360 68 1 84
0.216534 -0.553323 -0.223683 68 1 84
-0.238703 -0.536798 -0.224834 68 1 84
-0.619661 -0.093267 0.398328 30 160 135
-0.128764 -0.065974 -0.355521 68 1 84
-0.473823 0.261165 0.037930 68 1 84
0.031510 0.669842 -0.054167 68 1 84
-0.457948 0.372646 0.137577 68 1 84
-0.538010 -0.479904 0.019211 68 1 84
0.590997 -0.117657 0.070653 60 78 138
0.615726 -0.095380 0.193322 71 22 105
0.045752 0.235786 -0.279578 65 65 134
-0.161522 0.636014 -0.051627 68 1 84
0.450387 -0.181192 -0.117882 71 40 120
-0.601022 -0.085824 0.101652 56 87 140
0.541066 -0.162772 -0.032126 69 53 128
-0.516058 -0.051523 -0.070880 68 1 84
0.086255 -0.107254 -0.357142 68 1 84
0.535669 -0.454045 0.073321 71 24 106
0.419321 0.122857 -0.118480 68 1 84
0.570202 0.144813 0.341633 68 1 84
-0.639198 -0.163408 0.283709 36 133 141
0.477538 0.363918 0.167512 68 1 84
-0.541535 0.027173 0.007738 71 38 118
0.284461 0.400794 -0.098001 68 1 84
0.632302 -0.121614 0.435391 63 69 135
-0.449098 0.348168 0.078396 68 1 84
0.315318 0.023201 -0.191666 71 44 123
-0.353385 0.509687 0.141076 68 1 84
-0.054665 0.406513 -0.213852 66 64 133
-0.550819 -0.343396 0.035033 71 39 119
0.363647 0.012215 -0.170303 54 91 140
-0.010389 0.090602 -0.295300 48 103 141
-0.066136 0.610830 -0.142671 68 1 84
0.366070 -0.533817 -0.165573 68 1 84
0.519430 0.292429 0.353605 68 1 84
0.219065 -0.482684 -0.189901 68 1 84
-0.614618 -0.071663 0.403711 31 161 135
-0.443786 0.088216 -0.126305 68 1 84
-0.300675 -0.141667 -0.178949 68 1 84
-0.269199 -0.275311 -0.163035 68 1 84
0.646974 -0.289769 0.355917 64 67 135
-0.155352 0.159504 -0.244550 61 75 137
0.521176 -0.472047 0.047963 70 14 97
-0.363845 0.496511 0.128538 68 1 84
0.569670 0.144457 0.469458 68 1 84
-0.388885 0.481697 0.221467 68 1 84
0.463695 -0.540820 -0.061885 68 1 84
0.524450 0.008418 -0.016031 66 64 133
0.598741 -0.170523 0.081963 61 74 137
-0.005219 -0.125421 -0.418629 68 1 84
0.380309 0.035266 -0.160367 70 14 97
-0.498399 0.318219 0.207244 68 1 84
0.197610 0.281058 -0.177325 67 59 131
-0.437397 0.421091 0.212067 68 1 84
0.177441 0.531621 -0.096578 68 1 84
-0.031546 -0.045139 -0.443045 68 1 84
0.201012 -0.140875 -0.187876 71 40 120
-0.436584 0.020255 -0.144838 68 1 84
-0.520010 -0.238815 -0.038002 71 44 123
0.523702 0.226650 0.134868 68 1 84
-0.388362 -0.131640 -0.161475 68 1 84
0.204008 -0.444735 -0.186354 68 1 84
0.617629 -0.546581 0.272674 41 121 142
-0.619520 -0.462532 0.237968 42 176 126
-0.060766 0.377574 -0.245439 67 58 131
0.372502 0.317137 -0.080427 68 1 84
0.521917 0.285908 0.448954 68 1 84
-0.203367 0.483374 -0.112459 68 1 84
-0.207279 0.353304 -0.160783 69 52 127
-0.641943 -0.224700 0.469443 154 216 60
-0.561778 -0.274319 0.030845 62 73 137
-0.142256 -0.207495 -0.204688 68 1 84
0.397381 0.187661 -0.119172 68 1 84
-0.304905 0.542468 0.082732 68 1 84
0.167223 -0.513303 -0.218208 68 1 84
-0.382944 0.482431 0.155570 68 1 84
0.309560 0.228872 -0.177332 71 42 121
-0.568612 -0.503187 0.091183 72 29 111
-0.351567 0.347413 -0.061046 68 1 84
-0.216807 0.614965 0.026587 68 1 84
-0.200692 0.215982 -0.212645 66 64 133
0.274727 0.208459 -0.201729 70 45 124
-0.035329 0.543923 -0.181837 68 1 84
0.161836 -0.393744 -0.172150 68 1 84
0.310908 -0.247884 -0.158167 68 1 84
0.486110 0.358203 0.214255 68 1 84
0.354001 0.207445 -0.151271 69 6 90
0.034716 0.437450 -0.200577 72 32 113
-0.633659 -0.163410 0.380480 121 209 81
-0.533561 0.201773 0.142499 68 1 84
-0.316474 -0.001522 -0.205559 68 1 84
0.295028 -0.030727 -0.195552 70 9 92
0.064294 0.383798 -0.251689 71 38 118
0.584723 -0.462408 0.180272 65 65 134
-0.604599 -0.029270 0.358132 49 101 141
-0.230401 -0.527650 -0.222912 68 1 84
0.282436 0.422495 -0.084515 68 1 84
-0.177997 0.079147 -0.217557 71 24 106
0.619398 -0.200988 0.141493 47 105 141
0.136471 0.289210 -0.213866 62 72 136
0.469271 0.343218 0.100289 68 1 84
0.034444 -0.170640 -0.355292 68 1 84
-0.291274 0.045159 -0.208019 68 1 84
-0.644798 -0.287391 0.272946 46 178 124
0.028726 0.236061 -0.286047 57 85 139
-0.636665 -0.169372 0.368088 119 208 82
-0.275245 -0.009729 -0.208636 68 1 84
-0.545089 0.188348 0.186668 68 1 84
-0.482867 -0.161408 -0.104893 68 1 84
0.364782 -0.273759 -0.137569 68 1 84
-0.419587 0.260865 -0.058108 68 1 84
0.447308 0.206713 -0.045296 68 1 84
-0.191254 -0.197325 -0.186555 68 1 84
0.312280 0.284225 -0.150507 68 1 84
-0.030879 0.562549 -0.177334 68 1 84
0.537113 0.240863 0.231399 68 1 84
0.574300 -0.014205 0.090576 71 22 105
-0.033325 0.646199 -0.104831 68 1 84
-0.654079 -0.535312 0.349242 194 223 34
0.590002 -0.378532 0.154126 42 118 142
-0.024507 0.011069 -0.396188 70 14 97
-0.207379 -0.464712 -0.188851 68 1 84
0.393922 -0.518441 -0.149169 68 1 84
-0.491028 -0.485910 -0.077526 68 1 84
0.676424 -0.412927 0.452097 30 155 137
-0.053163 -0.245874 -0.298609 68 1 84
0.144540 -0.350055 -0.149715 68 1 84
0.558487 -0.036886 0.028565 68 1 84
-0.365285 0.419417 0.014796 68 1 84
-0.515575 0.189850 0.066110 68 1 84
-0.606435 -0.034452 0.379695 39 126 142
-0.184293 -0.209769 -0.184548 68 1 84
-0.318869 -0.136407 -0.176344 68 1 84
-0.380048 0.489790 0.187681 68 1 84
-0.258765 -0.131164 -0.191376 68 1 84
0.098338 0.010229 -0.293725 69 50 127
0.650771 -0.305032 0.385739 45 110 142
0.148627 -0.089350 -0.204957 62 73 137
-0.556327 -0.113984 -0.022778 68 1 84
0.092034 -0.195769 -0.227331 68 1 84
0.073513 -0.107331 -0.385548 68 1 84
-0.526147 -0.448699 -0.012309 68 1 84
0.095541 0.347860 -0.253569 60 77 138
0.617238 -0.058858 0.410491 67 60 132
-0.287713 -0.414124 -0.191724 68 1 84
-0.248902 -0.530600 -0.218653 68 1 84
0.160221 0.593384 -0.076707 68 1 84
0.266189 0.063014 -0.205411 59 81 138
0.150692 0.451361 -0.162470 68 1 84
-0.279859 0.292622 -0.115236 69 8 91
-0.367566 -0.509070 -0.175260 68 1 84
0.215247 0.351657 -0.162259 68 1 84
-0.341329 -0.274886 -0.151925 68 1 84
0.355850 0.301022 -0.108237 68 1 84
0.556958 0.193865 0.338162 68 1 84
-0.157232 0.646221 -0.015030 68 1 84
0.200054 0.540920 -0.074006 68 1 84
0.384723 0.342311 -0.043676 68 1 84
0.032207 -0.124214 -0.409938 68 1 84
-0.321870 0.280302 -0.111381 68 1 84
-0.468998 0.294710 0.061278 68 1 84
-0.261426 0.583316 0.100150 68 1 84
0.314963 0.152715 -0.187869 69 53 128
0.032429 -0.282223 -0.255537 68 1 84
-0.576294 0.038423 0.147337 71 43 122
0.094605 -0.165819 -0.244003 68 1 84
-0.496790 0.264430 0.459574 69 53 128
-0.622693 -0.330222 0.191749 38 128 142
0.636409 -0.181373 0.446912 45 111 142
-0.072372 -0.287577 -0.248286 68 1 84
0.587177 -0.292864 0.098921 50 99 141
0.112142 0.656408 -0.026594 68 1 84
-0.492667 0.026982 -0.084250 68 1 84
0.540693 0.223232 0.483557 68 1 84
-0.630372 -0.520755 0.265195 50 181 122
-0.376746 0.266836 -0.096117 68 1 84
-0.035936 0.013573 -0.383993 71 17 99
-0.173827 0.376275 -0.179245 71 38 118
-0.397798 -0.055905 -0.168833 68 1 84
0.534130 0.011227 0.004190 72 32 113
-0.129359 -0.043924 -0.359066 68 1 84
-0.121287 0.657268 -0.036510 68 1 84
0.243669 -0.395298 -0.202615 68 1 84
0.344536 -0.161376 -0.162021 68 1 84
0.132165 0.492267 -0.151544 68 1 84
0.641762 -0.278080 0.305924 63 71 136
-0.487105 -0.089331 -0.105775 68 1 84
0.495738 0.340280 0.290945 68 1 84
-0.574747 0.065912 0.403964 65 66 134
-0.515735 0.091573 -0.011347 70 9 92
-0.298618 -0.417313 -0.195771 68 1 84
0.574503 0.137950 0.371008 68 1 84
0.477408 0.361304 0.160197 68 1 84
-0.494206 -0.343594 -0.030005 68 1 84
-0.193599 -0.209869 -0.181908 68 1 84
0.464292 0.390613 0.331956 68 1 84
-0.030687 0.406342 -0.215617 68 57 130
0.566577 0.022174 0.098842 71 40 120
-0.097145 -0.501850 -0.222342 68 1 84
0.235256 0.575389 -0.001977 68 1 84
-0.012825 0.113871 -0.290128 35 135 141
-0.567902 0.113830 0.246410 68 1 84
0.494407 0.343814 0.258642 68 1 84
0.506492 0.114577 0.007199 68 1 84
-0.002801 -0.249220 -0.303384 68 1 84
0.558450 0.188611 0.327710 68 1 84
-0.163680 0.275348 -0.199265 61 75 137
0.486086 0.359290 0.257402 68 1 84
-0.474340 -0.013489 -0.113704 68 1 84
-0.124859 -0.258166 -0.188528 68 1 84
0.655694 -0.297457 0.428770 46 108 142
0.459374 0.059792 -0.090911 71 18 101
-0.155440 -0.470571 -0.200577 68 1 84
-0.123964 -0.261240 -0.187195 68 1 84
-0.534613 -0.514924 0.016316 68 1 84
-0.603035 -0.023475 0.280327 66 64 133
0.324405 0.128808 -0.184560 61 76 137
0.546874 -0.021360 0.011761 68 1 84
-0.097452 0.438776 -0.182947 72 33 114
0.142748 -0.112275 -0.208034 68 1 84
-0.450833 0.400353 0.200944 68 1 84
0.454476 0.407682 0.306724 68 1 84
-0.652311 -0.286418 0.359279 139 213 70
0.004985 0.049688 -0.310763 71 44 123
0.007170 -0.443319 -0.216726 68 1 84
0.458934 0.292633 0.030956 68 1 84
0.463388 -0.257114 -0.072741 68 1 84
-0.194096 -0.096243 -0.202253 68 1 84
0.587821 -0.023871 0.143332 68 1 84
0.298120 0.282242 -0.158665 68 1 84
0.586493 -0.266010 0.083232 54 91 140
0.524417 0.280844 0.353165 68 1 84
-0.118769 -0.257168 -0.194351 68 1 84
0.113195 0.603088 -0.105994 68 1 84
-0.631709 -0.181970 0.488925 112 206 86
0.640359 -0.219550 0.464828 36 133 141
-0.081505 0.485056 -0.178465 71 15 98
0.028570 -0.347936 -0.216579 68 1 84
0.256656 -0.500189 -0.194206 68 1 84
-0.036478 0.643568 -0.107953 68 1 84
-0.186905 0.622846 -0.043107 68 1 84
-0.130591 0.637604 -0.077019 68 1 84
0.434229 -0.122046 -0.137999 66 61 132
0.125456 -0.027133 -0.297349 71 22 105
-0.598914 -0.036536 0.176333 54 91 140
0.142012 -0.191217 -0.192250 68 1 84
-0.538717 -0.014394 -0.021390 72 35 116
-0.566052 0.111278 0.362883 72 30 112
-0.395036 0.435513 0.080039 68 1 84
-0.564001 0.060927 0.463838 39 126 142
-0.684798 -0.458559 0.459403 236 228 26
0.106210 -0.175916 -0.222622 68 1 84
0.669189 -0.413465 0.384132 30 155 137
-0.608777 -0.045054 0.270958 44 114 142
0.027174 0.370935 -0.264714 72 29 111
0.464312 -0.379457 -0.051097 68 1 84
0.056930 0.476645 -0.181412 71 20 102
-0.070465 -0.114703 -0.414711 68 1 84
-0.223426 -0.371328 -0.154502 68 1 84
-0.482074 -0.521857 -0.079272 68 1 84
0.635655 -0.226320 0.220359 30 151 138
0.096719 -0.153767 -0.248231 68 1 84
-0.404455 -0.221440 -0.130092 68 1 84
0.012234 -0.258532 -0.291054 68 1 84
-0.528324 0.240443 0.325407 68 1 84
-0.506912 0.280248 0.355658 68 1 84
0.349658 -0.245196 -0.144816 68 1 84
0.188424 0.617048 -0.005138 68 1 84
0.485365 0.332736 0.135742 68 1 84
-0.515231 0.099609 -0.007308 71 20 102
-0.120547 0.329644 -0.250468 71 24 106
0.166656 0.189338 -0.240023 38 127 142
-0.539569 0.205652 0.186244 68 1 84
0.606297 -0.561629 0.247688 62 72 136
0.555835 0.187682 0.262013 68 1 84
-0.560540 0.129745 0.193852 68 1 84
0.543729 0.230664 0.276747 68 1 84
0.670933 -0.341684 0.493851 41 121 142
-0.406444 0.275975 -0.063516 68 1 84
-0.001882 0.584711 -0.168842 68 1 84
-0.644839 -0.258946 0.266780 56 185 118
0.158558 -0.019721 -0.194644 58 82 139
0.372718 0.514485 0.171412 68 1 84
0.607736 -0.026510 0.328236 68 1 84
0.528521 0.261406 0.218123 68 1 84
0.519946 0.133504 0.050833 68 1 84
0.496269 0.307136 0.137495 68 1 84
-0.301734 -0.570175 -0.208748 68 1 84
0.602164 -0.065775 0.158429 70 12 95
0.172457 0.507637 -0.114198 68 1 84
0.545097 -0.402652 0.073072 72 33 114
0.611769 -0.060492 0.277874 70 12 95
0.636753 -0.138940 0.451965 59 81 138
-0.639687 -0.242156 0.220418 37 131 141
0.535716 0.255562 0.301008 68 1 84
-0.488532 0.338700 0.239104 68 1 84
-0.604871 -0.263168 0.107665 56 86 139
0.557520 0.118451 0.150620 68 1 84
0.582670 -0.471459 0.178148 69 50 127
0.033447 -0.012146 -0.405397 68 1 84
-0.632921 -0.229415 0.179684 34 138 141
0.555338 -0.048003 0.015038 68 1 84
-0.158875 0.440149 -0.156242 68 1 84
-0.492465 -0.357233 -0.037300 68 1 84
-0.092894 -0.439428 -0.199766 68 1 84
-0.563813 -0.480964 0.077503 68 1 84
-0.386984 0.482872 0.231403 68 1 84
0.676758 -0.510844 0.402882 73 193 109
0.546079 -0.056666 -0.007956 71 21 103
0.177009 -0.335537 -0.144103 68 1 84
-0.498834 0.122967 -0.026199 71 20 102
-0.021898 0.447234 -0.191075 72 33 114
-0.585121 -0.048220 0.072563 63 71 136
0.556300 -0.201927 0.003244 54 91 140
-0.374061 0.489604 0.261664 68 1 84
0.614772 -0.018530 0.509541 68 1 84
0.649484 -0.265326 0.482214 30 155 137
-0.234528 -0.501274 -0.205166 68 1 84
0.652810 -0.288144 0.413780 49 102 141
0.647049 -0.248002 0.391956 44 113 142
-0.253243 0.563693 -0.016024 68 1 84
0.334760 0.217550 -0.163229 68 1 84
0.015560 -0.295103 -0.261477 68 1 84
0.595076 0.046405 0.355877 68 1 84
0.484313 0.165338 -0.007094 68 1 84
-0.152816 0.469283 -0.150501 68 1 84
-0.556146 0.142115 0.376833 68 1 84
0.052658 -0.389850 -0.188711 68 1 84
0.093970 -0.098305 -0.342373 68 1 84
0.571417 0.150171 0.376673 68 1 84
-0.263160 0.377041 -0.106511 68 1 84
-0.245680 0.336484 -0.132319 71 21 103
-0.591078 -0.021611 0.141857 53 92 140
0.516403 0.299591 0.274139 68 1 84
0.646787 -0.265432 0.355539 67 59 131
0.591233 -0.284559 0.102740 49 100 141
-0.441681 0.075984 -0.131383 68 1 84
0.322173 0.220673 -0.171108 70 11 94
-0.496581 0.320828 0.276129 68 1 84
-0.518229 0.058417 -0.026489 68 1 84
0.084547 -0.225513 -0.216400 68 1 84
0.043285 0.278861 -0.262067 49 102 141
0.588411 0.026634 0.243985 68 1 84
0.615788 -0.056423 0.371984 61 76 137
0.377613 0.023897 -0.162615 71 20 102
-0.564507 0.080566 0.129614 68 1 84
0.187138 -0.526605 -0.223006 68 1 84
0.138057 -0.004987 -0.258400 70 49 126
-0.658991 -0.325737 0.358470 131 211 75
-0.563820 0.135214 0.286069 68 1 84
0.149116 -0.116117 -0.203789 72 25 107
-0.186028 -0.345230 -0.144031 68 1 84
-0.042827 -0.389330 -0.217515 68 1 84
-0.550894 -0.062489 -0.020586 68 2 85
-0.195550 0.579023 -0.080736 68 1 84
0.505750 0.219118 0.073329 68 1 84
-0.495236 0.321614 0.286734 68 1 84
0.081739 -0.119867 -0.351521 68 1 84
-0.282268 -0.215898 -0.165582 68 1 84
-0.545245 -0.473422 0.033932 72 30 112
0.219440 0.588639 -0.007220 68 1 84
0.561518 0.087730 0.144115 68 1 84
-0.155834 0.331034 -0.218180 69 54 129
-0.659654 -0.335933 0.357748 105 204 91
0.104157 -0.172719 -0.226788 68 1 84
-0.551961 0.152211 0.391095 68 3 87
-0.118278 0.367447 -0.232144 72 26 108
0.638287 -0.122743 0.471590 53 93 140
0.438633 -0.470858 -0.113338 68 1 84
0.257183 0.127958 -0.209681 59 81 138
-0.308035 -0.303647 -0.156817 68 1 84
0.645379 -0.232202 0.373656 44 113 142
-0.589967 0.027758 0.303348 69 52 127
0.103919 0.439842 -0.189856 68 1 84
-0.458223 0.089091 -0.110338 68 1 84
0.139081 -0.155328 -0.203214 68 1 84
0.260049 0.308882 -0.155413 68 1 84
-0.039948 0.274551 -0.260359 49 100 141
0.682788 -0.524112 0.462599 225 227 24
-0.586940 -0.236159 0.059266 56 87 140
-0.517620 -0.375743 -0.010859 68 1 84
-0.516799 -0.456832 -0.032709 68 1 84
-0.121792 0.402002 -0.199307 71 17 99
0.199686 0.029554 -0.200294 43 116 142
-0.080914 -0.302567 -0.219071 68 1 84
-0.195710 0.267080 -0.164855 71 39 119
0.006190 -0.478323 -0.221318 68 1 84
0.029798 -0.532428 -0.228600 68 1 84
-0.393992 0.028368 -0.174828 68 1 84
0.133501 -0.507624 -0.218908 68 1 84
-0.597979 -0.487659 0.161631 46 107 142
-0.444968 0.374182 0.393613 68 1 84
-0.018659 0.367895 -0.259664 67 58 131
0.223600 0.310674 -0.162729 72 34 115
0.005300 -0.451879 -0.218132 68 1 84
0.303066 0.371656 -0.104506 68 1 84
0.484593 -0.021250 -0.084830 69 52 127
-0.532306 0.238391 0.292027 68 1 84
-0.509865 0.204628 0.065070 68 1 84
0.501976 -0.489304 0.009288 68 1 84
0.187323 0.144022 -0.227496 52 95 141
-0.328868 0.413982 -0.032632 68 1 84
0.431325 -0.285938 -0.082742 71 21 103
-0.317582 0.494404 0.019289 68 1 84
0.181148 0.551592 -0.083327 68 1 84
-0.025925 0.026092 -0.349052 72 29 111
0.412436 0.005301 -0.142877 70 14 97
-0.093278 0.082039 -0.279796 69 54 129
0.300233 0.234317 -0.181544 71 40 120
-0.052925 0.271217 -0.258499 57 84 139
0.472718 0.215626 0.001233 68 1 84
-0.004948 -0.412547 -0.216917 68 1 84
-0.527827 0.077592 0.006439 71 15 98
0.130764 -0.008056 -0.287500 71 17 99
0.087847 0.134077 -0.266103 40 122 142
0.096566 0.037411 -0.255082 61 76 137
0.245605 0.388981 -0.131462 68 1 84
0.512428 -0.422215 0.018201 70 14 97
-0.357419 0.146100 -0.172992 71 37 117
0.490667 0.179379 0.012772 68 1 84
-0.444780 -0.468340 -0.130068 68 1 84
-0.511592 -0.543553 -0.030567 68 1 84
0.516491 -0.081280 -0.061852 71 20 102
-0.556416 -0.103985 -0.020767 68 1 84
-0.578709 -0.036867 0.060367 66 62 133
-0.160263 -0.058806 -0.256302 70 9 92
0.128775 0.171405 -0.253559 45 110 142
0.087735 -0.120137 -0.318537 68 1 84
0.539416 -0.259321 0.003464 62 73 137
-0.411129 0.321066 -0.021181 68 1 84
-0.584121 -0.447081 0.119679 63 71 136
-0.219017 0.090619 -0.214114 71 39 119
0.636516 -0.158141 0.307243 48 104 141
-0.472934 -0.174678 -0.109675 68 1 84
0.147888 0.374893 -0.204080 71 39 119
-0.352309 0.441174 0.017339 68 1 84
0.536462 0.124895 0.089828 68 1 84
-0.530001 0.130441 0.050179 68 1 84
-0.384843 -0.572589 -0.165599 68 1 84
0.482731 0.282532 0.069862 68 1 84
0.309925 -0.141567 -0.169024 68 1 84
-0.322409 -0.489651 -0.185093 68 1 84
0.619695 -0.502164 0.276076 30 152 138
-0.387392 0.398734 0.027259 68 1 84
-0.558255 0.084008 0.461702 39 125 142
-0.640373 -0.333508 0.270907 36 170 130
0.600483 -0.026384 0.242149 68 1 84
0.563185 0.182960 0.445077 68 1 84
0.468988 -0.487756 -0.065596 68 1 84
-0.561365 -0.083384 -0.006638 68 1 84
0.393378 -0.471749 -0.150934 68 1 84
0.146630 0.634168 -0.043623 68 1 84
0.340961 -0.371730 -0.162288 68 1 84
-0.472361 0.306660 0.082443 68 1 84
0.350923 -0.140309 -0.166031 71 18 101
-0.502399 0.265516 0.433826 71 43 122
-0.304223 -0.012753 -0.207125 68 1 84
-0.453521 -0.536216 -0.114201 68 1 84
-0.020668 0.163275 -0.291592 42 117 142
-0.086542 -0.327509 -0.188753 68 1 84
-0.437365 0.400277 0.122587 68 1 84
0.313340 0.101791 -0.191894 71 44 123
-0.109040 -0.203275 -0.245783 68 1 84
-0.576947 0.022268 0.120393 67 60 132
-0.634572 -0.139494 0.303481 30 158 136
-0.065857 0.259624 -0.255559 52 94 141
-0.492984 0.324510 0.293063 68 1 84
-0.618006 -0.529878 0.222130 42 118 142
-0.016300 0.425652 -0.202779 71 37 117
0.462509 0.277579 0.025553 68 1 84
0.052185 0.367379 -0.267031 72 32 113
0.642216 -0.265679 0.306830 57 84 139
0.516929 0.297787 0.265064 68 1 84
0.565322 0.142811 0.211106 68 1 84
0.489627 0.215760 0.033590 68 1 84
-0.328546 -0.264954 -0.155115 68 1 84
0.589135 -0.155579 0.059169 70 48 125
-0.550395 0.176735 0.326529 68 1 84
-0.147249 0.560431 -0.132496 68 1 84
0.625392 -0.386756 0.256949 46 107 142
0.552592 0.197827 0.250729 68 1 84
0.089538 0.532770 -0.156836 68 1 84
-0.495985 0.306917 0.155163 68 1 84
0.264181 0.330047 -0.145144 68 1 84
-0.472362 -0.205922 -0.097866 68 1 84
-0.229984 -0.225438 -0.169932 68 1 84
-0.311452 -0.407552 -0.185686 68 1 84
-0.013424 -0.168586 -0.377238 68 1 84
0.227511 0.355050 -0.154101 69 8 91
0.643737 -0.303583 0.329747 68 57 130
0.264447 0.097427 -0.206605 58 83 139
0.128865 0.015677 -0.242369 61 74 137
-0.287253 0.092519 -0.206721 68 1 84
-0.648306 -0.246404 0.337875 85 198 102
-0.547111 -0.365452 0.033846 71 18 101
-0.631073 -0.208590 0.171426 45 111 142
0.117539 -0.029863 -0.312833 72 29 111
-0.661924 -0.323543 0.370624 44 177 125
-0.239964 0.495615 -0.076311 68 1 84
-0.123282 0.563943 -0.148800 68 1 84
-0.500166 0.282159 0.129165 68 1 84
0.015588 0.628000 -0.132545 68 1 84
0.468904 0.342268 0.098206 68 1 84
-0.015922 -0.046470 -0.445253 68 1 84
0.361658 0.426674 0.006500 68 1 84
-0.681426 -0.518152 0.454250 131 211 75
0.559269 0.158303 0.493531 68 1 84
-0.043111 -0.137527 -0.404555 68 1 84
-0.328956 0.346910 -0.073654 68 1 84
0.111348 0.182291 -0.265284 38 127 142
0.086598 -0.229025 -0.212427 68 1 84
-0.237852 0.526767 -0.066142 68 1 84
-0.078848 0.352345 -0.266615 69 54 129
0.379193 0.364391 -0.030080 68 1 84
0.218400 0.481923 -0.095735 68 1 84
-0.101449 -0.025410 -0.389889 68 1 84
0.072726 0.228822 -0.279237 52 94 141
-0.450686 0.044360 -0.129269 68 1 84
0.152674 0.031362 -0.197907 50 99 141
0.582515 0.119329 0.409429 68 1 84
-0.016653 0.575076 -0.173583 68 1 84
-0.565467 0.056395 0.104510 66 62 133
-0.407234 -0.573740 -0.148562 68 1 84
0.639207 -0.309856 0.294981 69 50 127
-0.249300 0.592924 0.080105 68 1 84
0.017662 0.360856 -0.272049 71 24 106
0.447819 -0.414871 -0.089898 68 1 84
0.558271 0.175723 0.479881 68 1 84
0.591587 -0.077525 0.093961 71 44 123
-0.272180 0.074231 -0.207392 68 1 84
0.584242 0.032980 0.216254 68 1 84
-0.631382 -0.264882 0.185956 39 126 142
0.071532 0.340991 -0.270301 71 43 122
-0.033262 -0.321099 -0.249958 68 1 84
0.390435 0.395557 0.015230 68 1 84
-0.599879 -0.071232 0.111381 65 66 134
