ply
format ascii 1.0
element vertex 1249
property float x
property float y
property float z
property uchar red
property uchar green
property uchar blue
end_header
0.594443 -0.321600 0.232925 68 1 84
0.290010 0.112090 -0.158088 33 141 140
-0.272881 -0.240586 -0.145799 53 93 140
0.364374 0.444007 -0.013075 68 55 129
0.549682 -0.501242 0.115085 72 25 107
0.614317 -0.336075 0.443809 70 47 124
-0.095473 0.658888 -0.086205 69 5 88
0.114502 -0.000928 -0.332927 31 149 139
0.448359 -0.254065 -0.049591 69 54 129
-0.615193 -0.142583 0.170663 62 72 136
-0.316852 0.092539 -0.136869 45 111 142
-0.557410 0.126046 0.195640 63 69 135
0.057422 0.371052 -0.229966 72 34 115
-0.583844 -0.054678 0.110280 66 61 132
0.150290 -0.193500 -0.235427 33 142 140
0.098707 0.046049 -0.288022 31 149 139
-0.588146 0.080050 0.313583 70 49 126
0.190016 0.632046 -0.112705 70 49 126
0.589955 -0.156007 0.498853 31 150 139
-0.631887 -0.164882 0.243448 71 24 106
-0.071356 0.563727 -0.210976 71 43 122
-0.476471 -0.471112 -0.163066 68 1 84
-0.587600 0.112900 0.451369 31 162 134
-0.551287 0.214581 0.276086 66 62 133
0.509306 0.115251 0.080462 42 118 142
-0.520253 -0.157298 -0.019125 66 64 133
-0.277510 0.243529 -0.155065 72 35 116
0.299089 -0.140344 -0.146760 40 174 127
0.494057 -0.435885 -0.046782 68 1 84
0.506008 0.114553 0.073398 42 117 142
0.119058 -0.196089 -0.327417 68 1 84
-0.464546 0.346115 0.178295 68 1 84
-0.147191 -0.471523 -0.296890 68 1 84
0.534980 0.164893 0.563652 253 231 36
0.168041 -0.043428 -0.251884 32 165 133
0.440669 -0.388191 -0.042358 70 48 125
-0.008271 0.141862 -0.300752 34 137 141
0.342429 -0.519028 -0.236076 68 1 84
0.301409 0.063700 -0.150564 31 147 139
-0.616960 -0.138176 0.182887 66 61 132
0.068320 -0.367683 -0.296650 68 1 84
0.146268 -0.265801 -0.183984 47 105 141
-0.475881 -0.098064 -0.056835 66 64 133
-0.513009 0.321123 0.444628 47 105 141
0.115374 -0.319841 -0.141045 45 110 142
-0.220668 -0.282372 -0.134235 38 129 142
-0.551243 0.245147 0.427217 51 97 141
-0.400564 0.042173 -0.090634 68 57 130
-0.026230 -0.280774 -0.367795 68 55 129
0.207707 0.291858 -0.191226 69 52 127
0.206322 0.563016 -0.161598 68 1 84
-0.629517 -0.077470 0.454087 46 108 142
0.107292 0.652234 -0.120607 52 94 141
0.603831 -0.210462 0.371458 51 96 141
-0.149337 -0.283967 -0.157185 55 88 140
0.325224 -0.476319 -0.228440 68 1 84
-0.620930 -0.151064 0.191947 68 1 84
0.348353 0.524453 0.160683 35 137 141
0.583009 -0.334415 0.190065 69 6 90
0.059041 0.019402 -0.477141 68 1 84
-0.318904 0.124196 -0.130717 48 104 141
0.521673 0.266252 0.214055 46 107 142
-0.518031 0.312923 0.444565 44 112 142
-0.428653 -0.287186 -0.066649 66 61 132
-0.008556 0.111186 -0.301975 50 99 141
0.265056 -0.265326 -0.125918 37 131 141
-0.302558 0.264413 -0.134714 71 22 105
0.108949 0.540521 -0.227110 68 1 84
0.154074 0.083818 -0.225040 54 184 119
-0.470047 -0.264495 -0.048866 69 8 91
-0.244055 0.120977 -0.172491 40 122 142
-0.394801 -0.250281 -0.102175 57 84 139
0.515152 -0.069343 0.022744 44 113 142
0.100983 0.544104 -0.226701 71 20 102
0.025599 -0.048678 -0.490797 69 54 129
0.136350 0.329381 -0.243648 72 34 115
-0.185740 0.071987 -0.190928 47 179 123
0.586044 -0.072936 0.282091 38 127 142
0.260595 0.588334 -0.082367 71 22 105
0.316004 0.557656 0.036550 54 90 140
0.605092 -0.239826 0.424598 34 167 132
0.179126 -0.418193 -0.159643 70 14 97
-0.513417 0.243505 0.180719 70 9 92
-0.265938 0.192977 -0.168318 61 76 137
-0.175954 0.283742 -0.178367 71 15 98
0.173610 0.638172 -0.114623 70 48 125
0.545218 -0.412813 0.087004 68 1 84
0.582789 0.093550 0.393139 62 188 115
0.229773 -0.458144 -0.224294 68 1 84
-0.107877 0.092417 -0.236706 30 152 138
0.483970 -0.336632 0.010334 68 1 84
-0.621907 -0.395682 0.180352 68 1 84
-0.083284 -0.134132 -0.312556 40 122 142
0.235217 -0.063362 -0.179825 30 155 137
0.599600 -0.263260 0.517905 83 197 103
0.517434 0.024083 0.060416 38 128 142
-0.636397 -0.245104 0.208014 71 18 101
0.641399 -0.480985 0.530874 53 93 140
-0.417989 0.392513 0.125211 68 1 84
0.160016 0.569873 -0.194456 68 1 84
0.278870 -0.038120 -0.166372 33 140 141
-0.485635 -0.168639 -0.053846 69 50 127
-0.666736 -0.270988 0.453950 61 76 137
-0.119805 0.031075 -0.216684 33 140 141
0.330495 0.543747 0.108613 54 91 140
-0.551960 0.243469 0.425836 49 102 141
0.296666 -0.349005 -0.106355 36 132 141
0.263269 0.336823 -0.142659 68 1 84
0.289243 0.120156 -0.160101 46 109 142
-0.052171 0.499894 -0.224538 68 3 87
0.450610 -0.302761 -0.025522 68 1 84
-0.168338 -0.282933 -0.148165 44 113 142
0.591161 -0.038696 0.373633 94 201 97
0.576524 0.037755 0.257581 35 169 130
0.124070 -0.368510 -0.105616 59 186 117
0.583275 -0.001258 0.473688 59 186 117
-0.303193 0.054147 -0.150844 37 130 142
0.501551 0.303559 0.498134 81 196 104
-0.634934 -0.103350 0.441567 51 96 141
-0.416361 0.410188 0.151019 68 1 84
-0.643114 -0.220531 0.250264 68 1 84
-0.089692 0.050344 -0.238581 37 171 129
-0.273846 -0.296101 -0.127908 70 49 126
-0.345157 -0.402875 -0.162957 68 1 84
-0.590922 -0.151263 0.092219 72 26 108
0.121489 0.652174 -0.115480 45 110 142
0.572368 -0.053264 0.587238 89 199 100
-0.044439 -0.220776 -0.370490 67 58 131
-0.601551 0.010020 0.327854 49 101 141
-0.094382 -0.034475 -0.371895 67 59 131
0.071756 -0.364727 -0.293928 68 1 84
-0.598746 0.006431 0.296213 56 86 139
-0.342294 0.382638 -0.032327 68 1 84
-0.647887 -0.293722 0.234262 68 3 87
-0.410988 0.417001 0.147822 68 1 84
-0.195094 -0.190903 -0.193127 37 130 142
0.513119 -0.018925 0.036114 35 137 141
0.594144 -0.368683 0.241125 57 84 139
0.604917 -0.327989 0.554392 35 136 141
0.469658 -0.122544 -0.036931 69 54 129
0.622328 -0.475504 0.311457 68 1 84
-0.221505 -0.395359 -0.135209 68 1 84
0.040646 -0.226201 -0.411256 71 18 101
0.277913 -0.016671 -0.165440 30 158 136
-0.593140 -0.090144 0.116610 71 17 99
0.268894 0.109464 -0.170367 32 145 140
-0.174718 -0.452095 -0.253130 68 1 84
0.126347 0.479555 -0.218428 68 1 84
0.621230 -0.374190 0.351473 61 74 137
0.594718 -0.144284 0.341225 31 150 139
0.185625 0.286269 -0.210983 61 75 137
-0.329338 0.528365 0.223736 41 120 142
0.457169 0.200730 0.014508 50 98 141
0.126024 -0.257421 -0.250474 66 62 133
-0.473598 -0.473578 -0.167141 68 1 84
0.255196 -0.446026 -0.204825 68 1 84
0.016316 0.428921 -0.217954 68 1 84
-0.578166 0.019177 0.175410 70 49 126
-0.316415 -0.266598 -0.126031 68 57 130
0.292743 -0.487029 -0.245454 68 1 84
-0.687624 -0.373254 0.354010 71 24 106
-0.128936 0.611282 -0.140525 68 1 84
-0.581596 0.051965 0.232749 57 84 139
-0.549136 -0.197645 0.017721 68 1 84
-0.498794 0.318007 0.233377 72 29 111
0.259201 -0.155688 -0.161486 41 121 142
-0.349709 -0.090118 -0.141677 57 85 139
0.477228 -0.547343 -0.101559 68 1 84
0.085681 -0.402314 -0.255785 71 20 102
-0.175361 0.637961 -0.030579 68 1 84
-0.545606 0.171165 0.197296 71 39 119
0.198011 0.288624 -0.200144 66 64 133
-0.607675 -0.124305 0.150421 58 83 139
-0.030469 -0.444336 -0.308852 70 14 97
0.493920 -0.473011 -0.079284 68 1 84
0.326999 0.546941 0.105833 53 93 140
0.310818 0.563037 0.036386 64 67 135
-0.095068 0.487424 -0.196715 68 1 84
0.554171 -0.231767 0.091624 46 107 142
0.562036 -0.375195 0.133584 68 1 84
-0.555620 0.232154 0.369864 48 104 141
0.582228 -0.155481 0.177895 49 100 141
-0.156102 0.097410 -0.211980 33 141 140
-0.360347 -0.111130 -0.135337 50 99 141
0.373836 0.061492 -0.106349 35 137 141
-0.010233 0.632351 -0.173424 63 71 136
-0.638580 -0.119517 0.448761 50 98 141
0.342675 0.527302 0.046493 67 59 131
0.434018 0.431927 0.230415 41 121 142
0.256109 0.557074 -0.114682 68 1 84
0.089763 -0.344599 -0.170712 46 107 142
0.591706 -0.212264 0.567851 75 194 108
0.017964 0.515644 -0.231286 66 62 133
-0.371943 -0.391468 -0.126410 68 1 84
-0.057980 -0.043953 -0.437247 70 45 124
-0.355383 0.064059 -0.120061 51 96 141
0.136321 -0.151745 -0.277951 54 90 140
-0.082478 -0.307780 -0.254867 70 9 92
-0.062327 -0.272816 -0.329094 65 66 134
-0.516950 -0.008933 0.011182 72 33 114
-0.527658 -0.209084 -0.007097 71 39 119
0.599353 -0.180483 0.333550 31 146 140
-0.521611 0.186050 0.147867 71 15 98
-0.476226 0.140994 0.033132 69 5 88
-0.437343 -0.410241 -0.153257 68 1 84
-0.659793 -0.222084 0.494466 70 49 126
0.065523 0.053316 -0.429237 67 59 131
-0.651984 -0.179116 0.515216 45 111 142
-0.342140 0.012708 -0.137791 43 116 142
-0.023319 0.015444 -0.321646 48 103 141
0.505372 0.325984 0.352022 36 170 130
0.166945 0.105033 -0.227310 31 150 139
0.366683 0.366673 -0.055999 71 42 121
0.222068 0.044200 -0.177376 68 190 112
0.624368 -0.396233 0.478736 59 80 138
-0.084127 -0.010353 -0.388048 69 5 88
-0.121416 -0.425177 -0.230437 68 1 84
0.403505 0.334751 -0.020806 66 62 133
-0.359237 -0.469166 -0.246769 68 1 84
0.083180 -0.367259 -0.211706 52 94 141
-0.286621 0.566213 0.149245 68 55 129
0.099702 -0.135662 -0.424163 67 60 132
0.586603 -0.054026 0.294827 33 142 140
0.184621 0.637918 -0.102792 62 72 136
0.342204 -0.178027 -0.121590 49 100 141
0.486618 -0.239914 -0.010597 69 54 129
0.362882 -0.545560 -0.224485 68 1 84
-0.289418 -0.508315 -0.281450 68 1 84
-0.696908 -0.354299 0.477092 72 29 111
0.408125 0.385713 0.020443 49 100 141
-0.469636 0.226556 0.073363 68 1 84
-0.583505 0.085353 0.286208 70 9 92
0.451692 0.335407 0.064132 59 81 138
0.432656 0.026235 -0.057087 32 145 140
-0.087762 0.060229 -0.237766 30 154 137
-0.291874 -0.454094 -0.247344 68 1 84
-0.615304 -0.099368 0.246904 42 117 142
-0.685799 -0.406452 0.347433 68 1 84
0.549501 -0.361895 0.094978 68 1 84
-0.379892 -0.390433 -0.132395 68 1 84
-0.065911 -0.172946 -0.344914 69 50 127
0.599793 -0.293148 0.554501 157 217 58
-0.252351 0.057487 -0.166683 30 153 138
-0.282594 -0.309588 -0.126126 57 85 139
0.382691 -0.118210 -0.104428 53 93 140
0.306170 0.338105 -0.116645 68 55 129
0.492004 0.333359 0.457591 44 177 125
0.108365 0.155290 -0.288197 36 133 141
-0.704625 -0.505116 0.365970 68 1 84
0.144364 -0.187845 -0.249007 41 120 142
0.525389 0.251490 0.502108 68 190 112
0.516432 -0.303556 0.043176 72 26 108
0.188464 -0.108130 -0.198233 48 180 122
0.154396 0.379873 -0.208753 68 1 84
0.076612 0.016519 -0.373111 33 141 140
-0.667690 -0.343212 0.285233 61 74 137
0.066926 -0.023850 -0.488800 68 1 84
-0.022152 -0.326260 -0.348870 71 17 99
0.568277 -0.506450 0.176962 68 1 84
0.298282 0.447671 -0.091587 70 12 95
0.608026 -0.252661 0.328086 70 49 126
0.581312 -0.098583 0.571855 42 119 142
-0.110160 -0.231921 -0.260891 31 148 139
0.058733 0.639136 -0.157175 71 37 117
0.145633 -0.042183 -0.398826 69 54 129
-0.052358 -0.391137 -0.283210 68 1 84
-0.249573 0.106766 -0.167132 33 142 140
-0.478070 0.374555 0.386098 70 45 124
0.355431 -0.392875 -0.076293 48 103 141
-0.368850 0.490840 0.271356 38 127 142
0.471245 0.368770 0.413801 37 171 129
-0.534598 -0.381531 -0.012070 68 1 84
0.507850 -0.217925 0.012101 72 32 113
-0.327113 0.210801 -0.116770 71 43 122
0.218595 0.510219 -0.156258 68 1 84
-0.517072 0.082791 0.062591 71 20 102
0.484111 0.267012 0.090716 55 88 140
0.479242 -0.482824 -0.114982 68 1 84
0.573505 -0.197127 0.138403 49 102 141
0.466183 -0.540859 -0.124388 68 1 84
-0.637135 -0.105335 0.498690 67 60 132
-0.056786 -0.346914 -0.301777 71 17 99
-0.453756 0.213434 0.036771 68 1 84
-0.514929 -0.041351 -0.004858 71 43 122
0.179411 0.332361 -0.215360 68 1 84
0.524430 -0.297550 0.052451 72 28 110
0.329125 0.545919 0.076799 63 71 136
0.594363 -0.178618 0.460946 30 158 136
0.550748 -0.430862 0.109395 68 1 84
0.388518 0.185591 -0.076864 57 84 139
-0.407571 0.425748 0.154172 68 1 84
-0.492322 -0.287463 -0.023971 68 1 84
0.590192 -0.192276 0.210387 42 117 142
0.119127 0.643614 -0.141484 70 45 124
-0.061378 0.279376 -0.266955 68 55 129
0.181986 0.092686 -0.213120 42 176 126
0.261749 0.013942 -0.166015 31 161 135
-0.553543 0.014329 0.087068 72 25 107
-0.097065 0.538087 -0.201522 72 30 112
0.213469 -0.129963 -0.186732 36 170 130
0.639842 -0.520364 0.436576 72 32 113
-0.198292 -0.107257 -0.199865 40 123 142
0.218659 0.602887 -0.126432 68 1 84
-0.369331 -0.499660 -0.250019 68 1 84
0.085192 -0.393413 -0.242405 71 21 103
-0.382271 -0.400910 -0.168027 68 1 84
0.389743 -0.265546 -0.086111 70 47 124
-0.177063 0.422496 -0.159026 68 1 84
-0.099337 -0.211929 -0.281786 59 81 138
0.577860 -0.129541 0.168066 39 124 142
-0.478997 -0.210250 -0.057169 62 72 136
-0.519915 0.083556 0.069130 72 29 111
-0.507872 0.338317 0.368356 67 60 132
0.173357 -0.036845 -0.266686 35 136 141
0.448690 -0.482469 -0.150623 68 1 84
0.586807 -0.153077 0.577271 103 204 92
-0.448730 -0.521333 -0.190442 68 1 84
-0.726538 -0.515099 0.436893 41 120 142
-0.410596 0.330661 0.037812 68 1 84
0.539876 0.261258 0.315818 40 122 142
0.437987 0.424703 0.273308 42 119 142
0.553894 0.093255 0.550126 89 199 100
0.590997 -0.098803 0.324492 31 162 134
-0.625292 -0.149450 0.221172 49 101 141
0.467264 0.229049 0.039198 53 93 140
-0.461940 -0.180809 -0.074375 64 67 135
-0.011526 0.009018 -0.475987 64 68 135
-0.637597 -0.188501 0.249844 68 1 84
-0.234591 0.578020 -0.035257 68 1 84
-0.186529 0.183521 -0.212669 57 85 139
-0.160942 0.056282 -0.197614 79 195 105
-0.643940 -0.143670 0.456616 67 59 131
0.579967 -0.197333 0.160512 33 166 133
0.029463 0.624802 -0.177796 71 17 99
-0.633546 -0.115929 0.373301 60 77 138
0.626946 -0.511216 0.364298 68 1 84
0.315449 -0.251664 -0.120842 79 195 105
0.580281 -0.149324 0.169936 70 49 126
-0.483862 -0.407957 -0.108412 68 1 84
0.525910 0.258238 0.218926 43 116 142
-0.045467 0.387000 -0.224222 68 1 84
-0.252924 -0.417764 -0.198275 68 1 84
0.599062 -0.195853 0.428665 41 175 127
0.627452 -0.408091 0.484506 68 1 84
0.286441 -0.191187 -0.141771 31 162 134
0.497308 0.028106 0.028401 35 137 141
0.283432 0.549324 -0.081208 68 1 84
-0.316018 -0.404589 -0.137622 70 11 94
-0.245008 0.566041 -0.030416 68 1 84
-0.103180 -0.310458 -0.185605 52 95 141
-0.029380 0.104331 -0.297226 31 150 139
0.312166 -0.491572 -0.242832 68 1 84
-0.013194 -0.141045 -0.430720 64 68 135
0.583034 0.078187 0.421434 41 175 127
0.114168 -0.265436 -0.282035 59 81 138
0.335718 -0.411100 -0.111637 68 1 84
-0.497806 0.165801 0.085824 68 1 84
-0.479270 0.047861 -0.009568 68 1 84
0.649513 -0.516751 0.503057 52 94 141
0.548797 0.242212 0.403684 30 152 138
0.220404 -0.408192 -0.123843 49 100 141
0.288831 0.287261 -0.134195 61 74 137
0.541699 0.219840 0.491721 68 190 112
-0.477648 0.311857 0.165476 68 1 84
0.570007 -0.066902 0.164332 33 167 132
-0.694204 -0.357167 0.396016 71 43 122
0.441228 -0.033430 -0.058385 38 128 142
0.477457 -0.189839 -0.029546 58 82 139
0.123837 0.473375 -0.217255 68 2 85
-0.557955 0.223282 0.361100 47 106 141
-0.130356 0.103496 -0.228531 43 115 142
0.534457 0.216092 0.517409 114 207 85
-0.439463 0.173489 -0.004474 68 1 84
-0.588512 0.046930 0.268863 69 53 128
-0.198232 0.178887 -0.205972 57 85 139
-0.711437 -0.502027 0.378004 68 1 84
-0.112247 0.643154 -0.113495 69 8 91
0.556848 -0.069609 0.105978 32 143 140
-0.018603 -0.306312 -0.360315 66 64 133
-0.098972 0.454491 -0.187915 69 6 90
-0.510411 0.327404 0.434790 60 77 138
-0.195715 0.307736 -0.164310 71 22 105
-0.519536 0.284165 0.248808 71 24 106
0.588013 -0.129389 0.499359 33 166 133
-0.438907 -0.224260 -0.087743 72 28 110
-0.517703 0.134424 0.101197 71 17 99
-0.230262 0.238075 -0.171672 71 24 106
-0.498879 0.274749 0.176203 68 1 84
-0.450791 0.402215 0.418574 54 91 140
-0.722352 -0.500120 0.414181 69 6 90
0.076459 -0.425339 -0.286246 68 1 84
-0.180560 0.632363 -0.039383 68 1 84
0.590853 -0.204549 0.209606 47 106 141
-0.208297 0.619711 -0.006020 69 8 91
-0.464476 -0.510614 -0.173995 68 1 84
-0.541944 0.066577 0.103640 71 38 118
0.111929 -0.203685 -0.347999 70 14 97
0.399004 -0.531057 -0.198404 68 1 84
-0.133135 0.342307 -0.219903 71 44 123
-0.104586 -0.307818 -0.187390 53 93 140
-0.271385 -0.185372 -0.164803 32 143 140
-0.226511 0.613846 0.080819 62 72 136
0.364469 -0.037990 -0.120665 40 123 142
-0.372551 -0.235890 -0.119069 63 71 136
-0.162812 -0.379449 -0.104909 41 121 142
0.108893 -0.301211 -0.237404 68 1 84
-0.626554 -0.294551 0.179250 71 18 101
-0.366816 0.318170 -0.038220 68 1 84
0.499446 -0.456609 -0.054011 68 1 84
-0.616996 -0.209643 0.152989 71 44 123
-0.582398 0.122646 0.337241 53 93 140
-0.310183 0.380147 -0.075328 68 1 84
0.187312 0.175479 -0.236553 30 154 137
-0.636958 -0.113250 0.440050 62 72 136
-0.253443 0.170168 -0.175072 56 86 139
-0.479898 -0.122491 -0.056583 68 57 130
-0.643916 -0.132331 0.504953 55 88 140
0.133813 0.251838 -0.239106 51 97 141
-0.322076 0.226999 -0.120596 72 33 114
0.562931 -0.220886 0.110139 68 57 130
0.560876 0.094746 0.212577 44 112 142
0.137626 0.327455 -0.244141 71 22 105
-0.604560 0.026831 0.391304 32 145 140
0.086455 -0.396364 -0.243006 71 18 101
0.359519 0.106824 -0.111120 46 108 142
-0.046100 0.082995 -0.283756 45 110 142
0.247393 0.448483 -0.134723 68 1 84
0.240111 0.505901 -0.137714 68 1 84
-0.368791 0.427729 0.063178 68 1 84
0.190319 0.166137 -0.232365 43 115 142
-0.543955 -0.325373 0.021681 68 1 84
0.572242 -0.032738 0.548132 32 143 140
0.647373 -0.568278 0.507905 181 221 43
-0.650891 -0.199226 0.343224 65 66 134
0.430066 -0.484545 -0.170662 68 1 84
-0.060285 -0.305359 -0.321494 66 61 132
0.010547 -0.519691 -0.326523 68 1 84
0.533245 -0.099820 0.045582 47 105 141
-0.226967 -0.062244 -0.188876 35 135 141
-0.100805 -0.050538 -0.348674 55 89 140
-0.598642 -0.041785 0.210585 54 90 140
-0.213593 0.595720 -0.050895 68 1 84
-0.392371 0.139402 -0.070896 71 21 103
-0.049772 -0.388947 -0.286835 68 1 84
-0.089966 -0.215369 -0.294708 65 65 134
-0.676939 -0.489088 0.301390 68 1 84
0.602773 -0.239462 0.456570 30 154 137
0.408203 0.192824 -0.053150 58 82 139
0.518244 0.302728 0.312990 30 153 138
-0.077327 0.479727 -0.204895 71 17 99
0.131185 -0.052702 -0.425914 68 1 84
0.583297 -0.168041 0.179609 46 109 142
-0.615508 -0.159659 0.162303 59 80 138
-0.177369 0.510306 -0.131415 68 1 84
0.572799 -0.350101 0.161066 68 1 84
-0.550389 -0.194262 0.019213 68 1 84
0.501546 -0.062215 0.004754 41 120 142
0.430681 -0.558861 -0.164717 68 1 84
-0.458159 0.316837 0.122465 68 1 84
-0.149097 -0.463597 -0.288250 68 1 84
0.170970 0.016678 -0.268745 70 47 124
0.157950 0.581605 -0.189584 68 1 84
-0.666710 -0.372867 0.282810 68 1 84
0.170294 0.509179 -0.197643 68 1 84
0.509555 0.276595 0.176743 37 130 142
0.582411 -0.460360 0.221186 71 20 102
0.301923 -0.505642 -0.253871 68 1 84
-0.357026 -0.362605 -0.102124 68 1 84
-0.400395 0.208195 -0.039262 68 1 84
0.366629 -0.203836 -0.111560 41 120 142
-0.056681 0.472826 -0.212927 68 1 84
0.088042 0.080058 -0.293984 36 134 141
0.434245 -0.526209 -0.167988 68 1 84
-0.676084 -0.499646 0.299372 68 1 84
0.063512 0.364341 -0.235111 70 47 124
-0.122365 -0.079102 -0.248890 33 140 141
0.555535 0.042448 0.167680 49 100 141
-0.105131 0.040218 -0.228884 34 167 132
0.634200 -0.432108 0.468650 69 8 91
0.589729 -0.083819 0.432011 38 128 142
-0.013465 0.290955 -0.279027 46 109 142
0.200286 0.023583 -0.180840 56 185 118
0.207420 -0.193186 -0.177208 31 163 134
0.509579 -0.153776 0.005490 57 85 139
0.409576 -0.371116 -0.038044 71 43 122
0.496921 0.323943 0.464070 35 168 131
-0.614048 -0.007769 0.465829 30 153 138
0.184528 0.078013 -0.205723 44 177 125
-0.212033 -0.109740 -0.195398 46 107 142
0.526568 0.290026 0.346969 34 139 141
0.458816 0.195093 0.015385 49 101 141
-0.726077 -0.507956 0.433654 46 108 142
-0.460069 0.159491 0.018712 68 1 84
0.601303 -0.224257 0.277582 57 85 139
-0.276594 0.574391 0.077774 70 47 124
0.584254 0.013739 0.459714 37 171 129
-0.021949 0.094480 -0.302120 49 101 141
0.401126 -0.296833 -0.064035 68 1 84
-0.101923 0.170399 -0.269798 40 123 142
-0.653655 -0.233054 0.307224 71 20 102
0.202428 -0.477030 -0.267167 68 1 84
0.159680 0.156273 -0.252029 40 123 142
-0.481828 0.078100 0.006975 70 12 95
-0.325948 0.106901 -0.129871 51 97 141
0.549721 -0.387669 0.098461 70 14 97
0.080777 -0.502265 -0.320986 68 1 84
-0.291061 0.131420 -0.146775 39 125 142
0.454667 0.383419 0.127196 39 124 142
0.556333 -0.050141 0.115308 30 155 137
0.159249 -0.102949 -0.218950 32 145 140
0.447584 -0.427166 -0.094127 68 1 84
0.308252 0.070879 -0.146943 34 137 141
-0.621967 -0.449813 0.180776 68 1 84
0.373260 0.492960 0.071245 42 117 142
0.151507 0.268242 -0.232895 51 96 141
0.243684 -0.392439 -0.113876 64 67 135
-0.641270 -0.475360 0.223953 68 1 84
0.024607 0.598528 -0.197960 71 18 101
0.136350 -0.128490 -0.291390 33 142 140
-0.374383 -0.177858 -0.129553 39 126 142
0.026401 -0.498347 -0.325718 68 1 84
-0.116864 -0.006493 -0.320088 53 93 140
0.059139 0.309829 -0.275650 50 98 141
0.298746 0.398309 -0.106520 68 2 85
-0.000976 -0.367751 -0.331426 68 1 84
-0.512803 -0.475081 -0.103122 68 1 84
0.589283 -0.057265 0.318817 34 137 141
0.294762 0.551932 -0.058149 72 25 107
-0.180360 0.201248 -0.216442 56 87 140
0.576879 0.049067 0.265432 33 166 133
0.463456 -0.069343 -0.039890 40 122 142
-0.619578 -0.513847 0.166270 68 1 84
-0.126134 0.004129 -0.256027 31 148 139
-0.660160 -0.282594 0.274895 71 39 119
-0.223670 0.240097 -0.173262 72 28 110
-0.648149 -0.175886 0.387670 61 76 137
-0.033430 0.069526 -0.297262 43 115 142
0.121247 0.056151 -0.249678 31 163 134
-0.154320 -0.401946 -0.139946 57 84 139
0.452359 0.041374 -0.030137 31 146 140
-0.070076 -0.076434 -0.407146 55 88 140
-0.573670 -0.234412 0.056860 68 55 129
0.621437 -0.365515 0.365168 52 94 141
0.364421 -0.242624 -0.106484 52 94 141
-0.280656 -0.290505 -0.127935 69 52 127
-0.306289 -0.047823 -0.162441 32 145 140
-0.608930 -0.291604 0.131455 72 32 113
0.597881 -0.267845 0.239317 57 84 139
-0.215084 -0.266319 -0.143862 58 83 139
-0.361710 -0.320168 -0.102277 70 45 124
-0.595190 -0.511053 0.109405 68 3 87
0.031419 -0.023331 -0.493728 70 45 124
0.595666 -0.490530 0.247656 68 1 84
0.589391 -0.084353 0.439543 31 148 139
-0.606753 -0.105712 0.161548 64 68 135
-0.642905 -0.135693 0.467710 71 42 121
-0.529842 -0.373198 -0.015161 68 1 84
-0.497217 0.315830 0.224484 71 42 121
0.235719 0.364071 -0.162952 68 1 84
0.120863 0.518070 -0.226650 68 1 84
0.443320 0.252585 0.008718 50 99 141
0.581067 -0.094674 0.565110 52 95 141
0.367978 0.503961 0.196473 39 125 142
0.468827 -0.293808 -0.012620 68 1 84
-0.492536 -0.448917 -0.135609 68 1 84
-0.372376 -0.532007 -0.249075 68 1 84
-0.348368 -0.402131 -0.164336 68 1 84
0.576791 -0.053164 0.538843 32 145 140
-0.050132 0.009859 -0.337972 42 119 142
0.387979 -0.531724 -0.205997 68 1 84
0.635039 -0.498240 0.431719 64 68 135
0.595579 -0.150999 0.386869 54 91 140
-0.657720 -0.454163 0.261086 68 1 84
-0.372372 -0.313085 -0.095924 70 11 94
-0.216580 0.465175 -0.113210 68 1 84
0.331796 0.490498 -0.035832 70 48 125
0.561653 0.125014 0.229765 37 130 142
0.102606 0.395342 -0.214382 68 1 84
-0.032681 -0.216489 -0.384249 66 62 133
-0.338005 0.477587 0.060602 68 1 84
-0.115353 -0.287278 -0.198476 40 123 142
0.550364 0.084755 0.170479 30 153 138
0.247954 0.532984 -0.129549 68 1 84
-0.462653 -0.217082 -0.070622 70 49 126
0.594347 -0.350747 0.238236 69 52 127
-0.140909 0.314714 -0.220613 70 45 124
0.575476 0.132973 0.318578 34 138 141
-0.293813 0.154219 -0.145926 51 96 141
-0.555816 -0.432542 0.018834 68 1 84
0.333289 -0.516308 -0.240795 68 1 84
-0.204427 0.500290 -0.110985 68 1 84
-0.237435 0.273391 -0.147338 68 57 130
-0.343359 0.141923 -0.111680 62 72 136
-0.069445 0.242999 -0.252366 69 52 127
0.182029 -0.039560 -0.188451 48 180 122
0.153298 -0.420505 -0.184720 71 20 102
0.564949 0.178171 0.443077 30 153 138
-0.160318 -0.399366 -0.134725 57 85 139
0.087154 -0.351692 -0.179180 40 123 142
-0.617211 -0.021803 0.458938 34 139 141
-0.118214 0.268958 -0.231267 71 38 118
-0.428593 -0.355468 -0.061940 68 1 84
0.598062 -0.173631 0.326020 34 137 141
0.256643 0.274372 -0.145618 46 108 142
0.347510 -0.392562 -0.083492 54 90 140
0.539306 0.211857 0.209188 41 120 142
-0.208901 0.622857 0.009914 72 34 115
0.515685 0.123424 0.096983 41 120 142
0.555789 -0.346749 0.108289 68 1 84
-0.327807 0.463806 0.022115 68 1 84
-0.141023 0.157395 -0.239122 49 101 141
0.024999 -0.103589 -0.468479 71 43 122
0.576247 -0.109698 0.169134 30 153 138
-0.285287 0.567560 0.131641 71 42 121
0.515185 0.237412 0.152125 40 122 142
-0.725188 -0.440685 0.462380 68 1 84
0.444036 0.307026 0.032966 59 80 138
-0.159040 0.212377 -0.231124 62 73 137
-0.362811 -0.299104 -0.102259 62 73 137
-0.526023 -0.174591 -0.012263 68 3 87
-0.326600 0.329414 -0.085568 71 20 102
0.493698 0.014243 0.018120 35 137 141
-0.220339 0.322280 -0.144654 69 54 129
0.483387 0.359806 0.341715 36 134 141
-0.646793 -0.231444 0.260907 71 15 98
-0.293433 0.210887 -0.148430 66 62 133
0.473961 -0.097305 -0.031668 45 110 142
-0.410052 -0.082995 -0.104057 63 71 136
0.380616 0.492296 0.123726 53 93 140
0.411198 -0.468743 -0.174994 68 1 84
0.097290 0.024623 -0.422309 72 29 111
-0.354270 0.277523 -0.071699 68 1 84
-0.305271 0.353816 -0.094365 68 1 84
0.378131 0.238008 -0.081531 69 52 127
-0.014145 -0.386702 -0.313732 72 28 110
-0.408405 -0.370292 -0.078167 68 1 84
-0.112827 -0.367683 -0.137661 68 1 84
0.103775 -0.247922 -0.337939 69 50 127
0.181058 0.311401 -0.217971 70 12 95
0.545989 -0.441824 0.094605 68 1 84
0.206230 -0.277105 -0.133438 191 223 36
-0.432791 0.221893 0.007472 68 1 84
0.264565 -0.041510 -0.170370 30 156 137
-0.064452 0.571880 -0.210270 70 47 124
0.437051 0.373950 0.063791 50 98 141
-0.546229 0.173785 0.201634 71 39 119
0.421807 0.446804 0.208030 41 121 142
-0.350911 0.242531 -0.085157 72 35 116
-0.588991 -0.265466 0.086527 63 71 136
-0.309431 0.217282 -0.133823 70 45 124
-0.612302 -0.427645 0.155147 68 1 84
-0.475706 -0.082232 -0.054507 66 61 132
0.594449 -0.137736 0.370332 32 145 140
-0.468777 0.259594 0.093815 68 1 84
0.589722 -0.195704 0.575495 183 221 41
-0.515107 -0.471652 -0.098382 68 1 84
0.499523 0.334883 0.322042 32 165 133
-0.112711 -0.476391 -0.309102 68 1 84
0.396638 0.309222 -0.042600 68 55 129
0.604773 -0.214798 0.340913 38 128 142
-0.046993 0.644718 -0.150782 67 59 131
0.275762 0.592816 -0.025284 63 69 135
-0.428961 -0.501357 -0.209375 68 1 84
-0.107488 0.052151 -0.222020 37 171 129
0.158567 0.042434 -0.203611 42 176 126
0.234990 0.619125 -0.065079 62 72 136
-0.519976 0.012397 0.024864 71 21 103
-0.452197 0.402692 0.372492 69 52 127
0.564753 -0.074598 0.133052 31 149 139
0.145799 -0.149257 -0.252777 71 40 120
0.423311 -0.558535 -0.172538 68 1 84
0.412836 0.379028 0.024605 53 93 140
0.425715 -0.023608 -0.071984 36 132 141
-0.215194 0.551087 -0.085380 68 1 84
0.355672 0.241044 -0.107508 57 85 139
-0.655255 -0.230688 0.326159 70 14 97
0.054995 -0.027970 -0.492448 72 28 110
-0.119037 -0.033872 -0.300470 39 125 142
0.586050 -0.116078 0.523495 37 171 129
0.557323 -0.393184 0.122303 68 1 84
0.213736 -0.293224 -0.123526 33 141 140
0.600585 -0.187545 0.337733 30 151 138
-0.613272 -0.005168 0.468776 30 154 137
0.580002 -0.212051 0.160459 40 123 142
-0.111279 -0.369129 -0.139973 72 26 108
-0.607230 -0.034101 0.307169 36 133 141
-0.505908 0.329076 0.293470 64 67 135
0.020824 -0.261774 -0.393009 68 1 84
-0.667087 -0.272381 0.452582 61 75 137
0.458438 -0.106091 -0.047064 49 102 141
0.346627 0.030514 -0.130521 32 143 140
0.241655 0.038010 -0.170239 71 192 110
0.027514 0.490901 -0.234626 71 24 106
-0.066915 -0.379697 -0.251957 68 1 84
-0.315735 0.487630 0.024843 68 1 84
0.505880 -0.547452 -0.032877 68 1 84
0.143801 0.440814 -0.197118 68 1 84
-0.517825 -0.337174 -0.008414 68 1 84
0.441919 -0.073818 -0.060813 37 130 142
-0.085240 0.580924 -0.194171 68 1 84
-0.209010 -0.216523 -0.177075 31 147 139
-0.696390 -0.460285 0.357900 68 1 84
-0.547612 -0.472509 -0.004972 68 1 84
0.119631 -0.303969 -0.163107 37 131 141
0.486955 0.353184 0.257310 30 157 136
-0.640868 -0.119790 0.508586 62 73 137
0.578852 0.078764 0.292164 34 139 141
0.509533 0.216833 0.121680 40 122 142
0.584564 -0.293360 0.185084 72 33 114
0.377044 0.168844 -0.090481 60 77 138
-0.251002 -0.201074 -0.166940 35 137 141
0.419898 0.057062 -0.064700 35 136 141
-0.324896 -0.413785 -0.199354 68 1 84
0.623317 -0.409844 0.526499 39 124 142
-0.577218 -0.001119 0.144464 66 61 132
0.388323 0.439353 0.028169 62 72 136
-0.407729 0.443901 0.198050 68 1 84
-0.394342 0.153370 -0.064635 68 1 84
0.514042 -0.007780 0.041871 37 130 142
0.575765 -0.002879 0.236656 31 161 135
-0.603850 -0.049757 0.243003 42 117 142
0.462751 -0.551437 -0.125871 68 1 84
0.437897 0.346511 0.045433 52 94 141
-0.004981 0.384278 -0.223256 68 1 84
0.507927 0.319982 0.305390 34 138 141
-0.168332 0.641575 -0.029830 68 1 84
0.074644 0.437370 -0.218043 68 1 84
-0.308511 0.199785 -0.135246 67 58 131
-0.104161 -0.114981 -0.277774 57 84 139
0.390374 0.420273 0.014475 56 86 139
0.094754 -0.331716 -0.180458 61 74 137
0.571800 0.147381 0.302066 32 143 140
0.476021 0.364178 0.402929 30 154 137
0.532638 -0.393589 0.055581 68 1 84
0.505472 -0.430315 -0.020242 68 1 84
0.147678 0.411070 -0.198323 68 1 84
-0.314532 0.541966 0.183755 58 82 139
-0.423335 0.323539 0.055118 68 1 84
-0.501636 -0.316718 -0.015155 68 1 84
0.467961 0.102735 0.006983 45 111 142
0.023751 -0.219447 -0.413783 68 1 84
-0.549124 -0.356879 0.021937 68 1 84
0.564425 0.116404 0.502197 44 177 125
-0.610320 -0.075390 0.253725 47 106 141
-0.086487 0.194324 -0.279788 42 118 142
0.585518 -0.097321 0.262208 37 171 129
0.611664 -0.469428 0.278151 68 1 84
-0.053572 0.454537 -0.207442 68 1 84
-0.016389 -0.156506 -0.418696 60 77 138
-0.072277 -0.344484 -0.232082 68 1 84
0.311697 -0.419602 -0.122734 68 1 84
0.084456 -0.355855 -0.202887 54 90 140
-0.701402 -0.467993 0.362737 68 1 84
0.146967 -0.205235 -0.237677 49 102 141
-0.340086 0.229437 -0.099934 72 28 110
-0.231209 0.423189 -0.119594 69 8 91
0.423573 0.442361 0.261934 37 130 142
-0.602912 -0.304962 0.119844 68 2 85
-0.342095 0.480934 0.074502 68 1 84
-0.236200 0.308193 -0.137378 65 65 134
0.257270 0.127999 -0.181700 32 144 140
0.079386 -0.265233 -0.372818 68 1 84
0.562610 0.049741 0.198123 33 141 140
0.021235 -0.111529 -0.464044 64 67 135
-0.435592 0.259988 0.034418 68 1 84
0.343684 -0.414352 -0.135543 68 1 84
-0.200685 0.566254 -0.094969 68 1 84
0.090163 -0.251031 -0.367807 68 1 84
0.108857 0.077215 -0.263662 31 149 139
-0.659941 -0.224483 0.485773 60 77 138
0.581658 -0.006268 0.269763 35 136 141
-0.288384 0.013658 -0.163121 45 111 142
-0.150185 0.576651 -0.141837 68 1 84
0.515014 0.233926 0.148446 38 128 142
-0.455221 0.397123 0.421592 58 82 139
0.443187 0.408785 0.350013 32 143 140
0.624108 -0.515123 0.321871 68 1 84
0.441274 0.420024 0.280958 39 125 142
0.193569 0.372164 -0.192500 68 1 84
0.535459 0.273129 0.383643 34 167 132
-0.665693 -0.329321 0.278865 61 74 137
0.496965 -0.309238 0.021392 72 28 110
0.380406 0.491630 0.199175 38 127 142
-0.073425 -0.290574 -0.302212 71 43 122
-0.557369 -0.109736 0.035439 72 30 112
-0.657263 -0.208697 0.492359 67 58 131
-0.637770 -0.208799 0.232009 72 30 112
0.582411 0.053358 0.451492 57 185 118
-0.144510 -0.422143 -0.200327 68 1 84
0.033939 -0.227522 -0.411718 72 28 110
0.324953 -0.460811 -0.213371 68 1 84
0.102876 -0.312046 -0.233666 70 9 92
-0.602805 0.041764 0.461924 40 174 127
-0.224266 0.326503 -0.142228 65 65 134
0.607345 -0.335466 0.503671 52 95 141
0.050605 0.659294 -0.109702 41 121 142
-0.662648 -0.235787 0.501358 63 69 135
0.463602 0.379832 0.171904 31 148 139
-0.642038 -0.174565 0.306768 69 54 129
0.430124 0.435050 0.258503 43 116 142
-0.230516 0.588592 -0.027171 68 1 84
-0.594981 0.006048 0.262434 47 105 141
0.540310 -0.385215 0.074086 72 33 114
-0.252453 -0.085899 -0.183126 49 101 141
-0.387624 0.082638 -0.091027 56 87 140
0.004547 -0.284651 -0.379330 61 76 137
-0.033677 -0.241177 -0.377190 71 42 121
0.108454 -0.165007 -0.385352 69 5 88
-0.356773 -0.273658 -0.110455 68 57 130
0.530652 0.275112 0.438414 34 137 141
0.215938 0.409906 -0.165605 68 1 84
-0.126922 0.337467 -0.226415 70 45 124
-0.513318 0.317578 0.456711 41 121 142
0.141335 -0.427209 -0.215237 72 34 115
0.218758 0.410573 -0.163330 68 1 84
0.014322 -0.497941 -0.326214 68 1 84
0.288256 -0.426487 -0.183335 68 1 84
-0.564383 0.064341 0.165134 68 55 129
-0.521119 0.314793 0.371236 61 74 137
0.168290 -0.109272 -0.211263 38 172 129
-0.226575 0.604621 0.000799 68 1 84
0.586294 -0.061129 0.289288 36 134 141
0.041490 0.049422 -0.450923 70 12 95
0.472185 0.376185 0.226436 36 134 141
-0.529071 0.299455 0.388755 72 29 111
-0.017322 0.312139 -0.278257 69 54 129
-0.543297 0.128424 0.154587 69 52 127
-0.572890 0.118093 0.259273 59 81 138
0.164517 0.380620 -0.204591 68 1 84
-0.590018 -0.037338 0.158518 71 37 117
-0.497579 0.046952 0.012661 68 1 84
-0.306076 0.019434 -0.155257 43 115 142
-0.005719 0.321239 -0.274745 67 59 131
0.219710 0.398861 -0.166472 68 1 84
-0.586594 -0.035800 0.140858 70 48 125
0.566306 -0.019732 0.581852 50 181 122
-0.414172 0.403521 0.133010 68 1 84
0.483768 -0.146028 -0.023899 49 101 141
-0.593941 -0.039386 0.179860 63 71 136
-0.467700 0.260724 0.092602 68 1 84
0.080345 0.464092 -0.227331 68 1 84
0.227657 0.626406 -0.048587 55 89 140
0.170365 -0.012780 -0.235859 31 162 134
-0.322503 0.534603 0.198707 42 117 142
-0.472936 -0.251873 -0.051398 70 12 95
0.186966 0.068699 -0.200782 61 187 116
-0.056462 -0.231332 -0.349252 71 24 106
0.470830 -0.324106 -0.001131 71 20 102
0.103274 0.001001 -0.367870 44 114 142
0.354424 0.061915 -0.120991 33 141 140
0.294261 -0.443531 -0.201718 68 1 84
0.178141 -0.015468 -0.299835 72 34 115
-0.709683 -0.405849 0.417033 68 1 84
-0.606014 -0.040399 0.283695 36 134 141
0.548026 0.221619 0.465326 59 186 117
-0.447460 0.406970 0.402346 42 117 142
-0.197440 0.533226 -0.110046 68 1 84
-0.649627 -0.187548 0.363139 63 71 136
0.512105 -0.420397 -0.000009 68 1 84
0.144000 0.570229 -0.203584 68 1 84
0.403509 0.268102 -0.044462 71 37 117
-0.094828 0.465045 -0.191215 68 1 84
-0.204769 0.554872 -0.095547 68 1 84
0.585370 -0.069795 0.487970 39 126 142
-0.139932 0.422450 -0.181334 68 1 84
0.410261 0.394946 0.031427 49 100 141
0.383897 -0.062241 -0.107243 32 145 140
-0.574064 -0.204861 0.055430 69 53 128
-0.494169 -0.128293 -0.044474 66 61 132
-0.632333 -0.146195 0.290431 67 60 132
0.349712 0.292625 -0.102008 67 58 131
0.143030 -0.082911 -0.381680 66 62 133
-0.452548 0.391808 0.234158 69 5 88
0.141794 0.426288 -0.197255 68 1 84
-0.607805 -0.334146 0.136387 68 1 84
-0.445790 -0.225686 -0.082333 68 57 130
0.585060 0.058732 0.422794 47 179 123
-0.688371 -0.378999 0.354998 68 1 84
-0.426489 0.323406 0.060930 68 1 84
0.537514 0.255582 0.274397 46 108 142
-0.113011 0.410556 -0.198348 68 1 84
0.496790 -0.020122 0.010887 42 118 142
-0.019139 0.216596 -0.292464 38 127 142
-0.500015 0.110840 0.052271 69 8 91
-0.434324 -0.224502 -0.090889 60 77 138
-0.214636 0.304570 -0.146593 71 42 121
-0.318837 0.017904 -0.149662 40 122 142
-0.212437 0.343483 -0.151145 66 62 133
0.489079 0.202613 0.069670 46 108 142
-0.648782 -0.160416 0.523069 54 90 140
-0.195756 -0.460890 -0.259544 68 1 84
-0.485803 0.198839 0.085896 68 1 84
-0.176466 0.191318 -0.219380 55 89 140
-0.586009 0.087693 0.509855 43 177 125
0.041218 0.098788 -0.306717 34 137 141
0.009174 0.060956 -0.372914 44 112 142
0.556175 0.222679 0.323648 42 117 142
0.570640 0.173098 0.392184 30 156 137
-0.642975 -0.485190 0.225028 70 11 94
-0.717285 -0.425882 0.432318 68 1 84
-0.468007 0.006231 -0.038704 72 25 107
0.277710 0.115084 -0.166356 30 158 136
-0.589868 0.096831 0.366649 58 82 139
0.561184 0.130390 0.230873 36 134 141
0.087097 0.605895 -0.195535 68 1 84
0.456717 0.137732 -0.001348 42 117 142
0.370127 0.493843 0.060463 43 116 142
0.410118 0.459808 0.203555 40 122 142
-0.394716 0.272269 -0.021289 68 1 84
-0.570971 0.153395 0.497270 54 184 119
-0.542059 0.220725 0.242756 72 34 115
0.396800 0.249566 -0.057325 70 45 124
0.535943 0.081806 0.128925 31 146 140
0.115070 0.650823 -0.125039 62 72 136
-0.043025 0.062436 -0.287939 43 116 142
0.357748 0.515778 0.165574 47 105 141
-0.305923 0.549525 0.182155 52 95 141
-0.266459 0.580708 0.055935 71 20 102
0.304327 -0.537149 -0.260606 68 1 84
-0.299187 0.176914 -0.143002 59 81 138
-0.566372 0.032242 0.141656 62 72 136
0.549738 -0.130695 0.073984 58 83 139
-0.505206 0.248879 0.164173 71 17 99
-0.174299 -0.361323 -0.100231 47 106 141
-0.619314 -0.405107 0.173705 68 1 84
-0.695012 -0.437546 0.365217 68 1 84
0.210238 -0.497265 -0.286690 68 1 84
0.048181 -0.245732 -0.399690 70 14 97
-0.057343 -0.406029 -0.281205 68 1 84
-0.628083 -0.089961 0.379940 48 103 141
-0.107894 0.248151 -0.236806 71 18 101
0.133468 0.302743 -0.252736 64 68 135
0.244023 -0.239960 -0.141330 30 154 137
0.091976 -0.255112 -0.361373 68 1 84
-0.312918 0.246509 -0.128166 71 38 118
-0.485721 -0.513332 -0.144276 68 1 84
-0.391940 0.402096 0.078481 68 1 84
0.631396 -0.542197 0.376124 57 84 139
-0.535020 0.220824 0.217694 71 21 103
0.593329 -0.359662 0.236149 68 57 130
0.429547 0.313027 0.011006 61 76 137
-0.290867 -0.416975 -0.203519 68 1 84
-0.119858 0.496374 -0.179425 68 2 85
-0.218318 0.233661 -0.179920 72 28 110
-0.665410 -0.264764 0.477248 70 49 126
-0.504177 0.338290 0.423102 48 103 141
0.342334 -0.176033 -0.121564 45 111 142
-0.176177 0.180639 -0.219404 59 81 138
0.006559 0.455422 -0.224909 68 1 84
0.381929 0.337574 -0.050701 71 38 118
0.111862 -0.106956 -0.430771 68 1 84
-0.578191 0.117878 0.294782 46 108 142
0.438341 0.132095 -0.026743 51 96 141
0.548886 -0.367143 0.094128 68 1 84
0.181055 0.593747 -0.166850 68 1 84
0.416926 0.431203 0.086290 47 105 141
-0.716447 -0.483194 0.391391 68 1 84
0.495895 0.332307 0.231679 35 137 141
-0.271526 0.091131 -0.156976 32 144 140
0.518842 -0.393284 0.029156 69 6 90
0.583276 0.011994 0.283035 33 141 140
-0.204816 0.611283 -0.040083 68 1 84
-0.445704 0.044683 -0.047695 71 38 118
0.600820 -0.259422 0.503141 34 167 132
0.389419 0.327818 -0.045394 68 57 130
-0.526513 0.093020 0.089992 70 47 124
0.093560 0.002327 -0.313790 30 151 138
0.574582 0.151594 0.383865 40 174 127
-0.327933 0.015507 -0.145404 44 112 142
-0.706364 -0.377184 0.441176 71 18 101
-0.254065 0.131399 -0.168604 45 110 142
0.124957 -0.232641 -0.274874 52 94 141
-0.161641 -0.377947 -0.104008 42 118 142
0.494650 0.137764 0.059488 39 124 142
-0.597781 0.013916 0.298848 58 82 139
0.564216 -0.311530 0.125676 72 32 113
-0.205809 0.411375 -0.143168 68 2 85
-0.169721 0.352556 -0.186660 72 35 116
0.285970 0.482946 -0.096963 68 1 84
-0.542238 0.252925 0.302797 49 100 141
0.591940 -0.136375 0.303309 36 132 141
0.530249 0.221589 0.187027 42 118 142
0.538020 0.046763 0.116813 31 146 140
0.411327 0.003475 -0.081935 39 124 142
-0.471031 -0.196567 -0.066109 68 1 84
0.507314 0.014367 0.039577 42 117 142
0.143537 -0.475801 -0.298793 68 1 84
-0.314061 0.482515 0.016040 68 1 84
-0.678860 -0.318013 0.362757 65 66 134
0.063732 -0.294507 -0.367607 72 35 116
-0.037719 0.656888 -0.125368 42 118 142
0.426180 0.037895 -0.061924 39 124 142
0.560707 -0.030410 0.143796 33 140 141
0.602220 -0.445881 0.263151 72 30 112
-0.268650 0.319969 -0.129615 68 57 130
-0.480997 0.296854 0.155857 68 1 84
-0.499130 0.332850 0.481501 46 109 142
-0.017209 0.160023 -0.303816 42 119 142
0.053804 -0.341139 -0.342872 71 44 123
0.131983 -0.392185 -0.126647 45 111 142
-0.517178 -0.430636 -0.080458 68 1 84
-0.473556 -0.436718 -0.151906 68 1 84
0.558130 0.096546 0.533357 129 211 76
-0.125159 -0.212089 -0.247670 31 146 140
0.160614 -0.474709 -0.288812 68 1 84
-0.407576 0.453267 0.268174 69 50 127
0.379042 -0.091307 -0.109068 42 118 142
-0.001756 -0.165962 -0.426195 70 45 124
0.207223 0.169188 -0.221268 46 109 142
-0.109688 0.261229 -0.236171 68 3 87
0.158319 0.011355 -0.312879 71 40 120
-0.436115 0.211540 0.006940 68 1 84
-0.184887 0.090732 -0.196107 38 129 142
0.563277 -0.175691 0.106412 59 80 138
-0.349486 0.119200 -0.111745 59 80 138
0.006207 0.442180 -0.220238 68 1 84
-0.133859 0.391804 -0.198921 72 30 112
-0.155397 -0.407637 -0.149066 72 35 116
-0.041486 -0.355400 -0.316930 71 38 118
0.458515 0.355422 0.093496 49 102 141
-0.307334 0.460044 -0.019168 68 1 84
0.385385 0.001097 -0.104407 34 139 141
0.315911 -0.202578 -0.130076 30 159 136
-0.613821 -0.010565 0.478983 30 154 137
0.582835 -0.219514 0.170821 33 140 141
0.072326 0.031897 -0.457252 71 38 118
0.623938 -0.457708 0.327436 68 1 84
-0.013189 0.628162 -0.178649 60 77 138
-0.085253 -0.456510 -0.301395 68 1 84
-0.285865 0.121555 -0.149571 40 122 142
0.435234 0.102876 -0.036910 39 124 142
0.562468 -0.471971 0.154242 70 11 94
0.156220 -0.071674 -0.243133 50 181 122
-0.541021 -0.057335 0.024096 71 22 105
0.333859 0.537132 0.039088 65 65 134
-0.064284 -0.261878 -0.328744 71 37 117
0.535464 -0.009091 0.081965 33 140 141
-0.165196 0.386287 -0.180443 68 1 84
0.453877 -0.353173 -0.012689 72 33 114
0.250858 -0.437248 -0.195369 68 1 84
-0.200314 0.112571 -0.194545 35 136 141
-0.466648 -0.165340 -0.070280 72 35 116
0.401513 -0.552999 -0.194189 68 1 84
0.008665 0.095815 -0.307504 39 124 142
0.340295 -0.278308 -0.102780 43 116 142
0.045680 -0.110443 -0.467502 71 24 106
0.602577 -0.310545 0.271751 56 86 139
-0.294987 0.299043 -0.126923 71 42 121
-0.633378 -0.295939 0.198710 68 3 87
-0.525072 -0.036221 0.009531 69 52 127
0.273461 0.364646 -0.133141 70 9 92
-0.204334 -0.348358 -0.115615 49 100 141
-0.336225 -0.029641 -0.146442 51 97 141
-0.294504 -0.371174 -0.120963 71 15 98
0.541893 0.108820 0.155656 30 156 137
-0.575860 0.165525 0.395599 50 99 141
0.116115 -0.432055 -0.261880 68 1 84
0.571586 -0.015745 0.539053 35 137 141
0.116448 -0.326026 -0.131452 48 104 141
0.293858 0.580018 0.025474 56 87 140
0.254634 -0.452818 -0.212293 68 1 84
0.078938 0.362921 -0.235420 71 21 103
-0.654677 -0.196928 0.441441 67 59 131
0.590136 -0.141437 0.477258 30 153 138
0.387585 0.334488 -0.044703 71 42 121
0.544972 0.197157 0.215193 37 131 141
0.547525 0.210347 0.239350 39 126 142
0.066660 -0.185510 -0.422926 69 5 88
0.590750 -0.007799 0.345832 31 161 135
-0.592154 0.061727 0.512859 30 154 137
-0.502046 -0.051145 -0.022241 72 26 108
-0.247510 0.213982 -0.175576 69 50 127
-0.414050 0.443084 0.228135 71 17 99
-0.310180 0.258712 -0.129228 71 24 106
-0.619119 -0.046431 0.389572 35 135 141
-0.560516 0.220284 0.394637 46 109 142
0.172488 -0.234928 -0.182686 33 140 141
-0.399561 0.425990 0.130703 68 3 87
0.299472 -0.003903 -0.157811 30 154 137
0.113936 0.003323 -0.306697 37 130 142
-0.637003 -0.124420 0.393809 71 20 102
-0.622685 -0.266475 0.163288 72 26 108
-0.616467 -0.396531 0.165915 68 1 84
0.394875 0.475963 0.217005 44 112 142
-0.192268 0.293713 -0.164546 70 11 94
0.394402 0.096919 -0.081925 44 113 142
0.511412 0.294557 0.216599 36 134 141
0.458706 0.385364 0.399238 30 158 136
-0.075234 0.017082 -0.345277 58 82 139
-0.483158 0.285607 0.148353 68 1 84
-0.547297 0.157876 0.191102 72 28 110
-0.687674 -0.395055 0.351475 68 1 84
-0.246922 0.477072 -0.081169 68 1 84
0.380269 0.128489 -0.091394 46 107 142
0.571292 -0.066717 0.172978 42 119 142
0.587853 -0.144131 0.233479 31 161 135
0.273246 0.100403 -0.166023 30 153 138
-0.219689 0.521803 -0.090918 68 1 84
0.269171 0.555544 -0.098443 68 1 84
0.465113 -0.008515 -0.027269 35 136 141
0.225149 -0.493368 -0.276417 68 1 84
0.126776 0.420476 -0.202393 68 1 84
-0.363911 -0.483876 -0.250444 68 1 84
-0.522300 0.312524 0.387974 59 80 138
-0.026535 0.379229 -0.228237 68 1 84
-0.686802 -0.333361 0.476178 71 39 119
0.461217 0.098542 -0.003452 39 124 142
-0.319749 0.289183 -0.110250 70 12 95
0.474550 0.234409 0.054274 44 112 142
0.555206 -0.080397 0.096974 33 141 140
-0.238146 0.001562 -0.177470 31 161 135
-0.301452 -0.415963 -0.203527 68 1 84
0.553962 -0.172435 0.082686 61 76 137
0.040537 -0.444336 -0.309286 68 1 84
-0.546495 -0.353028 0.019287 68 1 84
-0.664836 -0.266708 0.339968 72 32 113
0.585484 0.048702 0.314971 30 156 137
-0.363813 -0.001549 -0.126514 44 112 142
0.611539 -0.383973 0.300109 72 34 115
-0.221973 0.548959 -0.078444 68 1 84
-0.630997 -0.082419 0.470856 59 80 138
-0.148373 0.647824 -0.052975 68 1 84
0.410512 0.341266 -0.005348 54 91 140
0.590994 -0.207180 0.209379 42 118 142
-0.449199 -0.135765 -0.082146 55 89 140
0.630440 -0.437903 0.525329 67 59 131
-0.235194 0.607868 0.101792 54 91 140
-0.620094 -0.132733 0.210188 69 52 127
-0.060546 -0.006711 -0.417861 71 15 98
-0.241250 0.106549 -0.171301 34 138 141
0.540677 -0.542755 0.091420 49 101 141
-0.427529 -0.269679 -0.074650 67 59 131
0.169531 0.113516 -0.229087 31 146 140
-0.218126 -0.197219 -0.181037 34 167 132
0.031591 -0.368465 -0.329545 68 1 84
-0.587508 0.029477 0.242076 49 101 141
0.057199 0.591862 -0.204359 72 34 115
-0.393562 0.061955 -0.091490 55 89 140
-0.539895 -0.457168 -0.030534 68 1 84
0.114705 0.359869 -0.232816 72 26 108
0.348891 0.332187 -0.089136 69 53 128
0.530353 -0.501923 0.044679 68 1 84
-0.353648 0.487777 0.117820 68 1 84
0.092392 0.125705 -0.289305 30 151 138
0.098282 -0.390136 -0.176608 63 69 135
0.330492 0.072769 -0.135308 34 137 141
-0.402790 -0.506055 -0.230608 68 1 84
0.288165 0.390451 -0.116628 68 1 84
0.483839 0.151355 0.044096 58 83 139
0.447200 0.352511 0.066075 54 90 140
-0.034666 0.384524 -0.225363 68 1 84
-0.245147 0.133009 -0.174500 47 105 141
0.536838 0.255945 0.270869 45 111 142
0.380113 0.492992 0.163245 43 115 142
0.582193 -0.122883 0.201790 36 134 141
-0.315625 0.372728 -0.073665 68 1 84
-0.586665 0.116550 0.452970 30 160 135
0.543018 -0.407739 0.080519 68 1 84
-0.463261 0.340885 0.167520 68 1 84
-0.157358 0.340230 -0.200346 70 47 124
0.573244 0.057229 0.251202 30 154 137
0.225331 0.356200 -0.172993 68 1 84
0.228333 0.556238 -0.143897 68 1 84
-0.716704 -0.409733 0.454480 69 6 90
-0.643563 -0.139643 0.465504 71 43 122
0.484320 -0.503815 -0.107159 68 1 84
-0.326361 0.038547 -0.142533 40 122 142
-0.648291 -0.177878 0.380856 69 54 129
-0.248151 -0.310834 -0.126430 51 182 121
0.225888 -0.487058 -0.268676 68 1 84
0.590827 0.005261 0.351790 47 179 123
0.265367 -0.227004 -0.140104 37 171 129
0.184508 0.188857 -0.239641 32 143 140
-0.205418 0.584498 -0.077635 68 1 84
-0.330754 0.348883 -0.070727 68 1 84
-0.492827 -0.340938 -0.029274 68 1 84
-0.184272 0.344034 -0.175554 66 62 133
-0.228544 0.610556 0.036571 70 45 124
-0.526701 -0.476895 -0.066393 68 1 84
-0.341652 0.174162 -0.107686 71 38 118
0.187341 0.613675 -0.144722 71 17 99
0.063844 -0.353877 -0.323349 68 1 84
-0.475408 0.364198 0.252553 72 30 112
-0.429202 0.427532 0.374709 37 131 141
0.421064 0.234307 -0.028170 57 84 139
0.442629 -0.381791 -0.034861 70 47 124
0.522187 -0.038012 0.044142 33 141 140
-0.378551 -0.390517 -0.130185 68 1 84
0.136372 0.000881 -0.360987 70 45 124
-0.422963 -0.274074 -0.075370 57 85 139
-0.178697 -0.455332 -0.257470 68 1 84
-0.290107 0.011380 -0.162774 44 114 142
-0.028751 0.009601 -0.365652 55 88 140
-0.523433 0.232513 0.196705 68 1 84
0.007191 0.262198 -0.266050 46 108 142
0.498534 -0.383533 0.004741 69 8 91
-0.470587 0.384979 0.305603 71 37 117
-0.399069 -0.370319 -0.078808 68 1 84
-0.042988 0.653061 -0.135877 47 106 141
-0.452801 -0.041325 -0.066398 69 50 127
-0.147815 0.627256 -0.103873 68 1 84
-0.599020 -0.085004 0.143392 71 37 117
-0.266324 0.243644 -0.159157 72 35 116
0.132298 -0.032457 -0.419918 71 37 117
0.472477 0.376319 0.326324 39 125 142
-0.546534 0.209085 0.527773 112 206 86
0.400427 0.166660 -0.066201 52 95 141
0.578917 -0.128089 0.175475 57 85 139
0.560026 0.102560 0.523731 94 201 97
0.072573 0.242119 -0.264668 48 104 141
0.591279 -0.086005 0.392246 41 175 127
0.202496 0.380843 -0.183941 68 1 84
0.249292 -0.375496 -0.112213 68 55 129
-0.538213 0.276696 0.354518 67 60 132
-0.699431 -0.427646 0.377249 68 1 84
-0.411775 -0.044026 -0.098682 67 58 131
-0.492965 0.081611 0.023384 68 1 84
-0.595469 0.043494 0.522015 31 149 139
-0.095520 0.316045 -0.255541 57 84 139
0.479611 0.364719 0.242407 35 137 141
0.517965 0.229765 0.154523 36 133 141
0.346099 -0.485444 -0.225838 68 1 84
-0.550939 -0.181946 0.019554 72 26 108
-0.230946 -0.143523 -0.186755 31 148 139
0.049627 -0.229972 -0.407689 72 26 108
0.534281 0.241469 0.488240 59 186 117
0.626947 -0.424528 0.524208 63 69 135
0.087394 -0.468032 -0.309270 68 1 84
0.278436 0.255458 -0.147961 57 84 139
-0.467478 -0.457417 -0.171842 68 1 84
-0.513894 0.269961 0.209434 72 29 111
-0.487554 0.365051 0.328209 59 81 138
0.157577 -0.493642 -0.306962 68 1 84
0.423116 0.018273 -0.068537 35 136 141
-0.179194 -0.419549 -0.180946 68 1 84
0.107523 0.640314 -0.151780 72 32 113
-0.055037 -0.243747 -0.348796 70 49 126
-0.138571 0.055202 -0.206084 64 189 114
-0.459556 0.283815 0.094181 68 3 87
-0.003291 -0.422347 -0.309626 68 1 84
0.484726 0.254277 0.084431 44 113 142
-0.293411 0.557611 0.089705 69 6 90
0.144588 0.347334 -0.229863 68 1 84
0.426535 -0.079845 -0.074352 31 148 139
-0.289264 0.497405 -0.015276 68 1 84
-0.004518 -0.250590 -0.391499 68 1 84
0.509058 -0.541280 -0.025728 68 1 84
-0.453293 0.287553 0.084859 68 1 84
0.507689 0.319537 0.416531 33 140 141
