ply
format ascii 1.0
element vertex 1249
property float x
property float y
property float z
property uchar red
property uchar green
property uchar blue
end_header
-0.132952 -0.002686 -0.323446 33 140 141
0.416616 0.441775 0.086091 70 14 97
-0.080930 0.618487 -0.187666 68 1 84
-0.275997 0.286788 -0.128194 68 1 84
0.289718 0.553724 0.032351 68 1 84
0.439920 0.434288 0.351251 70 45 124
0.567646 0.107278 0.173510 42 117 142
0.286723 -0.525570 -0.239554 55 89 140
-0.001316 0.636390 -0.165444 68 1 84
-0.171799 0.430117 -0.185571 68 1 84
-0.476698 -0.456227 -0.021752 49 100 141
-0.653338 -0.287538 0.445278 136 213 71
-0.404375 0.474735 0.093087 68 1 84
0.389090 0.436119 0.032584 68 1 84
0.000343 -0.305056 -0.324770 68 1 84
-0.201264 -0.501700 -0.233323 45 111 142
-0.592247 -0.228215 0.166899 36 132 141
-0.003625 -0.381232 -0.274092 57 84 139
0.688138 -0.217066 0.436535 56 185 118
-0.216581 0.287046 -0.154464 68 1 84
-0.566422 0.122414 0.497761 57 185 118
-0.297093 0.428897 -0.086946 68 1 84
-0.043964 0.635959 -0.166951 68 1 84
0.577038 -0.070393 0.068769 33 142 140
-0.170641 0.241449 -0.203641 68 1 84
-0.457094 -0.028483 -0.061466 71 17 99
-0.384226 -0.281119 -0.095203 62 73 137
0.533689 0.305712 0.296422 46 109 142
0.400438 0.423410 0.036110 68 1 84
0.092857 0.106048 -0.268386 72 34 115
0.105090 0.078305 -0.248921 69 5 88
0.438935 -0.333979 -0.091080 68 1 84
-0.403268 0.270170 -0.063575 66 62 133
-0.022743 -0.466358 -0.271044 37 131 141
0.592225 0.039208 0.222529 36 132 141
-0.073755 -0.310534 -0.206636 71 17 99
0.112338 -0.333736 -0.204424 68 1 84
-0.503751 0.332982 0.417681 39 126 142
0.703300 -0.379448 0.494860 30 159 136
0.562553 0.213486 0.335588 49 101 141
0.445897 0.399106 0.090519 68 3 87
0.039127 0.517595 -0.237175 68 1 84
0.532569 0.249399 0.444556 61 74 137
0.372080 -0.524572 -0.208179 44 112 142
-0.230865 0.600991 0.005073 68 1 84
-0.319575 -0.564380 -0.205154 52 94 141
0.242433 0.030333 -0.191291 70 9 92
-0.381992 0.120546 -0.113327 72 25 107
-0.085760 0.487972 -0.234875 68 1 84
0.088616 -0.010623 -0.416963 30 156 137
-0.005196 0.248659 -0.273900 69 6 90
-0.095541 0.053461 -0.253166 68 1 84
-0.035626 -0.329364 -0.264319 71 40 120
-0.658653 -0.221849 0.361510 105 204 91
-0.630359 -0.229295 0.292272 30 154 137
0.236728 -0.207409 -0.173290 68 1 84
0.009996 -0.270700 -0.357067 68 1 84
-0.157196 0.217406 -0.245139 62 73 137
0.694235 -0.376223 0.449545 37 171 129
-0.634544 -0.172888 0.313150 46 178 124
-0.239467 0.421075 -0.136636 68 1 84
0.057310 0.015676 -0.395619 34 167 132
0.142777 0.526383 -0.187635 68 1 84
0.371266 0.516651 0.216164 68 1 84
0.636527 -0.151730 0.196354 36 133 141
-0.495149 0.349188 0.133788 61 76 137
0.089902 0.386751 -0.217988 68 1 84
0.104730 0.321649 -0.243052 71 37 117
0.325104 -0.038045 -0.158455 71 22 105
0.032667 -0.339346 -0.301773 54 90 140
0.300823 -0.226396 -0.167315 70 11 94
0.078665 -0.464118 -0.272487 49 101 141
-0.310155 0.275717 -0.123904 68 1 84
0.425901 -0.185608 -0.098194 72 25 107
-0.345618 0.122549 -0.136985 70 45 124
-0.006750 0.090410 -0.323319 49 101 141
0.542821 0.181752 0.137699 45 110 142
0.107425 -0.299763 -0.222412 68 1 84
0.175239 0.613169 -0.061120 68 1 84
-0.263182 -0.266898 -0.170605 71 21 103
0.064393 0.003969 -0.427552 103 204 92
0.387742 -0.214828 -0.123318 68 3 87
-0.187265 -0.450469 -0.206450 71 43 122
-0.425546 0.058142 -0.082865 68 1 84
-0.591005 0.007148 0.289261 34 137 141
0.224485 -0.144787 -0.180081 68 1 84
-0.226358 0.244129 -0.149156 68 1 84
0.343640 0.536010 0.131096 68 1 84
-0.631509 -0.148018 0.393337 126 210 78
0.315788 0.556678 0.136164 68 1 84
-0.337773 0.370564 -0.073253 68 1 84
0.253023 -0.224664 -0.172734 68 1 84
-0.623902 -0.307419 0.280132 30 153 138
0.691722 -0.445552 0.420585 46 178 124
0.257214 0.171371 -0.181461 59 81 138
0.485714 0.373901 0.372117 52 95 141
0.307007 -0.407152 -0.201859 67 60 132
-0.447699 0.442364 0.184900 71 17 99
-0.434372 0.435564 0.095372 72 30 112
-0.663839 -0.413921 0.406745 44 177 125
-0.565884 0.162138 0.448140 134 212 73
0.495223 0.172242 0.012945 59 81 138
0.516156 0.337752 0.337671 51 96 141
0.604691 0.031735 0.392134 33 167 132
0.202315 -0.498035 -0.256381 30 151 138
0.282244 -0.087967 -0.166243 68 1 84
0.331322 -0.326681 -0.166662 71 15 98
-0.523964 0.246383 0.110392 39 126 142
-0.167495 -0.078858 -0.217639 68 1 84
0.454210 0.084443 -0.062852 36 134 141
0.157206 -0.427005 -0.217275 65 65 134
-0.507353 0.314093 0.452776 39 124 142
0.360175 -0.020583 -0.144692 69 53 128
0.158404 0.056597 -0.212554 68 1 84
-0.056299 -0.237561 -0.311881 68 1 84
-0.454931 0.192771 -0.030091 48 104 141
0.110118 -0.095486 -0.326188 33 142 140
0.525587 0.260687 0.453541 67 59 131
-0.033459 0.273569 -0.263198 68 1 84
0.423918 0.465954 0.175523 68 1 84
-0.135896 0.422061 -0.201360 68 1 84
0.565858 0.100741 0.160189 51 97 141
-0.198915 -0.243606 -0.174098 68 1 84
0.338215 0.142337 -0.141774 58 82 139
-0.307083 0.540446 0.003364 68 1 84
-0.306383 -0.291893 -0.158649 70 12 95
0.257194 0.403488 -0.106115 68 1 84
-0.370293 0.484263 0.034053 68 1 84
-0.625307 -0.302333 0.283687 30 157 136
-0.110549 -0.357173 -0.178506 72 26 108
0.582273 -0.269883 0.080128 31 163 134
0.221259 -0.288455 -0.167495 68 1 84
0.568921 0.106452 0.504580 71 44 123
-0.654407 -0.293485 0.424402 144 214 67
-0.098398 0.615671 -0.184906 68 1 84
-0.014304 0.146763 -0.299527 67 59 131
0.602037 0.036213 0.329219 36 134 141
0.332415 0.540771 0.103903 68 1 84
0.525616 0.176513 0.079501 62 72 136
0.618884 -0.132136 0.153251 32 143 140
-0.049579 0.305618 -0.271960 68 1 84
0.068439 0.612400 -0.182907 68 1 84
-0.388874 0.502797 0.173837 68 1 84
-0.032761 0.434111 -0.228479 68 1 84
-0.154806 -0.524415 -0.260715 34 167 132
-0.300735 0.081127 -0.165768 68 1 84
-0.356193 -0.059594 -0.136546 71 20 102
-0.368222 -0.322061 -0.104777 66 64 133
-0.620471 -0.152804 0.480760 119 208 82
0.071357 -0.281361 -0.313964 50 99 141
-0.076153 -0.206466 -0.297043 71 18 101
-0.595045 -0.069566 0.229867 30 157 136
0.436608 0.452572 0.248666 71 40 120
0.269070 -0.098964 -0.169146 68 1 84
0.648883 -0.376131 0.259677 64 189 114
-0.545953 0.230435 0.451565 51 182 121
0.262421 0.564484 0.001378 68 1 84
0.005627 -0.059716 -0.486290 139 213 70
-0.113502 -0.284680 -0.181914 68 1 84
0.498766 0.365808 0.223323 64 68 135
0.443505 0.160747 -0.055027 72 34 115
0.595618 -0.383780 0.107557 31 150 139
0.507816 0.243577 0.074509 72 26 108
0.501905 0.294467 0.488214 68 1 84
-0.356648 -0.432625 -0.158462 53 93 140
-0.100578 0.240615 -0.249310 69 6 90
-0.176360 -0.348829 -0.171752 70 12 95
-0.094516 0.074517 -0.257827 71 40 120
0.656172 -0.229280 0.250554 34 138 141
-0.181277 -0.173426 -0.188197 68 1 84
0.532208 -0.446863 -0.029563 32 144 140
0.085160 -0.200124 -0.330201 40 122 142
0.649916 -0.092609 0.540482 46 107 142
-0.432524 0.302304 -0.019527 64 68 135
-0.435331 0.454374 0.248069 68 1 84
0.645174 -0.075152 0.506798 32 143 140
0.047499 0.470751 -0.228879 68 1 84
0.120047 0.609383 -0.154980 68 1 84
0.350269 -0.141768 -0.138941 71 22 105
0.463164 -0.412070 -0.124704 68 1 84
-0.393898 0.497264 0.158619 68 1 84
0.576991 0.012859 0.114701 36 132 141
-0.529590 0.283050 0.415967 87 198 101
0.458388 0.037394 -0.070835 30 157 136
0.488562 -0.457641 -0.113862 69 50 127
0.295223 0.505204 -0.023728 68 1 84
-0.533690 0.071731 0.068687 55 89 140
-0.422427 -0.065676 -0.093831 69 6 90
0.590007 0.075229 0.432421 44 114 142
-0.559960 0.178283 0.455398 91 200 98
-0.531065 0.323126 0.266433 33 167 132
-0.082802 -0.532144 -0.275929 30 157 136
-0.534627 -0.429406 0.103354 54 90 140
-0.504971 0.286187 0.091055 58 83 139
0.596869 -0.268175 0.104330 40 174 127
-0.191724 -0.310814 -0.167650 68 1 84
-0.423490 -0.223304 -0.072495 69 54 129
-0.683374 -0.515279 0.433940 33 167 132
-0.558528 0.163794 0.170787 40 122 142
-0.578265 -0.046611 0.167002 41 121 142
0.481215 0.369961 0.407353 65 66 134
-0.185042 0.210786 -0.221751 64 67 135
-0.108640 -0.219096 -0.231942 68 1 84
-0.364537 0.163080 -0.119047 71 40 120
-0.625531 -0.154050 0.412920 131 211 75
-0.303346 0.556597 0.036382 68 1 84
-0.654735 -0.297969 0.443128 159 217 56
0.631579 -0.055612 0.350143 31 163 134
-0.054733 -0.445727 -0.250909 34 138 141
0.425384 -0.091493 -0.106447 71 43 122
-0.039897 0.536770 -0.241604 68 1 84
-0.572064 0.037657 0.191793 36 134 141
-0.037580 -0.246300 -0.338513 68 1 84
0.446853 -0.380334 -0.113316 68 1 84
-0.008635 0.061756 -0.400954 87 198 101
-0.582721 0.054453 0.521372 62 188 115
-0.174480 -0.346700 -0.170100 68 1 84
-0.685517 -0.457701 0.489599 68 190 112
-0.289563 0.573062 0.068067 68 1 84
0.186201 0.040431 -0.202737 68 1 84
-0.155398 -0.055102 -0.228477 68 2 85
-0.299447 -0.480130 -0.196991 65 65 134
0.469563 -0.141377 -0.071366 68 1 84
-0.492449 0.189603 0.020702 58 83 139
-0.100880 0.222270 -0.271989 46 108 142
0.572203 -0.248012 0.062389 40 174 127
-0.297633 0.396460 -0.091987 68 1 84
-0.663216 -0.425255 0.396495 30 157 136
-0.603492 -0.250253 0.199595 36 132 141
0.669837 -0.211347 0.330189 30 156 137
-0.503580 0.258537 0.068788 71 39 119
-0.591938 0.054812 0.395409 129 211 76
-0.323418 -0.197298 -0.137656 72 25 107
-0.093699 0.006915 -0.309639 53 92 140
0.638126 -0.142038 0.201901 40 123 142
-0.526801 -0.396271 0.081837 47 106 141
0.512469 0.289217 0.455643 71 40 120
0.554261 -0.184714 0.026396 42 176 126
0.097272 0.342475 -0.236230 68 1 84
-0.067037 0.248704 -0.259618 68 1 84
0.566012 0.097423 0.157771 48 104 141
0.327157 0.488584 0.001004 68 1 84
-0.079482 0.067474 -0.271296 71 38 118
0.109313 -0.030836 -0.395966 32 164 133
0.461655 -0.095681 -0.082369 63 69 135
-0.078308 0.484919 -0.235952 68 1 84
0.675563 -0.172367 0.458919 100 203 93
-0.146518 -0.176491 -0.213909 68 1 84
0.683841 -0.460185 0.384153 56 185 118
0.656967 -0.248321 0.252861 33 142 140
-0.069814 -0.416721 -0.224082 51 97 141
0.258928 -0.334748 -0.171041 70 49 126
-0.256412 0.262587 -0.136944 68 1 84
-0.016845 0.651641 -0.127415 68 1 84
0.493360 0.217331 0.031042 72 30 112
-0.070584 -0.028859 -0.444201 154 216 60
-0.574994 -0.082096 0.133635 43 115 142
-0.182778 -0.318035 -0.166315 68 1 84
-0.628906 -0.323419 0.300931 79 195 105
-0.521419 -0.191170 0.022352 69 53 128
-0.195087 -0.465406 -0.212212 69 53 128
-0.090192 -0.171825 -0.290684 71 22 105
-0.512274 0.357085 0.239792 42 118 142
0.541077 -0.269714 0.022474 35 169 130
0.377663 -0.036622 -0.134665 68 1 84
0.602608 0.027066 0.308836 31 149 139
-0.226555 -0.393835 -0.202717 65 65 134
0.431028 0.407493 0.070462 68 1 84
0.523794 -0.085099 -0.022443 47 106 141
-0.092147 -0.023003 -0.403750 59 186 117
-0.295455 0.470402 -0.078401 68 1 84
0.640439 -0.412258 0.218670 31 150 139
-0.407268 -0.042975 -0.104831 68 1 84
0.264434 0.081952 -0.183020 71 43 122
0.421904 0.468028 0.245662 68 1 84
-0.552613 -0.100010 0.069600 56 86 139
-0.226042 -0.444280 -0.205033 72 26 108
0.396091 0.494843 0.184139 68 1 84
0.534770 0.111116 0.064704 58 83 139
-0.011155 -0.252568 -0.361897 68 1 84
0.248284 0.579876 0.008233 68 1 84
0.213385 0.573057 -0.078166 68 1 84
0.142692 -0.238106 -0.205269 68 1 84
0.458056 0.281034 0.007905 71 18 101
-0.612636 -0.045008 0.408658 114 207 85
-0.650830 -0.240272 0.338902 149 215 63
0.677586 -0.233832 0.495324 33 141 140
-0.279552 -0.329095 -0.162593 68 1 84
0.046812 -0.150408 -0.410672 68 190 112
0.435300 -0.499124 -0.165839 37 130 142
-0.614389 -0.043495 0.446015 173 220 48
0.648055 -0.331215 0.253479 34 167 132
-0.475422 -0.311121 0.004223 69 5 88
0.145257 -0.007743 -0.324381 41 120 142
-0.497503 -0.405324 0.028153 48 104 141
0.694777 -0.292106 0.466997 48 180 122
0.376667 0.331305 -0.058906 68 1 84
-0.102204 0.055757 -0.246131 68 1 84
-0.022425 0.510266 -0.243713 68 1 84
0.439735 -0.198223 -0.086242 68 1 84
0.665963 -0.120610 0.450934 73 193 109
0.177575 -0.114858 -0.217052 68 1 84
0.252662 0.587579 0.059925 68 1 84
-0.616702 -0.135419 0.281334 36 170 130
0.524047 0.122337 0.045449 61 74 137
-0.463460 -0.086537 -0.058999 72 30 112
0.246763 -0.253688 -0.176029 68 1 84
0.501057 0.365455 0.312298 54 91 140
-0.102071 0.618275 -0.179520 68 1 84
-0.351490 -0.560237 -0.183329 55 88 140
0.483277 0.359517 0.133861 72 34 115
-0.204930 0.554192 -0.154044 68 1 84
0.356033 0.028700 -0.146307 69 8 91
-0.075051 0.101941 -0.283124 62 73 137
0.286961 -0.127954 -0.158626 68 1 84
-0.532296 0.320064 0.281518 33 166 133
-0.523342 -0.264175 0.046429 70 45 124
0.189547 0.311895 -0.173574 68 1 84
0.021907 0.300472 -0.274686 68 1 84
-0.645705 -0.214535 0.326513 50 181 122
-0.535842 -0.019845 0.049211 48 103 141
0.100497 -0.130516 -0.332305 32 145 140
0.147331 -0.495134 -0.268144 47 106 141
-0.345759 0.368885 -0.068382 68 1 84
0.645825 -0.101660 0.300176 34 167 132
0.171914 0.308858 -0.192168 68 1 84
0.615931 -0.471483 0.154437 41 120 142
0.087474 -0.125703 -0.374243 35 169 130
0.519197 0.313292 0.196536 65 65 134
-0.598063 -0.354172 0.222519 37 171 129
0.223616 -0.462765 -0.223564 62 73 137
0.630839 -0.035460 0.458135 39 173 128
0.691264 -0.276503 0.460410 54 184 119
-0.576903 0.056393 0.222850 36 133 141
-0.369419 0.483669 0.031471 68 1 84
0.485407 -0.306760 -0.041926 41 121 142
-0.485367 0.392670 0.190116 65 66 134
0.418628 0.466053 0.280371 68 2 85
-0.071902 -0.501060 -0.267982 32 164 133
0.465849 -0.186746 -0.065991 69 6 90
0.619084 -0.048608 0.221374 30 155 137
-0.581544 -0.072452 0.163048 44 112 142
-0.085946 -0.257650 -0.235565 68 1 84
0.574613 -0.351678 0.066708 30 151 138
0.686096 -0.393026 0.412200 43 177 125
-0.647339 -0.209705 0.329903 64 189 114
0.523473 0.162287 0.065579 61 76 137
0.337473 0.419832 -0.038524 68 1 84
-0.471439 -0.389983 -0.014284 69 50 127
-0.046554 0.023230 -0.410420 96 201 96
-0.508205 -0.220457 0.012936 71 44 123
-0.361374 0.158837 -0.121752 71 15 98
-0.570622 0.179584 0.389438 91 200 98
-0.066524 0.073543 -0.286820 66 64 133
0.106240 -0.078016 -0.369475 30 153 138
-0.462797 0.425129 0.226721 71 43 122
0.232680 0.103063 -0.193230 72 34 115
-0.376669 -0.249616 -0.104718 60 78 138
-0.677507 -0.448132 0.438519 71 192 110
0.694130 -0.361163 0.451530 66 190 113
0.206527 0.320948 -0.156898 68 1 84
-0.075603 0.417676 -0.217865 68 1 84
-0.370496 -0.076273 -0.126906 69 6 90
-0.288847 0.457361 -0.088786 68 1 84
0.469018 0.293794 0.033065 68 1 84
-0.064649 -0.150627 -0.355097 46 107 142
-0.411222 0.479456 0.148094 68 1 84
-0.018031 0.063970 -0.375502 30 154 137
-0.381593 0.509622 0.180559 68 1 84
0.548012 0.262384 0.336839 49 101 141
0.511284 -0.066031 -0.036186 31 146 140
-0.373810 0.513201 0.122428 68 1 84
-0.653356 -0.290662 0.526408 139 213 70
-0.028436 -0.091490 -0.465963 199 224 31
-0.276236 -0.317285 -0.163964 68 1 84
0.305040 0.328549 -0.107489 68 1 84
0.241483 0.209185 -0.183475 71 42 121
0.160394 0.521952 -0.174674 68 1 84
0.661372 -0.185463 0.523162 34 138 141
0.303257 0.559592 0.087799 68 1 84
0.198606 -0.219477 -0.176959 68 1 84
-0.088726 -0.114422 -0.326523 71 24 106
-0.601129 -0.226608 0.189260 31 149 139
-0.403966 -0.496710 -0.141955 30 160 135
0.648354 -0.488246 0.227982 98 202 95
-0.561616 -0.305788 0.122448 35 136 141
0.141769 -0.352128 -0.184376 68 1 84
0.119137 0.021613 -0.333403 33 140 141
0.520734 -0.058008 -0.024146 31 161 135
-0.592668 -0.421054 0.230188 38 172 129
-0.584457 0.073868 0.290496 34 138 141
-0.564415 0.222623 0.262059 56 86 139
0.610637 -0.004034 0.323489 30 155 137
0.506799 -0.141277 -0.037298 56 87 140
0.088536 -0.055908 -0.434717 71 192 110
-0.032382 -0.181588 -0.385471 54 90 140
-0.534396 0.305694 0.338965 32 145 140
-0.192257 0.201493 -0.217228 67 59 131
0.371712 0.514459 0.146978 68 1 84
0.236414 0.494066 -0.105720 68 1 84
-0.612097 -0.001398 0.498995 175 220 46
0.459117 0.420533 0.182846 70 12 95
-0.611377 -0.216373 0.217376 31 146 140
0.116946 0.516262 -0.204974 68 1 84
-0.602696 -0.504169 0.275138 30 153 138
-0.164939 -0.135366 -0.211723 71 37 117
0.369036 -0.512839 -0.209369 42 117 142
-0.639054 -0.224372 0.468515 129 211 76
-0.121387 -0.036476 -0.348440 36 133 141
-0.130828 -0.061662 -0.301854 52 94 141
-0.276909 -0.127492 -0.158728 71 20 102
0.115627 0.344855 -0.224902 68 1 84
0.170098 -0.405996 -0.200844 71 43 122
0.082337 -0.500086 -0.280271 34 138 141
-0.109255 -0.052289 -0.356375 43 116 142
0.506177 -0.052701 -0.040141 37 131 141
-0.472919 -0.377887 -0.007255 72 25 107
-0.423913 -0.362832 -0.060159 64 68 135
-0.070739 0.299302 -0.269965 68 1 84
0.408571 0.234424 -0.068479 68 1 84
0.179983 0.575709 -0.128813 68 1 84
0.221772 -0.141416 -0.181753 68 1 84
0.645022 -0.165454 0.234753 37 130 142
-0.611870 -0.002802 0.535408 119 208 82
0.457956 0.215958 -0.022046 72 28 110
0.650841 -0.082159 0.520177 35 137 141
-0.397173 -0.565600 -0.137600 48 104 141
-0.119040 0.297476 -0.251019 72 32 113
-0.176676 0.145098 -0.228350 71 39 119
0.621039 -0.222265 0.152432 31 149 139
-0.629576 -0.146334 0.324974 87 198 101
0.359377 -0.115775 -0.135483 71 15 98
-0.458600 0.339018 0.042248 68 1 84
0.420454 -0.077914 -0.109785 68 1 84
-0.581930 0.067735 0.262833 52 95 141
-0.553327 -0.356267 0.123458 38 127 142
-0.526255 -0.441251 0.088594 49 101 141
-0.113636 0.146256 -0.273091 56 86 139
0.336258 0.499926 0.025068 68 1 84
-0.010101 -0.231627 -0.374432 71 24 106
0.581859 0.071513 0.202112 36 132 141
-0.356700 0.466230 -0.006490 68 1 84
-0.565825 0.159136 0.200100 31 149 139
0.419664 0.031479 -0.103914 70 45 124
-0.611464 -0.093805 0.315673 31 162 134
0.704552 -0.452417 0.515417 32 143 140
0.246515 -0.350225 -0.176878 68 57 130
0.334464 0.499205 0.021555 68 1 84
-0.505140 0.353397 0.178646 47 106 141
-0.442883 -0.006748 -0.072678 68 2 85
0.250944 0.159444 -0.185623 70 45 124
-0.668292 -0.393506 0.444382 56 185 118
-0.178368 0.601036 -0.134102 68 1 84
-0.155320 -0.426030 -0.198808 62 72 136
0.456962 -0.419959 -0.133615 71 21 103
0.066422 0.230150 -0.286683 62 72 136
0.663041 -0.260886 0.271076 47 179 123
0.248522 -0.227782 -0.173477 68 1 84
-0.518231 -0.296135 0.048310 71 43 122
0.392777 0.482677 0.102375 68 1 84
-0.576792 -0.140484 0.122775 39 126 142
0.456375 0.045841 -0.070540 30 160 135
-0.377518 0.502008 0.086875 68 1 84
0.170251 0.252770 -0.206582 71 40 120
-0.323700 -0.352094 -0.151630 67 58 131
-0.275218 0.091118 -0.176746 68 1 84
-0.661096 -0.474609 0.339570 83 197 103
-0.272599 -0.439445 -0.200561 72 30 112
-0.518843 -0.117411 0.007667 72 26 108
0.689375 -0.271306 0.448144 51 182 121
-0.263910 0.478251 -0.110498 68 1 84
0.698652 -0.291575 0.505631 38 127 142
-0.090603 -0.246772 -0.238694 68 1 84
0.342951 0.430905 -0.025252 68 1 84
-0.029145 -0.030493 -0.481954 212 225 26
0.096808 0.578794 -0.196952 68 1 84
0.610894 -0.009419 0.307219 30 153 138
-0.526090 0.302615 0.391566 50 181 122
0.496418 -0.379474 -0.072851 72 25 107
-0.143165 0.215309 -0.256002 58 82 139
-0.116561 0.044020 -0.236974 68 1 84
0.033616 0.070135 -0.322633 57 85 139
0.369173 -0.508969 -0.209079 38 129 142
-0.616288 -0.281760 0.246654 40 122 142
-0.499212 -0.342345 0.032829 68 1 84
0.511074 0.131664 0.022866 44 112 142
0.458110 -0.294969 -0.059822 68 1 84
0.583897 0.056170 0.550319 64 67 135
0.250152 0.024790 -0.189118 72 29 111
0.621511 -0.022019 0.381826 31 146 140
-0.107204 -0.257998 -0.202560 68 1 84
0.609508 -0.365290 0.139635 35 137 141
-0.584086 -0.110060 0.153054 41 121 142
0.525999 0.255855 0.459120 69 54 129
-0.534143 -0.011168 0.048206 49 100 141
0.463193 0.356699 0.077156 68 1 84
0.548967 0.172116 0.153050 46 107 142
0.513975 0.333216 0.365904 49 102 141
0.687861 -0.209538 0.436987 57 185 118
-0.617861 -0.137520 0.284356 50 181 122
0.499494 0.330010 0.431512 58 83 139
-0.153300 -0.420873 -0.197291 64 68 135
-0.473781 0.080725 -0.028154 72 28 110
-0.147528 0.616994 -0.143004 68 1 84
-0.447750 0.010717 -0.065731 69 8 91
-0.588766 0.024538 0.287526 40 122 142
0.216530 0.462701 -0.130995 68 1 84
0.081137 0.096856 -0.272218 68 55 129
0.055582 0.089040 -0.290707 62 72 136
-0.045543 0.029754 -0.339255 45 111 142
-0.312613 -0.473535 -0.190823 63 71 136
-0.556663 -0.310522 0.115060 40 122 142
0.085562 -0.158625 -0.348304 31 147 139
0.294944 -0.540820 -0.240267 45 111 142
-0.480945 0.399061 0.187505 67 59 131
0.060023 0.448669 -0.220421 68 1 84
-0.429068 0.043452 -0.080764 69 8 91
-0.273776 -0.232573 -0.159821 68 1 84
-0.682827 -0.547160 0.441569 30 155 137
-0.099073 -0.197250 -0.261938 68 1 84
0.044997 0.606527 -0.197893 68 1 84
0.671538 -0.188361 0.380578 81 196 104
-0.072303 -0.115203 -0.373840 43 115 142
0.586997 0.078547 0.256454 32 145 140
0.195512 0.197554 -0.215466 54 91 140
0.440656 -0.008103 -0.094240 71 42 121
0.702793 -0.306749 0.498473 30 158 136
-0.373753 -0.329497 -0.099968 69 53 128
0.663437 -0.204322 0.293573 31 162 134
-0.571468 0.196420 0.282650 43 115 142
0.299523 0.567451 0.139237 68 1 84
-0.423622 0.427288 0.061219 68 1 84
0.614092 -0.235556 0.136639 33 166 133
-0.568678 0.127405 0.197598 35 135 141
-0.535991 -0.375194 0.095167 47 105 141
0.225828 0.152847 -0.198937 59 80 138
0.426984 -0.474109 -0.171714 47 106 141
-0.589579 -0.075304 0.196206 38 127 142
0.167824 0.601823 -0.109657 68 1 84
0.668536 -0.200039 0.488850 32 144 140
-0.144737 -0.316110 -0.159181 68 1 84
0.166240 0.373600 -0.182700 68 1 84
-0.627804 -0.188074 0.527720 136 213 71
0.261472 0.359189 -0.112937 68 1 84
-0.386661 0.105315 -0.111545 71 43 122
-0.093807 -0.221610 -0.254329 68 1 84
0.678246 -0.199770 0.394219 68 190 112
0.636981 -0.054658 0.392677 31 148 139
0.019479 0.357518 -0.245028 68 1 84
0.578660 0.081657 0.504816 50 99 141
0.232344 0.395622 -0.126439 68 1 84
0.526611 0.122018 0.050992 66 64 133
0.596520 -0.039858 0.144209 30 158 136
-0.306960 0.557162 0.051425 68 1 84
-0.538144 -0.123366 0.039245 57 85 139
-0.113535 -0.088507 -0.294581 60 78 138
0.495427 0.346028 0.155415 69 54 129
-0.193420 0.340538 -0.178137 68 1 84
-0.149516 -0.129746 -0.226441 68 1 84
0.534871 -0.161940 -0.002759 47 106 141
-0.492234 0.363493 0.147492 39 125 142
-0.493989 -0.282785 0.017393 70 9 92
0.335461 0.493000 0.016097 68 1 84
0.338334 0.527296 0.074429 68 1 84
-0.305248 0.288023 -0.121883 68 1 84
-0.482237 0.219049 0.014702 53 93 140
-0.246017 -0.478212 -0.209478 71 37 117
0.131960 -0.200234 -0.250182 68 57 130
0.128918 -0.298718 -0.189706 68 1 84
-0.485772 0.233099 0.025359 71 44 123
0.489930 -0.394661 -0.089871 69 8 91
-0.545182 -0.073695 0.056335 58 83 139
-0.015563 -0.331019 -0.290271 69 6 90
0.282418 0.572276 0.076351 68 1 84
-0.579656 -0.427571 0.201408 30 157 136
-0.401589 0.397125 -0.000636 68 1 84
-0.592459 -0.379389 0.216721 31 162 134
0.526876 0.235732 0.482093 71 37 117
0.116477 -0.389314 -0.219907 70 11 94
0.598532 0.009609 0.537411 46 107 142
-0.275698 0.127465 -0.175257 68 1 84
-0.601843 -0.241735 0.193561 39 126 142
0.027360 -0.212532 -0.387678 69 50 127
-0.309795 0.309182 -0.112466 68 1 84
0.306862 0.483854 -0.026350 68 1 84
0.273208 0.330539 -0.117298 68 1 84
-0.480851 0.281339 0.039502 70 48 125
0.231030 -0.369842 -0.187700 68 55 129
-0.267838 0.034347 -0.180665 68 1 84
-0.223124 -0.456134 -0.207055 72 29 111
0.250982 -0.161629 -0.168887 68 1 84
0.699637 -0.385466 0.470867 46 178 124
0.158980 0.309931 -0.204233 68 1 84
0.493813 -0.067740 -0.054887 46 108 142
0.411811 0.472786 0.283937 70 11 94
0.145948 0.369866 -0.197065 68 1 84
0.167235 -0.483194 -0.256899 43 115 142
-0.168836 0.561561 -0.184260 68 1 84
0.232278 -0.040973 -0.192203 68 1 84
0.320384 0.554600 0.150305 68 1 84
-0.435175 0.235962 -0.041600 61 74 137
-0.262080 -0.155023 -0.159214 68 1 84
-0.527706 0.261855 0.470877 33 142 140
-0.517283 0.349199 0.258712 33 142 140
0.635305 -0.284912 0.200906 30 154 137
-0.437630 0.344295 0.012260 68 1 84
0.483631 -0.423871 -0.114864 71 18 101
0.297425 -0.434737 -0.199491 72 29 111
0.070052 0.006181 -0.415357 107 205 89
-0.280047 0.232492 -0.150331 68 1 84
-0.004504 -0.235427 -0.374603 69 5 88
0.544525 -0.344835 0.014372 31 149 139
0.265030 -0.295632 -0.169258 70 48 125
-0.654387 -0.298248 0.496229 83 197 103
0.012376 0.186395 -0.313150 36 132 141
-0.237663 0.463588 -0.138955 68 1 84
0.318696 0.390046 -0.069888 68 1 84
-0.609870 -0.390762 0.264113 37 171 129
-0.196888 0.602572 -0.091662 68 1 84
0.251782 -0.042907 -0.185047 68 1 84
-0.586678 0.085088 0.361062 54 184 119
-0.589491 0.059182 0.353907 81 196 104
-0.003221 -0.254074 -0.364698 68 1 84
-0.531911 0.214096 0.112794 46 109 142
0.436199 -0.365105 -0.111052 68 1 84
-0.334166 0.540745 0.082490 68 1 84
0.566102 -0.084565 0.042316 50 99 141
0.172973 -0.292224 -0.165717 68 1 84
-0.011218 0.070707 -0.357785 30 152 138
-0.456627 -0.073023 -0.065655 72 30 112
0.234903 -0.502626 -0.248846 50 99 141
0.175991 -0.290545 -0.165555 68 1 84
0.541726 -0.047434 0.006991 39 124 142
0.235672 0.321061 -0.133381 68 1 84
-0.070046 -0.084300 -0.426373 89 199 100
-0.196773 -0.074567 -0.201882 68 1 84
0.437437 -0.228799 -0.084718 72 30 112
-0.609801 -0.124279 0.253879 30 156 137
0.168445 -0.096901 -0.227664 68 1 84
0.091290 0.534953 -0.216494 68 1 84
0.365049 -0.212041 -0.136673 70 47 124
-0.263336 -0.516502 -0.221772 45 111 142
-0.621908 -0.156185 0.526798 109 206 88
-0.464037 -0.267055 -0.018528 72 34 115
-0.357689 -0.083553 -0.133254 72 33 114
0.542203 0.279820 0.270019 51 97 141
-0.118148 0.145216 -0.269798 60 78 138
-0.481043 -0.473506 -0.008612 31 149 139
-0.304602 0.032111 -0.166820 70 11 94
-0.046053 0.328265 -0.267301 68 1 84
0.175535 -0.300533 -0.162534 68 1 84
-0.442463 -0.329677 -0.029273 70 12 95
0.702755 -0.459719 0.488413 34 137 141
-0.106355 0.349503 -0.231634 68 1 84
0.149965 0.619653 -0.095974 68 1 84
-0.049762 -0.122473 -0.418616 73 193 109
-0.265353 0.477978 -0.108886 68 1 84
0.665907 -0.137192 0.474674 81 196 104
0.133770 0.628861 -0.086192 68 1 84
0.582880 0.084725 0.467111 38 128 142
-0.313641 0.447984 -0.066897 68 1 84
-0.321840 -0.083081 -0.149696 71 40 120
0.119615 -0.226795 -0.256968 68 57 130
-0.010172 -0.359004 -0.279153 55 89 140
0.182120 -0.052572 -0.215378 68 1 84
0.670053 -0.377134 0.336682 40 174 127
0.652246 -0.177553 0.264811 36 170 130
0.267642 -0.397435 -0.202712 69 52 127
0.468146 0.243785 0.003047 71 22 105
-0.634105 -0.143105 0.367222 38 172 129
-0.521608 -0.115876 0.011788 71 37 117
0.552199 0.206917 0.430932 69 54 129
-0.632899 -0.217580 0.534009 109 206 88
-0.530349 -0.466970 0.100254 57 85 139
-0.639726 -0.269261 0.319747 30 159 136
0.249501 -0.108579 -0.174639 68 1 84
0.496024 -0.505869 -0.094352 31 147 139
0.011484 0.074093 -0.346631 39 126 142
-0.619746 -0.125678 0.311807 105 204 91
-0.391299 0.227572 -0.086784 72 26 108
0.547085 0.180885 0.478947 67 60 132
-0.006649 -0.014305 -0.483141 253 231 36
0.440381 0.265620 -0.022742 71 17 99
0.241954 0.052510 -0.190571 72 29 111
-0.090893 0.486943 -0.233361 68 1 84
-0.488053 -0.122413 -0.032515 68 1 84
-0.487220 -0.257905 0.001934 70 12 95
0.206740 -0.047332 -0.202379 68 1 84
0.543120 -0.056779 0.007227 40 122 142
-0.513969 0.350910 0.221116 52 94 141
0.575406 -0.015445 0.088147 32 144 140
-0.240661 -0.549282 -0.238738 35 137 141
-0.273699 -0.380692 -0.191869 68 55 129
0.637550 -0.219561 0.195309 35 137 141
-0.400454 -0.287376 -0.078630 71 44 123
-0.200021 -0.031241 -0.201392 68 1 84
0.520683 0.065393 0.012990 35 135 141
-0.278963 0.003248 -0.177491 68 2 85
0.328731 0.323555 -0.098181 69 6 90
-0.513964 0.317095 0.150745 40 123 142
-0.493554 0.385103 0.256961 41 121 142
-0.182251 0.208052 -0.225947 62 72 136
-0.158286 -0.455840 -0.213383 57 85 139
-0.327603 0.037696 -0.155138 68 2 85
-0.616659 -0.294306 0.252203 34 138 141
0.138975 -0.415290 -0.218715 71 15 98
-0.568417 0.174981 0.227254 39 126 142
-0.434841 0.450043 0.132782 71 15 98
-0.520976 0.173395 0.066205 55 89 140
-0.264608 -0.572035 -0.231952 38 172 129
-0.133460 -0.145392 -0.238930 68 1 84
0.009020 0.078591 -0.338785 43 116 142
-0.380680 -0.103902 -0.118768 70 49 126
0.687149 -0.215861 0.444872 71 192 110
0.146556 -0.304302 -0.174891 68 1 84
-0.578154 0.059460 0.232134 42 117 142
-0.517885 0.088853 0.039634 64 67 135
-0.476970 0.213652 0.005415 47 105 141
0.226520 0.584286 -0.029957 68 1 84
-0.589020 -0.165672 0.154848 35 135 141
0.516707 0.308720 0.178253 71 44 123
0.550906 -0.356770 0.022763 34 138 141
0.181014 -0.230844 -0.178335 68 1 84
0.674157 -0.254544 0.314406 39 173 128
0.000246 0.645453 -0.145011 68 1 84
-0.239483 -0.157740 -0.166809 69 6 90
-0.305950 0.271584 -0.126913 68 1 84
-0.099454 -0.265887 -0.204894 68 1 84
0.557263 -0.410531 0.028118 33 140 141
0.688339 -0.258453 0.468434 31 148 139
-0.016372 0.643971 -0.151907 68 1 84
-0.080641 0.052990 -0.270081 71 39 119
0.403364 0.487988 0.222139 68 1 84
-0.571264 0.115771 0.486776 47 179 123
-0.368979 0.508596 0.080242 68 1 84
0.553454 -0.491442 0.015730 77 194 107
-0.579924 0.142808 0.356560 199 224 31
-0.567497 0.045689 0.173391 31 150 139
0.519744 -0.038887 -0.022133 36 134 141
-0.504211 -0.051509 -0.008190 72 33 114
-0.349858 -0.487965 -0.180007 52 95 141
-0.548416 -0.255723 0.084271 43 115 142
-0.506547 -0.221864 0.011254 71 39 119
0.596412 0.069311 0.388236 32 145 140
0.046887 0.412723 -0.220192 68 1 84
-0.004041 -0.198287 -0.394194 54 90 140
-0.093091 -0.003277 -0.380318 39 173 128
-0.043006 -0.218329 -0.348459 68 1 84
0.572841 -0.066231 0.060580 31 149 139
0.102235 -0.458103 -0.263579 56 86 139
0.101800 -0.286135 -0.246550 71 17 99
-0.290403 0.282977 -0.127102 68 1 84
-0.007946 -0.311945 -0.312761 68 1 84
-0.563922 0.189693 0.211932 35 135 141
0.006992 0.113885 -0.306724 64 68 135
-0.137641 0.160053 -0.261333 64 68 135
0.419039 0.298655 -0.031477 68 1 84
0.421003 -0.074460 -0.109512 71 17 99
-0.146027 -0.264658 -0.177603 68 1 84
-0.522072 0.336394 0.301618 31 149 139
-0.203300 0.266248 -0.159535 68 1 84
-0.670397 -0.426613 0.424032 42 176 126
-0.542508 -0.200601 0.058055 48 103 141
0.227447 -0.129511 -0.180984 68 1 84
-0.567645 0.183101 0.405965 154 216 60
-0.224531 0.373751 -0.149445 68 1 84
0.505673 0.206659 0.048099 71 22 105
0.473222 -0.338374 -0.069174 71 21 103
-0.251429 -0.147533 -0.164470 70 14 97
0.164901 -0.303286 -0.164270 68 1 84
0.238795 -0.201403 -0.172515 68 1 84
0.561692 0.166063 0.200196 52 95 141
0.386610 0.025881 -0.127762 71 20 102
-0.224702 -0.181765 -0.168901 68 1 84
0.479594 0.246035 0.021373 71 24 106
-0.445379 0.098489 -0.059163 67 59 131
0.636919 -0.056702 0.387663 30 159 136
0.042073 0.024283 -0.398896 30 155 137
-0.557867 0.131786 0.517653 30 159 136
-0.550407 -0.308617 0.103293 36 134 141
0.633836 -0.348539 0.203298 32 143 140
0.511344 0.196543 0.054308 70 11 94
-0.677784 -0.443402 0.445351 66 190 113
0.538992 -0.312033 0.015310 30 159 136
0.601017 -0.030480 0.176667 30 157 136
-0.424965 0.466326 0.189367 68 1 84
-0.256451 0.207535 -0.170039 68 1 84
-0.577720 0.125356 0.260282 33 140 141
0.569294 0.098294 0.172264 40 123 142
-0.301150 -0.479522 -0.196296 65 66 134
0.028626 0.510737 -0.238999 68 1 84
-0.312146 0.357182 -0.093656 68 1 84
0.593088 -0.023466 0.143696 30 160 135
-0.562480 0.183830 0.200173 36 132 141
-0.281539 0.436963 -0.098546 68 1 84
0.378941 -0.303529 -0.130979 70 11 94
-0.054919 0.645521 -0.143333 68 1 84
0.518065 0.337435 0.286225 42 117 142
0.614772 -0.323373 0.149154 31 149 139
0.453143 0.228685 -0.023117 70 48 125
0.595543 0.034707 0.490763 37 130 142
-0.368919 0.488035 0.037158 68 1 84
0.456832 0.229991 -0.018142 72 35 116
0.279114 0.383691 -0.096160 68 1 84
-0.025040 -0.496000 -0.277423 33 142 140
-0.539020 0.286891 0.365880 141 214 68
0.195145 -0.238876 -0.175075 68 1 84
-0.156597 0.622716 -0.103569 68 1 84
0.063496 -0.183255 -0.371870 44 112 142
0.641648 -0.085804 0.316145 34 167 132
0.668741 -0.258415 0.288724 37 171 129
0.006686 -0.382524 -0.278116 57 84 139
-0.466565 0.408599 0.144674 63 71 136
-0.567443 0.198398 0.244719 44 113 142
-0.195411 0.120381 -0.213202 68 2 85
0.377581 -0.370794 -0.168953 66 61 132
0.253659 -0.414154 -0.201043 64 68 135
0.008725 -0.200031 -0.395953 58 83 139
-0.458514 -0.511833 -0.053034 43 177 125
0.121914 -0.474035 -0.264527 48 103 141
-0.513057 0.212608 0.065882 64 68 135
0.597947 0.063073 0.358367 32 145 140
-0.468767 0.306766 0.035374 70 45 124
0.141748 0.036286 -0.250745 72 30 112
-0.210460 0.542379 -0.153945 68 1 84
0.189262 0.599734 -0.072600 68 1 84
-0.241125 0.192050 -0.183264 68 1 84
0.054424 0.165782 -0.299802 56 87 140
-0.546702 0.215620 0.161078 39 125 142
-0.501554 0.075617 0.008547 63 69 135
0.700075 -0.408913 0.467491 33 166 133
-0.030662 0.610116 -0.204976 68 1 84
-0.586194 -0.147192 0.148906 36 134 141
-0.337793 0.417574 -0.054701 68 1 84
-0.036891 -0.343324 -0.254775 67 60 132
-0.577771 -0.442150 0.200669 32 143 140
0.547370 0.107990 0.101590 51 97 141
-0.664964 -0.380840 0.435850 51 182 121
0.054071 -0.271448 -0.340679 72 35 116
0.559792 0.226183 0.317130 38 127 142
-0.489986 0.319266 0.085982 51 96 141
0.655285 -0.381948 0.276817 59 186 117
0.339978 0.478052 0.007562 68 1 84
-0.001143 0.434118 -0.228725 68 1 84
-0.459780 -0.455606 -0.061613 30 154 137
-0.524744 0.294006 0.414794 62 188 115
-0.404967 0.339966 -0.031091 68 1 84
0.253851 -0.019187 -0.186661 68 1 84
0.287228 0.573934 0.119848 68 1 84
0.641275 -0.418872 0.217810 32 144 140
-0.064617 0.005473 -0.349103 43 116 142
0.536139 -0.208407 0.007703 30 155 137
-0.618832 -0.112658 0.539540 56 185 118
0.530211 0.288052 0.202555 64 67 135
-0.021266 0.062715 -0.372485 35 168 131
0.669907 -0.212862 0.327554 36 170 130
0.260248 -0.417186 -0.201547 68 55 129
-0.389643 0.077479 -0.112604 71 20 102
-0.225365 0.388361 -0.148467 68 1 84
0.348173 0.486194 0.026537 68 1 84
-0.058495 0.077539 -0.295347 59 81 138
0.474993 0.354435 0.100615 71 22 105
0.552964 0.217343 0.210844 57 84 139
0.518301 0.314833 0.389176 56 86 139
-0.288936 0.564107 0.017819 68 1 84
-0.371438 0.134520 -0.119269 72 33 114
-0.517282 0.221904 0.079277 70 48 125
0.700582 -0.415183 0.469176 33 167 132
-0.178398 0.403192 -0.180767 68 1 84
-0.388728 -0.067307 -0.116871 69 5 88
-0.594782 -0.263331 0.180388 45 111 142
0.224755 0.137465 -0.198951 69 50 127
-0.488455 0.127624 -0.000911 62 72 136
0.587381 0.099446 0.321613 34 138 141
0.331475 -0.012475 -0.158056 71 44 123
0.098923 -0.295898 -0.245347 68 2 85
0.091266 -0.370047 -0.244810 70 45 124
0.695229 -0.330041 0.453787 43 177 125
0.467803 0.416826 0.254563 71 40 120
-0.650570 -0.186004 0.375826 151 216 62
0.286239 -0.274155 -0.173430 68 1 84
0.546592 -0.319110 0.025063 32 165 133
0.596318 0.051778 0.302711 30 152 138
0.004772 0.514640 -0.241972 68 1 84
0.341776 0.103530 -0.147347 53 93 140
0.622270 -0.350273 0.169200 31 146 140
-0.245935 0.590852 -0.000528 68 1 84
-0.543200 -0.124291 0.048731 61 76 137
-0.482715 0.394416 0.180527 62 73 137
-0.055434 -0.407942 -0.233105 46 108 142
-0.295759 0.273104 -0.129293 68 1 84
-0.068125 0.402158 -0.218200 68 1 84
-0.520068 -0.239673 0.035008 66 61 132
0.276258 -0.214198 -0.168987 68 1 84
-0.599391 -0.114599 0.207105 31 146 140
0.552352 0.234251 0.380568 48 103 141
0.691442 -0.304986 0.445852 85 198 102
-0.502108 0.307637 0.103358 39 126 142
-0.499348 0.226008 0.045057 61 74 137
-0.521891 -0.285087 0.050659 70 45 124
0.073946 0.641766 -0.125412 68 1 84
-0.578371 -0.550933 0.213460 47 106 141
0.434670 -0.269937 -0.082276 68 1 84
0.373295 -0.007988 -0.138059 70 9 92
0.056834 0.642919 -0.135233 68 1 84
-0.544571 -0.482766 0.130713 51 96 141
-0.349531 0.412076 -0.047037 68 1 84
-0.568906 0.207469 0.274856 45 110 142
-0.539546 0.051467 0.079183 38 128 142
-0.143226 0.385197 -0.201569 68 1 84
0.604697 -0.173239 0.116233 30 153 138
0.496951 0.275235 0.073101 69 54 129
0.521081 0.197879 0.079359 58 82 139
0.581799 -0.016284 0.106682 31 148 139
-0.621170 -0.152749 0.506443 119 208 82
0.347887 -0.359073 -0.184067 46 109 142
0.224478 0.131305 -0.198721 61 74 137
0.548773 -0.429126 0.007603 33 167 132
0.442507 -0.130087 -0.093164 72 29 111
-0.569193 -0.007872 0.156600 39 126 142
-0.038281 0.277868 -0.264541 68 1 84
-0.344952 0.286003 -0.103679 68 1 84
-0.592741 -0.075451 0.211349 34 137 141
0.443376 0.320798 0.010972 71 20 102
-0.281974 0.358210 -0.109145 68 1 84
0.678316 -0.239412 0.370600 59 186 117
0.481243 0.381848 0.364868 63 71 136
-0.227520 0.011616 -0.192583 68 1 84
-0.139963 -0.264961 -0.178842 68 1 84
0.254421 0.459226 -0.096781 68 1 84
0.662326 -0.462746 0.286036 91 200 98
-0.117108 0.405325 -0.207705 68 1 84
-0.117130 -0.077030 -0.306181 58 83 139
0.142989 -0.033323 -0.313104 44 113 142
-0.378643 0.002234 -0.123893 70 11 94
0.511632 0.266890 0.105090 62 72 136
-0.521256 0.281864 0.460138 34 139 141
-0.580612 0.120068 0.420609 210 225 27
-0.624562 -0.171161 0.522650 136 213 71
0.040431 0.038342 -0.343122 47 106 141
0.423245 -0.090984 -0.107746 67 59 131
-0.537659 -0.156815 0.041037 67 58 131
0.540428 0.239550 0.179798 67 60 132
-0.097473 0.641647 -0.125002 68 1 84
-0.049013 0.336915 -0.260721 68 1 84
-0.541342 0.272087 0.194483 35 137 141
-0.644957 -0.442894 0.341327 61 187 116
0.300264 0.123435 -0.165046 68 1 84
-0.196315 -0.046371 -0.203214 68 1 84
0.405236 0.420505 0.040394 68 1 84
-0.149744 0.423911 -0.195802 68 1 84
0.566915 0.046565 0.112677 31 147 139
-0.623239 -0.165233 0.476523 144 214 67
0.444053 0.308706 0.004555 72 30 112
-0.422333 0.469289 0.220371 68 1 84
-0.565493 0.190525 0.408807 165 218 53
0.178152 0.399334 -0.168556 68 1 84
0.054272 0.461393 -0.224848 68 1 84
0.337612 -0.279872 -0.161515 68 3 87
-0.099557 -0.527005 -0.273232 32 164 133
0.635421 -0.191663 0.191352 35 137 141
0.101721 -0.394626 -0.238763 71 37 117
0.538398 0.079910 0.055275 63 71 136
-0.559726 -0.071181 0.091300 46 107 142
0.140821 0.084431 -0.228264 71 15 98
0.524584 0.181955 0.080090 65 65 134
0.095343 -0.238448 -0.297835 47 105 141
-0.432683 0.387886 0.036822 72 34 115
-0.546092 -0.145952 0.054867 64 67 135
0.357030 -0.394962 -0.184908 68 55 129
0.445412 0.042591 -0.081301 48 104 141
0.601597 -0.435932 0.120328 40 122 142
-0.445351 0.369116 0.042395 69 6 90
-0.155166 -0.017963 -0.251409 71 44 123
0.207439 0.606680 0.001135 68 1 84
-0.452841 0.320738 0.019237 70 49 126
-0.154386 0.018370 -0.215276 68 1 84
0.078366 -0.379983 -0.259059 63 71 136
0.449770 0.435704 0.192762 68 1 84
0.586658 0.091472 0.287693 41 120 142
-0.491488 -0.485883 0.019964 36 133 141
-0.364188 -0.515834 -0.177279 62 73 137
0.206641 -0.124065 -0.194106 68 1 84
-0.389067 0.014013 -0.116302 71 21 103
-0.352452 0.497177 0.019628 68 1 84
-0.055395 -0.213694 -0.329477 72 28 110
0.092388 -0.225653 -0.309283 46 109 142
0.419936 -0.302920 -0.093313 68 1 84
0.552071 -0.369540 0.022275 34 167 132
0.388853 -0.057475 -0.127459 68 1 84
-0.500694 0.131675 0.017721 59 81 138
-0.211705 -0.530315 -0.244369 34 167 132
-0.303792 0.559688 0.052086 68 1 84
-0.145850 0.356364 -0.207822 68 1 84
-0.260501 -0.227223 -0.162251 68 1 84
-0.039895 -0.266526 -0.317010 68 1 84
-0.587470 0.043815 0.294353 32 143 140
0.665549 -0.158925 0.386187 71 192 110
0.622444 -0.399212 0.175759 41 121 142
-0.429896 0.363751 0.014307 68 1 84
-0.130386 0.020211 -0.278124 48 104 141
0.307609 -0.250823 -0.171448 70 14 97
0.596799 0.016052 0.217971 31 148 139
0.455194 0.249564 -0.011645 71 40 120
0.011303 -0.270997 -0.357047 68 1 84
0.550438 0.222283 0.203565 55 89 140
-0.242107 0.571644 -0.071525 68 1 84
-0.457678 0.279405 0.002845 62 72 136
-0.267237 0.037062 -0.180877 68 1 84
-0.075371 -0.453492 -0.243158 32 145 140
-0.499076 0.247864 0.054141 68 55 129
-0.526841 -0.052257 0.026401 63 69 135
0.645604 -0.132851 0.257583 47 179 123
-0.037710 -0.278108 -0.309005 68 1 84
-0.518817 -0.505556 0.081268 51 97 141
-0.399400 -0.307637 -0.076189 68 57 130
-0.541040 0.008016 0.069985 45 111 142
-0.075925 -0.147846 -0.331574 62 73 137
-0.232862 0.552413 -0.116246 68 1 84
-0.098420 0.374168 -0.220660 68 1 84
0.396897 -0.271883 -0.119424 71 20 102
0.589276 0.085613 0.308014 33 142 140
-0.290414 0.570118 0.053399 68 1 84
0.066496 0.133732 -0.288886 65 65 134
0.504874 0.312092 0.137773 72 35 116
0.287548 0.573891 0.122232 68 1 84
0.329663 0.413974 -0.048809 68 1 84
0.469781 0.380750 0.124849 70 12 95
0.645720 -0.161624 0.241407 37 130 142
0.152148 -0.193793 -0.222498 68 1 84
-0.666363 -0.485671 0.340264 100 203 93
-0.667736 -0.423455 0.415159 47 179 123
-0.418149 -0.035686 -0.096578 68 1 84
-0.355186 0.530018 0.130631 68 1 84
-0.380758 0.509876 0.159953 68 1 84
-0.180415 0.359636 -0.184226 68 1 84
0.461917 0.418289 0.191914 72 25 107
0.015004 0.076074 -0.337606 46 107 142
0.340078 -0.473196 -0.205487 69 52 127
-0.577926 0.030560 0.218571 35 135 141
-0.494709 -0.313196 0.024969 68 2 85
0.665450 -0.125499 0.430974 77 194 107
0.541727 0.242274 0.420117 50 99 141
0.544928 0.231820 0.189563 58 82 139
0.598698 0.035247 0.280794 37 131 141
0.255855 0.363797 -0.114571 68 1 84
-0.376675 0.498424 0.074734 68 1 84
-0.531712 0.018133 0.051192 47 106 141
-0.682417 -0.444128 0.484423 64 189 114
0.659018 -0.371083 0.289098 75 194 108
0.412821 0.336605 -0.017493 71 42 121
-0.088786 -0.104548 -0.334681 69 50 127
0.560159 -0.079473 0.031661 46 108 142
-0.526874 0.142590 0.070069 49 100 141
-0.149738 0.052613 -0.215996 68 1 84
-0.141728 0.373878 -0.204913 68 1 84
-0.115765 -0.008185 -0.358298 34 137 141
0.497235 -0.350841 -0.053209 49 102 141
-0.573082 0.175834 0.263648 31 147 139
0.137451 -0.281232 -0.187146 68 1 84
0.687833 -0.259941 0.521690 39 125 142
-0.566090 -0.303411 0.130497 40 122 142
-0.014390 -0.226063 -0.374872 71 22 105
0.349877 -0.405528 -0.186651 72 35 116
-0.144713 -0.149660 -0.225572 68 1 84
0.492089 0.332639 0.455985 72 26 108
-0.465696 -0.027862 -0.052494 69 6 90
0.075243 0.053243 -0.279306 70 49 126
0.031220 0.557571 -0.231759 68 1 84
-0.536683 0.311105 0.275459 32 164 133
-0.236474 0.435914 -0.139628 68 1 84
0.590723 0.061335 0.255348 31 149 139
-0.161128 -0.134354 -0.215179 71 40 120
-0.430713 -0.199978 -0.072415 64 67 135
-0.500252 0.327797 0.121455 38 128 142
-0.155864 0.189837 -0.252302 57 84 139
0.319543 -0.240399 -0.165854 71 43 122
0.152663 -0.132052 -0.243100 71 20 102
-0.090725 -0.510638 -0.267509 34 167 132
0.164776 0.435041 -0.173504 68 1 84
-0.172041 0.323930 -0.199168 68 1 84
-0.604339 -0.185266 0.197909 30 151 138
0.442141 0.446597 0.199749 71 43 122
0.589557 0.024627 0.187070 39 125 142
-0.578735 0.095003 0.252031 46 109 142
-0.312098 -0.042100 -0.160055 70 14 97
0.528583 0.243332 0.139383 60 77 138
0.059627 -0.060810 -0.467381 181 221 43
-0.058342 0.023303 -0.313013 52 94 141
-0.654741 -0.387789 0.388194 39 173 128
0.043381 0.278936 -0.268997 72 25 107
-0.411006 0.475143 0.118689 68 1 84
-0.598299 0.021654 0.411575 175 220 46
-0.266821 0.008220 -0.181693 68 2 85
-0.409104 0.237197 -0.068797 64 68 135
-0.471654 0.399987 0.329846 63 69 135
0.123976 -0.403449 -0.221337 70 14 97
0.350512 0.088315 -0.144612 61 74 137
0.188108 -0.237111 -0.176245 68 1 84
0.008291 0.208663 -0.316116 30 155 137
-0.434938 -0.077931 -0.084320 70 14 97
-0.149430 0.367649 -0.202404 68 1 84
0.314793 0.208365 -0.140153 63 71 136
-0.167747 -0.094821 -0.217289 68 1 84
0.241941 0.366221 -0.123467 68 1 84
0.066474 0.019450 -0.328873 60 78 138
-0.570392 0.110445 0.201973 39 126 142
-0.490177 -0.174512 -0.021909 71 40 120
-0.657785 -0.268856 0.381880 189 222 38
-0.575771 -0.310746 0.152748 34 138 141
-0.482971 -0.387498 0.005111 68 55 129
-0.536595 0.309247 0.247490 30 157 136
0.249184 -0.245067 -0.175475 68 1 84
0.075036 -0.196181 -0.349132 48 104 141
0.162426 -0.204832 -0.201751 68 1 84
-0.551305 0.258089 0.224244 39 124 142
-0.380703 -0.393075 -0.121380 50 99 141
-0.426276 0.398372 0.035698 68 1 84
-0.590868 -0.019066 0.263990 38 129 142
0.504516 0.361755 0.278741 53 92 140
-0.528089 0.263717 0.463407 30 154 137
-0.563292 -0.507314 0.173869 42 119 142
0.327944 -0.499354 -0.221165 67 60 132
-0.139896 -0.048670 -0.299445 45 110 142
-0.543765 0.274868 0.367244 121 209 81
-0.372506 0.017192 -0.128106 69 8 91
0.573442 -0.089185 0.056257 30 155 137
0.090610 -0.122000 -0.370459 42 176 126
-0.636579 -0.173556 0.318530 89 199 100
-0.020981 0.649799 -0.137003 68 1 84
0.258651 -0.469575 -0.218730 70 47 124
0.145320 0.222204 -0.255083 51 97 141
-0.299084 -0.088975 -0.158768 70 45 124
-0.650746 -0.243177 0.339204 134 212 73
0.268777 -0.481224 -0.223808 68 55 129
-0.258912 -0.373483 -0.183608 70 12 95
0.521845 0.222691 0.097164 67 58 131
0.486112 0.366362 0.159015 71 43 122
-0.451861 0.011886 -0.061317 72 28 110
0.426335 -0.370733 -0.121013 68 1 84
0.370762 0.001245 -0.139145 71 20 102
0.160943 -0.036509 -0.235362 71 15 98
-0.473953 -0.126968 -0.047044 71 20 102
0.055514 -0.001140 -0.444624 116 208 84
0.678332 -0.462703 0.360954 41 175 127
0.442789 0.404654 0.091074 68 1 84
0.190739 0.261983 -0.171000 68 1 84
0.498421 -0.317870 -0.033818 48 104 141
-0.334946 -0.381359 -0.172022 42 117 142
-0.287510 0.123530 -0.169128 72 28 110
-0.594710 0.003976 0.327667 41 175 127
0.111676 0.150891 -0.268961 62 72 136
0.568177 0.181009 0.264339 47 106 141
0.228366 0.385428 -0.131217 68 1 84
-0.627194 -0.339746 0.299516 121 209 81
0.514966 -0.429872 -0.069773 46 108 142
0.646929 -0.104290 0.304982 59 186 117
-0.488407 0.387830 0.190203 52 94 141
0.144623 -0.143376 -0.252688 70 45 124
0.040741 0.057660 -0.323295 53 93 140
0.625801 -0.447042 0.178523 47 106 141
-0.359164 -0.277145 -0.118468 65 65 134
0.335395 -0.324587 -0.164920 71 22 105
0.098764 -0.232866 -0.294187 45 111 142
0.132533 -0.023131 -0.347678 52 95 141
0.623112 -0.075519 0.192612 33 142 140
0.026448 0.197804 -0.313682 30 154 137
-0.550053 -0.421933 0.133509 41 121 142
0.470273 0.279999 0.025701 72 25 107
-0.186681 0.498918 -0.184363 68 1 84
0.067521 0.263095 -0.260875 69 53 128
-0.587208 -0.010190 0.246460 46 107 142
-0.039550 0.300528 -0.271371 68 1 84
0.410290 0.469581 0.120901 68 1 84
-0.073373 -0.175890 -0.320110 71 44 123
0.418154 -0.382437 -0.132438 71 18 101
-0.371811 -0.337723 -0.103110 66 62 133
0.631354 -0.045388 0.509900 32 145 140
0.686365 -0.317046 0.430315 71 192 110
-0.257154 0.152130 -0.183276 68 1 84
0.155341 0.274456 -0.200280 68 1 84
-0.189594 -0.414522 -0.199705 71 42 121
0.638715 -0.405058 0.217342 34 138 141
0.643456 -0.209787 0.213655 34 139 141
0.074385 -0.298076 -0.297698 47 105 141
-0.607711 -0.537193 0.277167 30 153 138
-0.605864 -0.111772 0.243101 30 152 138
0.250842 -0.518243 -0.249471 40 123 142
0.539257 0.219148 0.154855 63 69 135
-0.408725 0.483111 0.181442 68 1 84
-0.529023 0.162127 0.081619 35 137 141
-0.058952 -0.348684 -0.215748 67 58 131
0.508316 0.318949 0.419990 53 92 140
-0.424054 0.113804 -0.078944 60 78 138
-0.289359 0.239120 -0.144456 68 1 84
0.463980 -0.208787 -0.063549 70 14 97
-0.147487 0.430156 -0.196858 68 1 84
0.412261 -0.243050 -0.105674 68 1 84
-0.189135 -0.112890 -0.200154 68 1 84
0.098229 -0.442595 -0.259459 64 67 135
0.251310 -0.066778 -0.181248 68 1 84
0.505579 0.305025 0.453831 71 38 118
-0.114665 -0.037555 -0.358250 30 155 137
0.571247 -0.400284 0.057452 38 128 142
0.549897 -0.441368 0.010201 31 163 134
-0.192692 -0.080151 -0.203380 68 1 84
-0.559948 -0.527825 0.168104 45 110 142
-0.566368 0.194619 0.233733 52 95 141
0.622851 -0.410524 0.176384 45 111 142
0.109314 0.041141 -0.277903 56 87 140
0.702168 -0.413433 0.478807 30 159 136
0.417344 -0.223951 -0.102199 68 3 87
0.543429 0.275184 0.262771 54 90 140
-0.466600 0.416857 0.258809 58 82 139
-0.433379 -0.461176 -0.105937 51 182 121
0.212177 0.501866 -0.129689 68 1 84
-0.318852 -0.018428 -0.159181 69 8 91
0.607685 0.011893 0.333702 38 128 142
0.376721 -0.411061 -0.171173 68 57 130
-0.086461 -0.355617 -0.188863 71 44 123
0.522554 -0.032259 -0.016972 41 120 142
-0.440065 0.450470 0.175088 71 17 99
0.496989 0.369230 0.330875 65 66 134
0.479482 0.358283 0.449239 71 40 120
0.534619 -0.355459 -0.005076 35 135 141
-0.209591 -0.373625 -0.189012 68 1 84
-0.278324 0.042516 -0.177218 68 1 84
-0.510072 -0.266540 0.030027 71 43 122
-0.623896 -0.106305 0.398308 134 212 73
-0.163424 -0.037758 -0.218575 68 3 87
-0.640566 -0.235149 0.474824 136 213 71
0.221525 0.266563 -0.152178 68 1 84
-0.503628 -0.076138 -0.012228 71 20 102
-0.541936 0.288121 0.224055 30 158 136
0.442656 -0.495124 -0.160365 36 134 141
0.409628 0.127469 -0.093350 69 50 127
0.453553 -0.369690 -0.102187 68 1 84
0.547959 0.246451 0.380075 51 97 141
0.061888 0.324549 -0.263701 68 1 84
0.334896 0.384846 -0.061324 68 1 84
0.671228 -0.205210 0.363018 73 193 109
0.426206 -0.103183 -0.105047 64 67 135
-0.334197 0.110729 -0.145449 68 1 84
-0.259289 -0.519193 -0.224018 46 107 142
-0.473423 -0.388416 -0.010453 71 43 122
-0.166526 0.053291 -0.209869 68 1 84
0.160989 0.278334 -0.195992 68 1 84
-0.542926 -0.535279 0.130901 46 108 142
-0.199700 0.602992 -0.083307 68 1 84
