ply
format ascii 1.0
element vertex 1279
property float x
property float y
property float z
property uchar red
property uchar green
property uchar blue
end_header
-0.027262 -0.104968 -0.402350 30 153 138
0.337306 -0.391340 -0.273901 68 1 84
-0.524270 -0.080816 -0.019745 69 50 127
0.625614 -0.061851 0.449798 68 1 84
0.439384 -0.271246 -0.077935 68 1 84
-0.560899 -0.193382 0.025919 68 1 84
-0.613534 0.041721 0.411347 68 1 84
-0.341703 0.255036 -0.136670 54 90 140
0.468358 0.345077 0.107072 68 1 84
0.304209 -0.205331 -0.166654 68 1 84
0.537726 -0.152292 -0.008598 68 1 84
0.524211 -0.466797 -0.079210 68 1 84
-0.404119 -0.179731 -0.143825 68 1 84
0.220213 -0.162665 -0.203298 68 1 84
-0.584891 -0.271293 0.066871 68 1 84
-0.587063 0.144207 0.441882 68 1 84
0.611365 0.042403 0.347977 68 1 84
0.387115 0.155368 -0.131274 68 1 84
-0.099440 -0.038783 -0.321674 31 147 139
0.492210 -0.451504 -0.153241 68 1 84
0.605004 -0.441267 0.137354 68 1 84
0.253577 0.423883 -0.112389 68 1 84
0.629636 -0.059395 0.324213 68 1 84
-0.648602 -0.206011 0.239296 68 1 84
-0.057390 -0.046056 -0.403143 75 194 108
-0.393741 0.013950 -0.148242 71 44 123
0.225976 0.088722 -0.213596 68 1 84
0.092918 -0.153979 -0.364263 62 188 115
-0.661856 -0.161591 0.425774 68 1 84
-0.434822 0.369171 0.082564 63 71 136
-0.383188 0.458687 0.128669 68 1 84
0.531579 -0.342982 -0.007376 68 1 84
0.337556 -0.352544 -0.220677 68 1 84
-0.512277 0.129787 0.038193 65 66 134
-0.034886 -0.118626 -0.386377 30 155 137
0.609895 -0.138498 0.156015 68 1 84
-0.087593 0.142918 -0.275628 44 113 142
0.498193 -0.497650 -0.134194 68 1 84
-0.569690 -0.009081 0.093385 69 50 127
-0.192280 0.479544 -0.131766 68 1 84
0.285076 -0.001045 -0.189349 68 1 84
-0.213418 0.077457 -0.224367 71 37 117
-0.048108 -0.079326 -0.392564 30 158 136
-0.572042 0.110750 0.172877 71 43 122
-0.157158 0.587139 -0.084130 68 1 84
-0.556110 0.113373 0.125700 64 68 135
-0.034634 0.606807 -0.155412 68 1 84
-0.056052 0.200173 -0.295021 36 134 141
-0.656228 -0.489977 0.214570 68 1 84
0.519626 0.131289 0.040427 68 1 84
0.148603 0.077571 -0.265819 51 96 141
-0.114267 0.564425 -0.161417 68 1 84
-0.191729 -0.314993 -0.202686 69 52 127
0.145112 0.159608 -0.266074 71 40 120
0.286292 0.197041 -0.195740 71 20 102
0.162607 -0.341382 -0.248179 68 1 84
-0.420939 0.384229 0.070937 68 55 129
-0.011456 0.095763 -0.329244 59 186 117
0.002451 0.530075 -0.225005 68 1 84
-0.143545 -0.064752 -0.249942 41 120 142
0.177816 0.287653 -0.209402 62 72 136
-0.603239 0.066688 0.279773 69 5 88
-0.306014 -0.148102 -0.191374 68 1 84
-0.540961 -0.071557 0.012050 69 53 128
0.519959 -0.147054 -0.036523 68 1 84
-0.576634 0.174025 0.292513 71 18 101
0.591700 -0.158187 0.101614 68 1 84
-0.662086 -0.267076 0.278350 68 1 84
0.339317 -0.392575 -0.274873 68 1 84
-0.663757 -0.279424 0.473105 68 1 84
0.358869 -0.418138 -0.286048 70 14 97
0.229974 0.476336 -0.115914 68 1 84
0.611663 -0.119563 0.168247 68 1 84
0.588682 -0.036509 0.131093 68 1 84
0.115081 -0.121500 -0.341948 31 148 139
0.576679 -0.120499 0.071942 68 1 84
0.086127 -0.278865 -0.335198 41 120 142
-0.430633 0.397063 0.117899 69 52 127
0.267888 -0.053607 -0.191682 68 1 84
0.535733 0.291321 0.358967 68 1 84
0.204497 -0.362690 -0.284445 68 1 84
-0.499183 -0.419726 -0.089356 70 45 124
-0.572788 -0.079124 0.074563 72 25 107
0.236127 0.339531 -0.154471 72 28 110
-0.285193 -0.194600 -0.188468 68 1 84
-0.046356 0.162730 -0.297443 47 105 141
-0.468660 0.390034 0.340324 68 1 84
-0.147698 0.281807 -0.203243 51 97 141
-0.104419 -0.026771 -0.328186 32 164 133
-0.216745 0.286005 -0.180114 69 54 129
-0.425738 0.407489 0.126241 68 55 129
-0.171492 -0.328440 -0.216599 62 73 137
-0.326126 -0.151983 -0.184707 68 1 84
0.369484 0.018493 -0.148336 68 1 84
-0.248929 -0.281415 -0.205898 68 1 84
0.614066 -0.090697 0.189590 68 1 84
0.436621 -0.476859 -0.230294 72 29 111
-0.443274 0.414155 0.334356 68 1 84
-0.081814 -0.254159 -0.243553 59 81 138
0.329402 0.347935 -0.096921 68 1 84
0.312452 0.464593 -0.024188 68 1 84
0.114068 0.139574 -0.283691 59 81 138
0.531485 -0.486815 -0.054331 68 1 84
0.652068 -0.304733 0.294802 68 1 84
0.140581 0.540828 -0.181344 68 1 84
-0.524798 -0.504636 -0.032789 49 102 141
0.498913 -0.274101 -0.030757 68 1 84
-0.607649 -0.480322 0.126395 68 1 84
0.549151 0.262841 0.377479 68 1 84
0.308982 -0.441642 -0.319494 68 1 84
-0.538282 0.185858 0.140419 71 37 117
0.175337 0.334500 -0.198014 71 44 123
-0.581113 0.135466 0.241023 71 42 121
0.101173 0.044646 -0.433428 167 219 51
-0.028578 0.061335 -0.371573 114 207 85
0.568040 0.168119 0.504242 68 1 84
-0.001331 0.562705 -0.208646 68 1 84
0.439466 0.367657 0.067300 68 1 84
0.350470 -0.321065 -0.186368 68 1 84
0.354332 0.133909 -0.159863 68 1 84
0.366546 -0.303351 -0.157779 68 1 84
0.440100 -0.378419 -0.173623 68 1 84
0.380038 0.010892 -0.140833 68 1 84
-0.310922 0.225403 -0.171321 71 43 122
0.632373 -0.110207 0.262949 68 1 84
-0.613054 -0.517054 0.132202 69 6 90
0.040888 -0.243238 -0.372887 53 92 140
-0.031144 0.426286 -0.220080 68 1 84
0.664215 -0.335080 0.396992 68 1 84
0.037855 -0.053754 -0.449714 220 226 24
-0.591106 -0.354799 0.085016 68 1 84
0.479438 -0.281071 -0.046847 68 1 84
0.213189 0.346547 -0.168690 71 37 117
0.534952 -0.482952 -0.046451 68 1 84
-0.661663 -0.276484 0.456006 68 1 84
0.630657 -0.431918 0.211175 68 1 84
0.116974 -0.224686 -0.287531 57 84 139
-0.648637 -0.219750 0.353470 68 1 84
-0.573613 -0.020239 0.099442 71 40 120
-0.490463 -0.069891 -0.069778 72 34 115
0.171226 -0.171356 -0.245019 71 37 117
-0.663164 -0.274034 0.266864 68 1 84
0.637262 -0.144312 0.425522 68 1 84
0.024784 0.097516 -0.355088 59 186 117
-0.367928 -0.335312 -0.182746 66 62 133
0.362698 0.324927 -0.088263 68 1 84
0.555495 -0.408735 0.012689 68 1 84
-0.627746 -0.030767 0.364212 68 1 84
-0.516257 0.246777 0.141215 69 52 127
-0.612407 -0.076612 0.178319 71 18 101
-0.588004 -0.073629 0.112700 72 35 116
-0.635564 -0.294056 0.169728 68 1 84
0.308832 0.150108 -0.188885 69 5 88
-0.398414 0.419397 0.073646 68 1 84
-0.204641 0.256959 -0.192403 50 98 141
0.517958 0.072929 0.012822 68 1 84
0.254005 -0.116866 -0.192837 68 1 84
0.379245 0.315897 -0.077280 68 1 84
0.184793 0.519449 -0.148774 68 1 84
-0.596425 -0.140602 0.114285 68 1 84
-0.612555 0.037400 0.303230 70 14 97
0.674230 -0.365587 0.477876 68 1 84
0.063030 0.597836 -0.173102 68 1 84
0.521969 0.264582 0.160748 68 1 84
-0.712701 -0.469000 0.339926 68 1 84
0.103570 -0.118719 -0.363079 35 169 130
0.614030 0.023221 0.320136 68 1 84
-0.231029 0.249701 -0.201037 57 84 139
0.613025 -0.213817 0.145828 68 1 84
0.259992 0.037556 -0.198390 68 1 84
-0.544674 -0.458867 0.007126 72 25 107
-0.614037 -0.125099 0.161294 68 1 84
0.428071 -0.407276 -0.229351 68 1 84
-0.186383 -0.221377 -0.205326 71 17 99
-0.371173 -0.278616 -0.138690 70 45 124
-0.486547 0.303203 0.127878 70 47 124
-0.281973 -0.324091 -0.211419 71 24 106
0.306775 0.477576 -0.020641 68 1 84
0.287601 -0.180622 -0.171711 68 1 84
-0.647914 -0.235961 0.398582 68 1 84
0.396533 0.467152 0.198588 68 1 84
0.558502 0.239565 0.383968 68 1 84
-0.289230 -0.281922 -0.199147 69 52 127
0.083152 -0.274485 -0.338530 39 125 142
-0.415975 0.090800 -0.113665 69 50 127
0.245201 0.567418 0.048347 68 1 84
0.173242 0.097452 -0.234037 71 43 122
0.467832 -0.000142 -0.072609 68 1 84
-0.548169 0.133208 0.121063 72 35 116
0.396644 0.210739 -0.107644 68 1 84
-0.317153 0.427101 -0.045958 68 1 84
-0.455531 -0.304197 -0.085506 70 9 92
-0.470557 -0.049470 -0.088997 70 47 124
0.359834 -0.259492 -0.157058 68 1 84
-0.626334 0.016893 0.440139 68 1 84
0.512511 0.328320 0.420190 68 1 84
0.062180 0.311377 -0.259156 62 72 136
-0.474162 0.307582 0.099322 70 47 124
-0.581887 0.128758 0.235341 71 43 122
-0.530989 0.169364 0.104555 70 48 125
0.601088 -0.463654 0.131182 68 1 84
0.258877 -0.253440 -0.184299 68 1 84
-0.119264 -0.044822 -0.262366 43 116 142
0.177706 0.567544 -0.120842 68 1 84
-0.429080 -0.108388 -0.139554 70 14 97
0.336617 -0.319938 -0.189110 68 1 84
0.500663 0.352405 0.355205 68 1 84
0.224443 0.426704 -0.135430 68 1 84
0.559317 0.097900 0.112342 68 1 84
0.152809 -0.294433 -0.215484 68 1 84
-0.415788 0.073562 -0.118014 69 54 129
-0.122363 0.009683 -0.331592 30 158 136
-0.342881 0.373981 -0.066799 69 50 127
0.152612 0.157045 -0.261552 71 42 121
0.553218 0.000790 0.046699 68 1 84
0.632996 -0.081559 0.332183 68 1 84
0.163654 -0.341857 -0.246753 68 1 84
-0.664615 -0.478852 0.240619 68 1 84
0.521476 -0.296006 -0.010439 68 1 84
-0.503371 -0.032566 -0.038963 70 48 125
-0.276562 -0.190692 -0.191510 68 1 84
0.423155 -0.121360 -0.120841 68 1 84
0.512579 -0.510546 -0.101206 68 1 84
0.676998 -0.418542 0.477105 68 1 84
-0.572182 0.201233 0.425582 68 1 84
0.075980 0.267829 -0.256917 51 96 141
-0.525154 0.085666 0.040374 62 72 136
0.234406 0.187737 -0.216749 71 44 123
0.467748 -0.158112 -0.088773 68 1 84
-0.264134 0.461904 -0.074014 68 1 84
-0.605576 0.072562 0.384281 69 8 91
-0.614631 -0.343325 0.129915 68 1 84
0.623431 -0.063207 0.525501 68 1 84
-0.370565 -0.280300 -0.138781 70 49 126
0.497968 0.316065 0.158304 68 1 84
0.574886 -0.099976 0.070832 68 1 84
0.046094 -0.048723 -0.448791 173 220 48
-0.714825 -0.418736 0.387061 68 1 84
0.392032 0.021810 -0.132992 68 1 84
-0.378399 -0.377027 -0.231412 69 52 127
0.047722 -0.375597 -0.375946 47 105 141
0.153414 0.062071 -0.302349 34 137 141
0.574007 -0.113463 0.066503 68 1 84
0.402966 0.443182 0.111195 68 1 84
-0.649997 -0.390790 0.191674 68 1 84
0.442725 0.305766 0.010959 68 1 84
-0.316361 0.310507 -0.136183 57 85 139
-0.599938 -0.093527 0.136064 72 25 107
-0.470512 0.001518 -0.072728 64 68 135
-0.013668 0.246904 -0.273788 61 74 137
-0.587120 0.155940 0.354371 68 1 84
-0.651740 -0.393932 0.194946 68 1 84
-0.587644 -0.340116 0.077198 68 2 85
0.627157 -0.064176 0.497738 68 1 84
0.516483 0.293485 0.190532 68 1 84
-0.513828 0.333332 0.372192 68 1 84
-0.470539 0.374689 0.211628 71 40 120
-0.615572 0.032214 0.329740 68 1 84
0.147955 0.597661 -0.106597 68 1 84
-0.319892 -0.370779 -0.270516 64 67 135
-0.546370 0.271614 0.374189 68 1 84
0.005330 0.583377 -0.193099 68 1 84
-0.602089 -0.087813 0.143183 68 1 84
-0.109306 0.007456 -0.355175 42 176 126
0.424203 0.365059 0.034286 68 1 84
0.656541 -0.436360 0.342111 68 1 84
0.119658 0.589256 -0.153213 68 1 84
0.524916 0.277662 0.195887 68 1 84
0.073425 0.140661 -0.302019 44 114 142
-0.459954 -0.453352 -0.156842 68 55 129
0.562005 -0.519573 0.019260 68 1 84
0.537701 -0.084021 -0.005394 68 1 84
-0.471406 -0.325098 -0.081329 68 3 87
0.594172 0.056720 0.216879 68 1 84
-0.154806 0.506739 -0.157061 68 1 84
0.365927 0.124536 -0.152056 68 1 84
0.225105 0.572403 -0.017299 68 1 84
0.245260 -0.171548 -0.186892 68 1 84
0.274832 -0.368175 -0.236494 68 1 84
0.497602 -0.104371 -0.063422 68 1 84
0.468995 -0.469246 -0.191437 69 5 88
0.245424 -0.226545 -0.182018 68 1 84
-0.611185 -0.070943 0.177877 70 12 95
0.574634 0.030135 0.119442 68 1 84
-0.559011 0.214131 0.492097 68 1 84
-0.656476 -0.275148 0.425288 68 1 84
-0.430332 0.384715 0.094319 69 53 128
0.073524 -0.277142 -0.349450 54 91 140
-0.650260 -0.199211 0.286902 68 1 84
-0.523867 0.237320 0.153551 71 40 120
-0.399697 -0.468270 -0.245105 65 65 134
-0.186103 0.076023 -0.227837 71 18 101
-0.622451 -0.037902 0.259986 72 28 110
0.160214 0.356368 -0.199249 71 39 119
-0.349782 0.342288 -0.083566 72 33 114
0.591598 0.073147 0.490349 68 1 84
0.151880 -0.331350 -0.246007 68 1 84
-0.613685 0.005676 0.255210 72 29 111
-0.572610 0.107654 0.172033 71 37 117
0.035823 0.247207 -0.278505 62 73 137
-0.437707 0.038267 -0.101419 69 52 127
-0.426268 0.319126 0.011731 67 58 131
0.263530 -0.378643 -0.289901 68 1 84
0.356012 0.498657 0.166178 68 1 84
0.219422 0.431684 -0.137872 68 1 84
-0.442425 -0.457535 -0.184946 66 64 133
0.134228 -0.039219 -0.364934 43 177 125
0.315939 -0.447316 -0.317438 68 1 84
-0.365786 0.338910 -0.065366 63 71 136
0.618882 -0.197180 0.164995 68 1 84
-0.599846 0.027418 0.205381 72 25 107
-0.366604 -0.074461 -0.173044 70 12 95
0.534834 -0.411511 -0.039975 68 1 84
-0.555323 0.222372 0.250186 71 24 106
-0.118497 0.113397 -0.254191 63 69 135
0.139057 -0.274960 -0.230877 68 1 84
0.041032 0.521177 -0.228607 68 1 84
0.634642 -0.098156 0.350976 68 1 84
0.354047 -0.393981 -0.268660 68 1 84
0.613336 -0.028032 0.540257 68 1 84
-0.553612 0.110907 0.117142 69 52 127
-0.052265 0.392423 -0.214977 71 18 101
-0.310796 0.385114 -0.089668 68 3 87
-0.529365 -0.039269 0.000642 66 61 132
0.519760 0.292082 0.205249 68 1 84
-0.202834 0.371050 -0.165583 70 9 92
-0.541278 -0.483899 0.002304 70 45 124
-0.336977 0.267499 -0.136684 61 75 137
-0.085356 0.078346 -0.280186 35 136 141
0.641277 -0.217866 0.235338 68 1 84
-0.391280 0.406902 0.039541 72 32 113
-0.109170 -0.039597 -0.284077 32 143 140
-0.550566 0.250656 0.290017 72 29 111
-0.476682 0.379867 0.373559 68 1 84
0.578773 0.150175 0.244922 68 1 84
-0.448175 0.410344 0.284278 68 1 84
0.012883 -0.016119 -0.462656 241 229 28
-0.072665 -0.028990 -0.393255 43 177 125
0.354028 -0.416831 -0.288560 69 6 90
0.054697 0.405876 -0.219142 68 1 84
0.598735 -0.544395 0.115196 68 1 84
0.476391 -0.052891 -0.074309 68 1 84
0.596011 0.026600 0.530352 68 1 84
-0.349410 0.252843 -0.130349 49 101 141
-0.086082 0.389776 -0.210343 71 15 98
0.522358 -0.466141 -0.084673 68 1 84
-0.632010 -0.051309 0.377095 68 1 84
0.619695 -0.027776 0.267359 68 1 84
-0.263852 0.547357 0.099033 68 1 84
0.399447 0.359248 -0.011869 68 1 84
0.239433 -0.372388 -0.277893 68 1 84
0.469828 -0.453989 -0.193859 68 1 84
0.483312 0.351035 0.173009 68 1 84
0.469894 0.266113 0.027868 68 1 84
0.298737 0.517888 0.027490 68 1 84
-0.114046 -0.333417 -0.235191 54 91 140
-0.322435 -0.170475 -0.181353 68 1 84
0.106416 -0.176551 -0.334450 33 141 140
-0.416843 -0.002693 -0.130919 67 59 131
-0.007932 0.502764 -0.230954 70 12 95
0.636714 -0.262101 0.433231 68 1 84
0.596180 -0.118720 0.123640 68 1 84
-0.554446 0.252451 0.346986 69 5 88
-0.711663 -0.408442 0.455490 68 1 84
-0.401101 0.446905 0.162217 68 1 84
-0.611939 0.046206 0.322051 68 1 84
0.640299 -0.229481 0.477604 68 1 84
-0.060284 0.396869 -0.213545 68 1 84
-0.345156 0.048404 -0.179645 71 38 118
0.628322 -0.051577 0.327657 68 1 84
-0.615922 -0.248656 0.126874 68 1 84
-0.571251 0.210307 0.373434 68 1 84
0.637950 -0.163178 0.252203 68 1 84
0.060441 0.162071 -0.297086 49 100 141
0.207094 0.587291 0.011246 68 1 84
0.065858 -0.221831 -0.370853 33 140 141
-0.320844 0.514872 0.170007 68 1 84
0.058669 -0.036806 -0.448629 139 213 70
0.400445 0.402578 0.036422 68 1 84
0.544798 0.238435 0.217007 68 1 84
0.415585 0.260970 -0.064293 68 1 84
0.408191 -0.335757 -0.145230 68 1 84
0.101698 -0.366766 -0.365558 61 74 137
-0.650248 -0.253868 0.410757 68 1 84
0.146886 0.000865 -0.372948 35 169 130
-0.680794 -0.492962 0.267494 68 1 84
0.351580 0.171801 -0.158995 68 1 84
0.076426 -0.296700 -0.345402 57 85 139
0.633279 -0.482171 0.254711 68 1 84
0.204695 0.586896 -0.008277 68 1 84
-0.537659 -0.511918 -0.008094 60 78 138
0.310788 0.510890 0.041531 68 1 84
0.364562 0.218760 -0.136253 68 1 84
-0.092082 0.478692 -0.203311 68 1 84
-0.511911 0.334482 0.343156 72 25 107
-0.597146 0.015432 0.181309 70 11 94
0.586146 0.146836 0.415363 68 1 84
-0.730363 -0.524322 0.437784 68 1 84
0.673341 -0.442413 0.470738 68 1 84
-0.044913 0.614053 -0.134202 68 1 84
0.303178 0.534417 0.139716 68 1 84
-0.106022 0.263093 -0.231047 47 106 141
0.554565 -0.500670 0.001901 68 1 84
-0.730167 -0.513650 0.424681 68 1 84
0.581284 -0.026484 0.111556 68 1 84
0.664556 -0.382232 0.413650 68 1 84
0.441796 0.023236 -0.093723 68 1 84
0.562725 0.124166 0.558312 68 1 84
-0.432900 -0.228081 -0.106462 69 5 88
-0.138661 -0.407429 -0.370870 30 158 136
-0.398629 0.056340 -0.138927 71 40 120
-0.478876 0.186458 0.010446 58 83 139
0.632282 -0.348262 0.185964 68 1 84
0.633700 -0.102497 0.460795 68 1 84
0.109934 -0.082659 -0.376795 83 197 103
0.147238 0.382582 -0.196298 68 1 84
0.599636 0.094871 0.380851 68 1 84
0.346983 -0.326555 -0.193996 68 1 84
-0.490608 0.071585 -0.021905 62 72 136
-0.580214 -0.461738 0.075038 68 1 84
0.110716 0.183088 -0.285891 42 117 142
0.208684 -0.364753 -0.297163 68 1 84
-0.051177 0.281543 -0.262944 53 92 140
0.490940 0.144743 -0.003682 68 1 84
0.552000 0.253185 0.401014 68 1 84
-0.443054 -0.434477 -0.191266 72 34 115
-0.151228 0.497491 -0.162526 68 1 84
0.196187 0.435512 -0.155309 68 1 84
0.453001 0.250842 -0.011935 68 1 84
-0.276577 0.209430 -0.199399 56 87 140
0.522794 0.294104 0.487237 68 1 84
-0.151739 0.319153 -0.203899 65 65 134
0.119748 -0.316431 -0.301051 60 78 138
0.001478 -0.148604 -0.402434 30 158 136
0.125900 0.610055 -0.096947 68 1 84
-0.108444 0.605324 -0.106013 68 1 84
-0.179329 0.441002 -0.154859 68 1 84
0.324206 0.492810 0.032529 68 1 84
-0.019490 0.063273 -0.341205 41 175 127
-0.730692 -0.507452 0.423944 68 1 84
-0.062124 -0.162335 -0.320599 37 131 141
0.595232 0.067866 0.478615 68 1 84
0.467895 0.397316 0.341682 68 1 84
0.579242 0.099997 0.518395 68 1 84
-0.457131 -0.486914 -0.158719 54 91 140
-0.446685 0.113247 -0.067599 68 57 130
-0.441033 0.019522 -0.101789 69 54 129
0.609748 0.037474 0.417826 68 1 84
0.653339 -0.416082 0.316841 68 1 84
0.348214 0.256725 -0.137957 68 1 84
0.390174 -0.119214 -0.138165 68 1 84
-0.663754 -0.297082 0.378615 68 1 84
0.643670 -0.178424 0.288118 68 1 84
-0.719172 -0.428926 0.412473 68 1 84
-0.406922 0.330676 -0.010352 71 20 102
-0.585970 -0.095311 0.102175 70 48 125
-0.462341 0.384567 0.207549 64 67 135
-0.592065 -0.361456 0.087597 68 1 84
-0.440495 0.208297 -0.038805 63 69 135
-0.417238 -0.035429 -0.136169 71 44 123
0.357933 0.271467 -0.123020 68 1 84
-0.075445 -0.055123 -0.357600 34 139 141
-0.240302 0.154055 -0.221013 60 77 138
0.588962 0.047691 0.530342 68 1 84
0.406123 -0.241011 -0.109036 68 1 84
0.640028 -0.223539 0.470754 68 1 84
-0.568561 0.203060 0.298761 71 17 99
0.328034 0.266427 -0.145606 68 1 84
-0.485903 -0.294347 -0.058316 68 1 84
-0.442971 -0.472656 -0.182004 61 75 137
0.378161 0.402969 0.002656 68 1 84
0.409037 0.384196 0.029073 68 1 84
0.244719 0.547294 -0.037630 68 1 84
0.570143 0.126897 0.176918 68 1 84
0.357106 0.248990 -0.133614 68 1 84
-0.553783 0.219936 0.237296 72 25 107
0.004789 0.273130 -0.266511 50 98 141
-0.650989 -0.089268 0.448897 68 1 84
-0.407405 0.001440 -0.138612 70 49 126
0.536699 0.281871 0.276521 68 1 84
-0.383026 -0.353017 -0.195179 69 54 129
0.536248 -0.414637 -0.038307 68 1 84
0.176359 -0.172774 -0.238774 71 39 119
0.119372 -0.064527 -0.375110 75 194 108
-0.335405 -0.006860 -0.186338 69 5 88
-0.703418 -0.381980 0.429484 68 1 84
0.104645 0.613273 -0.115089 68 1 84
0.398053 0.436752 0.083274 68 1 84
0.620418 -0.395891 0.163096 68 1 84
0.298758 -0.209567 -0.168536 68 1 84
0.592817 0.052869 0.206734 68 1 84
0.007121 -0.193731 -0.388786 45 111 142
0.596205 0.098777 0.422165 68 1 84
-0.041005 -0.423991 -0.387476 33 141 140
0.666052 -0.296453 0.369269 68 1 84
0.157928 -0.395232 -0.366657 42 118 142
0.379755 0.121007 -0.142088 68 1 84
-0.601780 -0.040159 0.163169 68 1 84
-0.634747 -0.170085 0.206139 68 1 84
0.658356 -0.394343 0.346940 68 1 84
-0.695747 -0.380190 0.316434 68 1 84
-0.534387 0.204695 0.148287 71 17 99
-0.570303 -0.501516 0.055147 71 37 117
-0.453229 -0.054958 -0.108944 67 58 131
-0.136073 -0.167963 -0.244216 72 32 113
0.393662 0.332300 -0.044967 68 1 84
-0.267359 -0.342536 -0.259209 71 40 120
-0.582686 0.148985 0.281754 72 28 110
-0.432937 0.096180 -0.091955 72 33 114
-0.632645 -0.049715 0.328430 69 8 91
-0.526836 -0.465874 -0.025403 71 42 121
0.297873 0.425337 -0.072551 68 1 84
-0.015312 0.571256 -0.200596 68 1 84
-0.250483 -0.326063 -0.209823 69 6 90
-0.631820 -0.043810 0.334253 68 1 84
-0.331783 0.464469 0.018351 69 50 127
-0.259238 0.542979 0.040386 68 1 84
-0.463368 0.075963 -0.057464 67 58 131
0.190548 -0.360709 -0.307636 70 9 92
-0.652849 -0.219751 0.444618 68 1 84
0.570591 -0.257287 0.049732 68 1 84
-0.657689 -0.125007 0.460859 68 1 84
-0.646279 -0.187822 0.349096 68 1 84
-0.424648 0.005252 -0.122187 67 58 131
0.531926 -0.420792 -0.052502 68 1 84
0.143762 -0.286254 -0.224606 70 9 92
-0.144791 0.255227 -0.206487 44 113 142
-0.650905 -0.092413 0.447288 68 1 84
0.002667 0.085758 -0.419522 119 208 82
-0.213306 0.574200 0.029133 68 1 84
0.629510 -0.321059 0.178740 68 1 84
-0.576490 -0.444821 0.065357 68 1 84
-0.213050 -0.344799 -0.252267 71 39 119
0.490562 -0.328886 -0.056308 68 1 84
-0.363442 0.246552 -0.119579 61 74 137
-0.603872 0.056285 0.484389 68 1 84
0.363975 -0.035347 -0.147683 68 1 84
-0.546081 0.274312 0.441524 68 1 84
-0.045504 0.608815 -0.145556 68 1 84
-0.003377 0.399599 -0.219983 65 66 134
0.639412 -0.258554 0.486615 68 1 84
-0.468698 0.264745 0.045519 63 69 135
-0.267806 0.402363 -0.111834 71 38 118
-0.656446 -0.286451 0.221284 68 1 84
-0.500993 0.110954 0.009465 72 34 115
0.091706 0.244775 -0.262576 53 93 140
-0.345482 -0.206287 -0.162173 68 3 87
0.521317 -0.440435 -0.088272 68 1 84
0.585872 -0.077861 0.104982 68 1 84
0.176344 0.568383 -0.121685 68 1 84
-0.624208 -0.012337 0.358626 68 1 84
0.071735 -0.156684 -0.388438 69 191 111
0.544060 -0.039962 0.016306 68 1 84
-0.388807 0.017160 -0.151710 71 40 120
0.260467 -0.155827 -0.184089 68 1 84
0.228221 -0.370375 -0.295705 68 1 84
-0.557545 0.225161 0.270329 72 29 111
0.638235 -0.259141 0.479113 68 1 84
-0.722821 -0.491268 0.376575 68 1 84
0.627197 -0.520402 0.223139 68 1 84
0.063446 0.620038 -0.123057 68 1 84
-0.437805 0.286314 0.005802 64 68 135
0.119922 0.449103 -0.205134 68 1 84
-0.082600 -0.044598 -0.353286 30 151 138
0.536405 -0.487122 -0.042282 68 1 84
0.584208 0.116439 0.226197 68 1 84
-0.407424 -0.165955 -0.146633 68 1 84
-0.574745 -0.064970 0.084900 71 24 106
-0.532738 -0.400447 -0.014820 71 17 99
-0.622066 -0.010880 0.290588 70 12 95
-0.241814 0.014366 -0.221670 64 68 135
-0.089761 0.472269 -0.204240 68 1 84
-0.550946 -0.467654 0.018255 72 34 115
-0.205806 0.064711 -0.225813 71 44 123
0.172164 0.014362 -0.335674 30 155 137
0.303737 0.523648 0.061308 68 1 84
0.523599 0.315434 0.316202 68 1 84
-0.656054 -0.217071 0.471196 68 1 84
0.487860 0.065680 -0.033835 68 1 84
0.445949 0.190944 -0.058207 68 1 84
-0.109637 0.527625 -0.185508 68 1 84
-0.475245 0.371906 0.226599 71 44 123
0.240271 0.029183 -0.202814 68 1 84
-0.183260 0.085781 -0.229822 71 22 105
0.190812 0.180013 -0.240389 71 44 123
0.365413 0.046088 -0.152216 68 1 84
-0.481903 0.289236 0.097386 70 47 124
-0.441500 0.398954 0.162476 71 40 120
0.189130 0.592767 -0.032949 68 1 84
0.575204 0.136115 0.206630 68 1 84
-0.372498 0.201459 -0.127227 57 85 139
0.405944 0.311904 -0.043776 68 1 84
0.144856 0.439389 -0.190901 68 1 84
0.587146 -0.393794 0.080259 68 1 84
0.290099 0.238680 -0.173920 68 1 84
-0.635396 -0.068536 0.322802 68 3 87
-0.309050 0.418912 -0.062475 71 24 106
0.614708 0.018308 0.314706 68 1 84
-0.646161 -0.127116 0.383326 68 1 84
0.264968 0.542011 -0.001777 68 1 84
0.151672 -0.361307 -0.343311 62 72 136
-0.505842 0.003144 -0.023073 64 67 135
0.047187 -0.341356 -0.363262 53 93 140
-0.208372 0.264828 -0.188118 53 93 140
0.643209 -0.185045 0.338421 68 1 84
-0.647554 -0.186692 0.382426 68 1 84
0.332957 0.496249 0.060176 68 1 84
0.645395 -0.230340 0.250495 68 1 84
-0.654792 -0.271294 0.343093 68 1 84
0.553368 0.253491 0.330963 68 1 84
0.095795 0.043869 -0.438976 173 220 48
0.647056 -0.293412 0.243020 68 1 84
0.296603 0.419086 -0.077927 68 1 84
0.686611 -0.564861 0.457538 68 1 84
-0.190815 0.369197 -0.171966 70 12 95
0.483314 0.160611 -0.010131 68 1 84
-0.463646 -0.072451 -0.102773 69 50 127
0.601005 -0.404784 0.115387 68 1 84
0.457477 0.188509 -0.040996 68 1 84
-0.443626 0.117659 -0.070302 68 55 129
-0.518386 0.302172 0.242169 72 30 112
0.334654 0.248510 -0.150814 68 1 84
-0.695133 -0.386178 0.305555 68 1 84
0.097494 -0.210609 -0.337939 30 153 138
-0.544398 -0.113805 0.007030 70 14 97
0.551309 0.258777 0.355711 68 1 84
-0.451495 0.088121 -0.068963 71 37 117
-0.151057 0.029876 -0.227905 70 49 126
0.127178 0.516253 -0.200128 68 1 84
0.467394 0.258405 0.018043 68 1 84
-0.263618 -0.007050 -0.215748 58 83 139
-0.351509 0.391873 -0.037568 69 54 129
0.320132 0.433978 -0.041667 68 1 84
0.329460 0.234839 -0.160118 68 1 84
-0.032047 -0.423606 -0.387856 31 149 139
0.183640 -0.222547 -0.207630 68 1 84
0.576375 -0.014341 0.101473 68 1 84
0.622704 -0.058933 0.521973 68 1 84
0.335931 -0.230694 -0.159553 68 1 84
0.406745 0.448709 0.144285 68 1 84
-0.569148 0.209464 0.444357 68 1 84
0.597859 0.104031 0.368675 68 1 84
0.250382 0.564355 0.054022 68 1 84
0.542595 0.041612 0.041934 68 1 84
-0.564128 -0.290176 0.033956 68 3 87
-0.081287 0.480692 -0.208700 68 1 84
0.046513 -0.002349 -0.464058 253 231 36
-0.557841 0.244911 0.371378 69 5 88
0.277643 0.547707 0.089139 68 1 84
-0.707228 -0.399137 0.358958 68 1 84
0.159131 0.024608 -0.356583 48 180 122
0.130667 0.011481 -0.407994 83 197 103
-0.519548 -0.036711 -0.013522 72 33 114
-0.371401 0.464423 0.105504 68 1 84
0.119464 0.057799 -0.298241 37 131 141
0.506980 -0.001711 -0.028330 68 1 84
-0.025801 0.499240 -0.228755 70 11 94
0.190844 0.283358 -0.195449 72 33 114
0.220790 0.155286 -0.225311 71 38 118
-0.637725 -0.087953 0.311417 70 9 92
-0.561300 -0.236622 0.025525 68 1 84
-0.468017 0.178189 -0.011624 66 61 132
-0.632170 -0.046072 0.340125 68 1 84
-0.225750 0.373222 -0.153157 70 9 92
-0.527297 -0.144529 -0.025106 69 8 91
0.438944 -0.055675 -0.103652 68 1 84
-0.366718 -0.461020 -0.275903 66 62 133
0.035474 0.553189 -0.215800 68 1 84
-0.072907 -0.012673 -0.405246 114 207 85
-0.646087 -0.379015 0.185338 68 1 84
0.243989 0.196630 -0.209670 71 20 102
0.635559 -0.145884 0.250565 68 1 84
-0.437356 0.313522 0.026704 62 73 137
-0.121138 0.051820 -0.238392 50 98 141
-0.304921 0.029699 -0.200730 65 65 134
0.446700 -0.307067 -0.077404 68 1 84
-0.246084 0.534408 -0.023605 68 1 84
-0.205873 0.488136 -0.116376 68 1 84
-0.407611 0.261012 -0.057301 48 103 141
-0.070025 0.508259 -0.212055 70 11 94
0.438094 0.416533 0.157450 68 1 84
0.102486 0.136818 -0.291239 51 96 141
-0.590792 -0.014433 0.144328 71 40 120
-0.473856 0.384512 0.318167 68 1 84
-0.378100 -0.285964 -0.131427 68 57 130
-0.647139 -0.125365 0.388061 68 1 84
0.396663 -0.298538 -0.115477 68 1 84
0.182887 -0.388942 -0.354803 71 44 123
0.578652 0.176457 0.305146 68 1 84
0.198013 0.590451 -0.012560 68 1 84
0.406490 0.459995 0.253867 68 1 84
0.410657 -0.216374 -0.109438 68 1 84
-0.699233 -0.493813 0.295871 68 1 84
-0.527502 0.195929 0.118383 71 44 123
-0.244043 0.210559 -0.215569 57 84 139
0.649174 -0.226231 0.374121 68 1 84
-0.498358 -0.113854 -0.067492 69 54 129
0.115303 -0.293815 -0.281713 60 78 138
0.496990 0.359422 0.315119 68 1 84
0.560211 -0.062334 0.042922 68 1 84
-0.054729 0.344978 -0.232059 61 76 137
-0.296960 -0.181057 -0.186754 68 1 84
-0.581639 0.123825 0.227850 70 48 125
0.251400 -0.375078 -0.284365 68 1 84
0.494133 0.335852 0.183961 68 1 84
0.496366 -0.278701 -0.032633 68 1 84
-0.342326 -0.341715 -0.225512 71 24 106
-0.055154 -0.377619 -0.374769 37 130 142
0.029993 -0.075210 -0.442064 205 224 29
0.261762 -0.115070 -0.188408 68 1 84
0.662557 -0.304275 0.353519 68 1 84
-0.586714 -0.419323 0.083058 68 1 84
0.606780 -0.306885 0.125867 68 1 84
-0.056366 -0.343303 -0.345946 36 133 141
0.144831 0.498094 -0.191928 68 1 84
-0.504901 0.344416 0.342712 72 28 110
-0.534380 0.152871 0.100225 67 60 132
0.598821 0.074187 0.444349 68 1 84
-0.358925 -0.027615 -0.174370 71 24 106
-0.112167 0.034082 -0.351797 35 169 130
-0.466969 0.299775 0.074880 68 55 129
-0.533918 -0.343419 -0.006986 68 2 85
0.663603 -0.289349 0.387613 68 1 84
0.371425 -0.464841 -0.286624 69 8 91
0.213218 0.271925 -0.168768 70 45 124
-0.348021 -0.434988 -0.289505 63 71 136
0.508361 -0.403663 -0.100816 68 1 84
-0.301036 0.388487 -0.095510 70 11 94
-0.642062 -0.125106 0.329730 68 1 84
-0.623951 -0.283409 0.141934 68 1 84
0.672693 -0.406957 0.452832 68 1 84
0.272072 0.207153 -0.196610 68 2 85
0.587305 0.142634 0.412226 68 1 84
0.318560 0.134551 -0.182796 69 8 91
-0.679564 -0.310927 0.449483 68 1 84
0.198237 0.154558 -0.236301 66 64 133
0.445945 -0.123626 -0.106355 68 1 84
-0.441444 -0.463939 -0.184589 62 73 137
-0.059738 0.421160 -0.212618 68 3 87
-0.470515 -0.011508 -0.076949 69 54 129
0.141867 0.053863 -0.333567 30 158 136
-0.008896 0.619555 -0.135860 68 1 84
0.470840 0.147898 -0.034911 68 1 84
-0.434970 -0.074200 -0.129937 69 50 127
0.575621 0.172903 0.264916 68 1 84
-0.590266 0.081437 0.218452 71 43 122
-0.320070 -0.225155 -0.171990 68 1 84
-0.565431 -0.222255 0.031835 68 1 84
-0.527707 -0.050907 -0.005287 65 66 134
0.253638 0.296463 -0.147982 68 1 84
0.008205 -0.161002 -0.400355 30 159 136
0.629200 -0.069307 0.283719 68 1 84
-0.053321 0.614487 -0.128408 68 1 84
-0.156436 0.233317 -0.229057 45 110 142
0.577820 -0.425975 0.060592 68 1 84
-0.077113 0.076210 -0.285648 33 140 141
0.473846 0.379091 0.417078 68 1 84
0.179743 -0.229874 -0.208341 68 1 84
0.228888 0.275946 -0.158496 71 17 99
-0.331104 0.448129 -0.003352 70 49 126
0.025603 0.148974 -0.299826 53 93 140
0.583968 0.095922 0.204971 68 1 84
-0.573279 0.161436 0.239353 69 53 128
-0.507983 0.334679 0.287448 72 26 108
-0.079962 -0.288624 -0.239193 55 88 140
0.524447 -0.442968 -0.079942 68 1 84
0.610845 -0.069292 0.189606 68 1 84
0.633253 -0.100254 0.476001 68 1 84
0.538283 -0.491190 -0.037218 68 1 84
-0.349235 -0.083752 -0.181151 71 15 98
0.606372 -0.370755 0.125108 68 1 84
-0.211268 -0.433440 -0.355133 35 169 130
0.299785 0.098403 -0.189930 68 1 84
-0.200841 0.570650 -0.041444 68 1 84
0.556569 0.149592 0.558611 68 1 84
-0.127977 0.525410 -0.172906 68 1 84
-0.578883 0.184787 0.389991 68 1 84
-0.166826 0.551205 -0.121712 68 1 84
-0.422237 0.034462 -0.119385 71 42 121
0.018360 0.129632 -0.310518 45 110 142
0.357517 -0.373997 -0.227090 68 1 84
-0.425670 0.257185 -0.032408 47 106 141
0.225433 0.233396 -0.191745 68 1 84
-0.095214 -0.224887 -0.248626 70 45 124
0.579862 0.151443 0.456279 68 1 84
-0.043003 -0.189401 -0.341191 38 129 142
0.634641 -0.249711 0.445848 68 1 84
0.615459 -0.441491 0.168467 68 1 84
-0.206572 -0.089170 -0.226553 68 57 130
0.578432 0.178354 0.316623 68 1 84
-0.042043 -0.278153 -0.300519 33 142 140
-0.662682 -0.309859 0.251762 68 1 84
0.206558 0.301839 -0.181387 69 53 128
0.040761 -0.291462 -0.360856 70 45 124
-0.509895 -0.076602 -0.041857 71 43 122
-0.537227 0.262786 0.240324 70 14 97
0.309095 0.276515 -0.146512 68 1 84
0.473178 0.385580 0.240720 68 1 84
0.459188 -0.089820 -0.094188 68 1 84
0.105437 -0.182569 -0.334047 35 136 141
0.359326 0.242315 -0.133976 68 1 84
-0.223159 -0.284441 -0.206003 71 20 102
0.578120 -0.021364 0.103914 68 1 84
-0.607499 0.056572 0.297938 72 25 107
0.530231 0.303161 0.323307 68 1 84
-0.107660 0.370098 -0.210435 70 49 126
0.437179 -0.252896 -0.081730 68 1 84
0.108056 0.051752 -0.419854 126 210 78
0.488886 0.220459 0.032220 68 1 84
0.642846 -0.224139 0.239565 68 1 84
-0.187205 0.369490 -0.173820 68 1 84
0.067273 0.074437 -0.375430 31 163 134
-0.305131 -0.457751 -0.318535 49 101 141
-0.412719 0.436863 0.179444 70 12 95
-0.664615 -0.494965 0.236433 68 1 84
-0.607804 0.065921 0.333467 68 2 85
-0.605433 0.073675 0.381966 68 2 85
0.607997 -0.229919 0.130893 68 1 84
0.570334 -0.132838 0.055572 68 1 84
0.546306 -0.134589 0.006216 68 1 84
-0.417695 -0.130635 -0.146710 68 1 84
-0.306590 -0.386144 -0.291945 61 76 137
-0.647806 -0.237331 0.376600 68 1 84
0.630340 -0.064935 0.391991 68 1 84
0.192082 -0.359013 -0.292627 68 1 84
-0.508667 -0.330790 -0.037901 72 28 110
0.429830 0.144447 -0.092309 68 1 84
-0.493582 0.295650 0.137390 71 40 120
-0.088546 0.006858 -0.388662 47 179 123
-0.638595 -0.020719 0.497205 68 1 84
-0.299882 -0.273289 -0.194322 69 50 127
0.633517 -0.099541 0.430840 68 1 84
0.337241 0.381412 -0.066034 68 1 84
-0.659478 -0.242072 0.278927 68 1 84
0.552882 0.200344 0.189916 68 1 84
0.198323 0.323581 -0.185285 71 39 119
0.654850 -0.301333 0.318925 68 1 84
0.604914 0.005196 0.521576 68 1 84
-0.132374 -0.091253 -0.259839 43 116 142
0.583003 -0.081922 0.096046 68 1 84
-0.560406 0.188269 0.217311 72 25 107
0.101781 0.618846 -0.088867 68 1 84
0.018315 0.625470 -0.123620 68 1 84
0.603640 0.001464 0.211286 68 1 84
-0.565730 0.015066 0.094913 72 26 108
-0.428195 -0.092845 -0.138177 70 14 97
0.446854 0.422263 0.283906 68 1 84
0.530715 0.085581 0.038070 68 1 84
-0.644261 -0.070371 0.422134 68 1 84
0.568551 0.160909 0.511061 68 1 84
0.294559 0.234001 -0.176610 68 1 84
-0.160390 -0.310470 -0.191469 69 50 127
0.569269 0.199646 0.277136 68 1 84
-0.319410 0.505775 0.082829 68 1 84
0.182621 -0.010228 -0.285685 39 126 142
-0.407283 -0.466444 -0.236891 60 77 138
-0.064834 -0.020088 -0.412154 71 192 110
0.533552 0.293515 0.294423 68 1 84
0.060530 -0.302215 -0.354467 70 45 124
0.514068 0.330581 0.355700 68 1 84
0.253731 -0.096206 -0.193969 68 1 84
0.607347 -0.011597 0.216468 68 1 84
0.451716 -0.337626 -0.100737 68 1 84
0.552625 -0.407263 0.006645 68 1 84
0.025568 0.092476 -0.414078 98 202 95
-0.664730 -0.292961 0.418072 68 1 84
-0.571166 -0.477013 0.056917 68 1 84
0.543347 0.175879 0.126185 68 1 84
-0.423021 -0.381031 -0.194908 71 37 117
-0.487757 -0.358626 -0.078256 72 28 110
0.660764 -0.445610 0.373177 68 1 84
-0.658500 -0.256473 0.308402 68 1 84
-0.159030 -0.012471 -0.234079 57 84 139
0.403050 -0.385887 -0.219436 68 1 84
0.485803 0.374666 0.292860 68 1 84
-0.599758 -0.244079 0.093870 68 1 84
-0.574291 -0.113929 0.066853 68 1 84
-0.152112 -0.342012 -0.237030 55 89 140
0.231486 -0.196389 -0.188232 68 1 84
0.667308 -0.422411 0.429825 68 1 84
-0.608234 -0.000123 0.218347 72 33 114
0.243433 0.400002 -0.129703 68 2 85
-0.630331 -0.330548 0.160755 68 1 84
0.003685 0.363370 -0.221722 67 58 131
0.643243 -0.151502 0.534573 68 1 84
-0.324171 -0.014472 -0.191677 71 43 122
-0.608237 -0.238824 0.112701 68 1 84
-0.185433 -0.368262 -0.303507 32 145 140
0.097123 -0.247272 -0.322514 36 133 141
0.639883 -0.265902 0.514822 68 1 84
0.620420 -0.056108 0.548411 68 1 84
-0.236821 -0.043892 -0.222584 69 50 127
-0.637246 -0.293446 0.173458 68 1 84
0.241203 0.234624 -0.183825 68 1 84
-0.406097 0.298302 -0.035381 57 84 139
0.171151 0.378504 -0.186192 72 28 110
0.458377 -0.002621 -0.081881 68 1 84
-0.500618 0.080760 -0.002998 69 54 129
0.201970 0.408249 -0.157617 71 20 102
-0.571235 -0.205606 0.042818 68 1 84
-0.641746 -0.121139 0.342217 68 1 84
0.598619 -0.485912 0.124478 68 1 84
-0.632541 -0.003998 0.473851 68 1 84
0.251573 0.027182 -0.200237 68 1 84
0.084873 0.135826 -0.300820 41 121 142
0.551250 0.203381 0.529715 68 1 84
0.640516 -0.225864 0.475677 68 1 84
0.567942 -0.497488 0.035503 68 1 84
-0.343558 -0.207908 -0.162564 70 9 92
0.599995 -0.455456 0.125093 68 1 84
0.048125 0.542088 -0.220443 68 1 84
-0.218493 0.320151 -0.172286 71 42 121
-0.647836 -0.185544 0.301846 68 1 84
-0.405608 0.108994 -0.121079 69 50 127
-0.377479 -0.315899 -0.140432 61 75 137
0.359775 0.064834 -0.156676 68 1 84
-0.155148 -0.361800 -0.296842 31 146 140
0.567434 -0.527996 0.031597 68 1 84
0.424399 -0.480598 -0.243728 72 33 114
0.248217 -0.318462 -0.193892 68 1 84
-0.644177 -0.151399 0.361201 68 1 84
0.014127 -0.163728 -0.400446 30 157 136
0.190366 -0.074484 -0.235775 67 60 132
0.286183 -0.278439 -0.182835 68 1 84
-0.629790 0.002908 0.498480 68 1 84
0.125464 0.315600 -0.237501 54 90 140
-0.403159 0.188695 -0.098724 61 76 137
0.474491 0.134345 -0.033599 68 1 84
-0.280065 0.115068 -0.206949 62 73 137
-0.301044 0.251270 -0.172503 72 25 107
0.556966 -0.494047 0.008021 68 1 84
-0.547938 0.120927 0.110313 69 50 127
-0.583301 -0.089498 0.097287 71 22 105
-0.130766 0.601264 -0.087282 68 1 84
-0.018365 -0.169472 -0.382595 34 139 141
0.542813 -0.431211 -0.026821 68 1 84
-0.372802 -0.014905 -0.165775 71 22 105
0.138220 0.128023 -0.265102 64 67 135
0.137532 -0.233245 -0.249691 68 1 84
-0.379016 0.145023 -0.138848 70 48 125
-0.244183 0.421236 -0.118493 71 17 99
0.201166 -0.362835 -0.301591 68 1 84
0.138216 -0.231056 -0.249971 68 1 84
0.576217 -0.039948 0.089831 68 1 84
0.057905 0.281428 -0.264026 33 140 141
-0.587603 0.043522 0.170230 70 47 124
-0.179194 0.456614 -0.149556 68 1 84
0.201591 -0.058485 -0.223605 68 1 84
-0.549518 0.113049 0.108307 69 54 129
0.591438 0.066257 0.212204 68 1 84
0.420101 0.444064 0.183001 68 1 84
0.569526 -0.412655 0.043162 68 1 84
-0.300097 0.399788 -0.087618 68 1 84
-0.044637 -0.369683 -0.371004 37 130 142
-0.124290 0.012623 -0.262098 39 124 142
-0.279480 0.525030 0.035190 68 1 84
0.478301 -0.316676 -0.060369 68 1 84
-0.355305 0.205773 -0.141580 58 82 139
-0.594531 0.111336 0.440555 68 1 84
-0.658327 -0.528933 0.214613 68 1 84
-0.426554 0.427318 0.222763 70 9 92
0.147801 -0.234965 -0.236366 68 1 84
-0.160162 0.440941 -0.167662 70 14 97
0.552680 0.174450 0.549919 68 1 84
-0.130700 0.499221 -0.178648 68 1 84
0.587258 0.104163 0.227108 68 1 84
0.022776 -0.198839 -0.389823 35 137 141
-0.425639 0.255738 -0.033390 43 116 142
0.446093 0.422751 0.279728 68 1 84
0.463064 0.391894 0.410864 68 1 84
0.087121 -0.396151 -0.382540 46 109 142
-0.614293 0.031049 0.375488 68 1 84
-0.547136 -0.063317 0.026301 70 49 126
0.475945 -0.021976 -0.068867 68 1 84
-0.435860 -0.383869 -0.182226 71 24 106
0.524353 -0.311110 -0.008648 68 1 84
0.523291 -0.105409 -0.031416 68 1 84
0.107186 -0.202401 -0.322752 34 138 141
0.097438 0.232195 -0.281325 47 105 141
0.497841 0.327566 0.180874 68 1 84
-0.498777 0.158941 0.028739 62 72 136
-0.405601 0.070156 -0.129849 71 42 121
0.064086 -0.290453 -0.352715 71 38 118
-0.404989 0.450452 0.266355 68 1 84
-0.725201 -0.516604 0.386866 68 1 84
-0.014920 -0.221835 -0.366782 39 126 142
0.406210 -0.266489 -0.109311 68 1 84
0.223111 -0.320762 -0.192973 68 1 84
0.529309 -0.104430 -0.022193 68 1 84
-0.604435 0.058044 0.273486 70 11 94
-0.540322 0.201677 0.163051 72 28 110
0.412464 0.078812 -0.116608 68 1 84
-0.435236 0.225482 -0.036965 59 80 138
0.640654 -0.242608 0.527397 68 1 84
0.489096 -0.106414 -0.072167 68 1 84
-0.561647 0.061707 0.108696 66 61 132
-0.617304 0.033784 0.459287 68 1 84
-0.216364 0.001027 -0.226542 66 64 133
0.531635 0.260174 0.191288 68 1 84
0.088010 0.147420 -0.297215 48 104 141
-0.476903 0.144993 -0.013868 71 40 120
0.271179 0.459417 -0.078952 68 1 84
-0.659769 -0.241497 0.262554 68 1 84
-0.257188 0.550562 0.086862 68 1 84
0.561773 -0.154205 0.035023 68 1 84
0.022856 -0.321431 -0.362253 45 110 142
-0.295736 -0.369177 -0.281295 61 74 137
0.628724 -0.055685 0.309616 68 1 84
-0.588636 -0.285647 0.074464 68 1 84
0.352883 0.054911 -0.160851 68 1 84
-0.605659 0.072555 0.323010 68 1 84
-0.472670 -0.227010 -0.076891 68 1 84
-0.578022 0.153334 0.485225 68 1 84
-0.663597 -0.331492 0.260335 70 14 97
-0.660704 -0.518544 0.222243 68 1 84
-0.308693 0.279648 -0.156404 70 9 92
0.476218 0.280231 0.052272 68 1 84
-0.041888 0.329836 -0.244344 49 102 141
-0.167901 0.514807 -0.142487 68 1 84
-0.636949 -0.095589 0.284821 71 20 102
-0.037810 0.336641 -0.238121 58 82 139
-0.456969 -0.353441 -0.120717 66 64 133
0.634568 -0.247158 0.446971 68 1 84
-0.314528 -0.025691 -0.195634 67 60 132
0.491427 0.333558 0.166950 68 1 84
0.596546 0.055742 0.227783 68 1 84
-0.562524 -0.300901 0.031236 68 1 84
-0.612740 0.030331 0.287962 72 35 116
-0.138431 -0.019509 -0.239202 58 82 139
0.480114 0.039008 -0.050984 68 1 84
-0.234727 0.248731 -0.201562 60 78 138
0.472581 -0.131784 -0.086974 68 1 84
0.223290 -0.093456 -0.212805 68 1 84
0.574172 0.174829 0.259207 68 1 84
0.611588 0.041197 0.379079 68 1 84
0.664245 -0.342701 0.478425 68 1 84
-0.252959 0.540001 0.007195 68 1 84
-0.295054 -0.237150 -0.188218 69 8 91
-0.077962 -0.223725 -0.265191 59 81 138
0.549706 -0.318520 0.021939 68 1 84
0.553981 0.115345 0.108399 68 1 84
0.299971 -0.320524 -0.191519 68 1 84
0.027418 -0.304396 -0.362366 55 89 140
0.638440 -0.245561 0.477419 68 1 84
-0.378228 0.470182 0.165601 68 1 84
-0.562491 0.217669 0.475212 68 1 84
0.261761 -0.078881 -0.191072 68 1 84
-0.538375 0.221873 0.179965 69 50 127
-0.645059 -0.139042 0.373280 68 1 84
0.171196 0.062131 -0.253529 64 68 135
-0.176103 0.129428 -0.237944 71 38 118
-0.145358 0.395008 -0.187960 71 38 118
-0.190667 0.023885 -0.227821 72 35 116
-0.479268 0.009868 -0.058585 69 50 127
0.329182 0.227929 -0.162968 68 1 84
0.528120 -0.210166 -0.014016 68 1 84
-0.068344 0.425774 -0.210373 68 1 84
-0.499351 0.329220 0.221411 70 49 126
-0.026700 -0.183207 -0.368510 32 144 140
0.141387 0.340242 -0.214877 71 40 120
0.276699 0.482771 -0.057342 68 1 84
0.250804 -0.199133 -0.180646 68 1 84
-0.660710 -0.258818 0.241228 68 1 84
-0.037199 0.227684 -0.292661 36 132 141
-0.434617 -0.261247 -0.096032 68 1 84
0.581843 -0.423004 0.069402 68 1 84
-0.609692 -0.370471 0.125550 68 1 84
0.121111 0.118028 -0.275622 63 69 135
0.576640 0.170490 0.267394 68 1 84
-0.429560 -0.465311 -0.205827 63 71 136
-0.178921 -0.361951 -0.288821 40 122 142
-0.144702 0.205228 -0.248929 65 65 134
-0.582207 0.162495 0.445443 68 1 84
-0.077576 0.118621 -0.274131 42 119 142
0.377127 0.360157 -0.041403 68 1 84
-0.207515 0.220962 -0.219909 52 95 141
-0.595999 0.086659 0.464019 68 1 84
0.571493 0.186671 0.451641 68 1 84
0.082199 0.227369 -0.290510 54 90 140
-0.550794 0.109283 0.108816 67 60 132
0.223761 -0.330222 -0.204647 68 1 84
0.279663 -0.442463 -0.331190 68 1 84
0.246973 0.360367 -0.141135 72 26 108
0.648151 -0.531753 0.308185 68 1 84
-0.388884 0.337022 -0.033241 61 76 137
0.509220 0.141733 0.026206 68 1 84
-0.401755 0.104409 -0.126370 70 47 124
0.055881 -0.299932 -0.356248 69 50 127
0.630248 -0.509830 0.233600 68 1 84
-0.218356 0.552904 -0.044882 68 1 84
-0.460955 -0.446506 -0.157819 72 30 112
0.157606 0.078132 -0.240432 70 11 94
0.573819 0.173951 0.458724 68 1 84
-0.510374 0.137991 0.039006 67 60 132
0.163372 -0.052643 -0.278449 38 128 142
0.212567 0.468310 -0.134703 68 1 84
-0.616745 0.031690 0.467312 68 1 84
-0.323038 0.114032 -0.186275 61 74 137
-0.243453 0.138716 -0.219280 63 69 135
0.148435 0.518827 -0.184628 68 1 84
-0.193583 -0.337963 -0.236619 67 59 131
0.593281 0.108853 0.277262 68 1 84
-0.577069 0.191213 0.389036 68 1 84
0.544976 -0.420732 -0.017169 68 1 84
-0.557391 -0.526107 0.024432 58 82 139
-0.241467 -0.443167 -0.346716 34 137 141
0.569797 -0.482111 0.040887 68 1 84
-0.403736 0.448098 0.197911 71 18 101
0.597682 -0.016795 0.172351 68 1 84
0.648599 -0.426545 0.300424 68 1 84
0.543852 0.223163 0.186041 68 1 84
0.241950 -0.375369 -0.300431 68 1 84
-0.063579 0.353483 -0.225993 61 74 137
0.549411 -0.041624 0.025487 68 1 84
0.060203 -0.421301 -0.385903 31 146 140
-0.321716 0.286974 -0.142668 67 58 131
-0.196050 -0.430220 -0.359520 34 167 132
0.407996 -0.383988 -0.211329 68 1 84
-0.260938 0.545184 0.062492 68 1 84
0.308353 0.101116 -0.186645 68 1 84
0.320374 0.521898 0.126158 68 1 84
0.645895 -0.336915 0.239949 68 1 84
-0.583007 -0.364559 0.071250 68 1 84
-0.220598 0.444542 -0.123048 70 11 94
-0.605860 -0.129811 0.139498 68 1 84
-0.694018 -0.436922 0.293730 68 1 84
0.479687 -0.330639 -0.070947 68 1 84
0.605602 0.042399 0.443437 68 1 84
-0.221058 0.226165 -0.215438 44 114 142
-0.031606 -0.187692 -0.360885 36 134 141
0.533059 0.288507 0.271802 68 1 84
-0.542889 -0.408217 0.003061 68 1 84
0.438136 0.331245 0.025482 68 1 84
-0.238164 0.049748 -0.221213 67 60 132
0.492649 -0.468541 -0.149704 68 1 84
-0.636964 -0.073520 0.339144 69 6 90
0.631465 -0.325967 0.183531 68 1 84
-0.066795 -0.390752 -0.380760 41 175 127
0.605001 -0.125636 0.146967 68 1 84
-0.440515 -0.347035 -0.134971 67 58 131
-0.689271 -0.480151 0.286023 68 1 84
0.554603 0.247709 0.308973 68 1 84
-0.055688 -0.018142 -0.423716 79 195 105
-0.076979 0.156489 -0.282651 37 131 141
-0.577060 -0.241572 0.051102 68 1 84
-0.349917 -0.450184 -0.287489 61 76 137
-0.240954 0.534438 -0.033856 68 1 84
0.581752 0.093265 0.191202 68 1 84
-0.612641 0.048325 0.424115 68 1 84
0.646562 -0.168527 0.462521 68 1 84
0.676820 -0.393053 0.485252 68 1 84
-0.221983 0.544386 -0.053210 68 1 84
0.647276 -0.207087 0.513084 68 1 84
0.197199 -0.396274 -0.354188 71 15 98
0.607195 0.062707 0.351468 68 1 84
-0.492916 0.359459 0.316163 69 8 91
-0.714753 -0.437847 0.365860 68 1 84
-0.666819 -0.393602 0.265624 68 1 84
0.574991 0.190448 0.332022 68 1 84
0.356328 0.490820 0.111889 68 1 84
0.611845 0.010162 0.453125 68 1 84
-0.524118 -0.041564 -0.008098 69 54 129
0.216061 0.009066 -0.206580 68 1 84
-0.295338 -0.335333 -0.230671 69 50 127
0.115741 0.047035 -0.414143 121 209 81
-0.395087 0.263454 -0.074215 62 72 136
0.567833 0.146756 0.529652 68 1 84
0.647386 -0.340630 0.305398 68 1 84
-0.282184 0.298194 -0.164423 72 33 114
-0.649646 -0.194576 0.399571 68 1 84
0.290217 -0.372029 -0.238056 68 1 84
-0.510341 -0.098002 -0.046569 71 43 122
0.613195 -0.053355 0.208644 68 1 84
0.198512 0.285921 -0.188258 70 48 125
0.658274 -0.515756 0.354317 68 1 84
-0.102569 0.501674 -0.196425 68 1 84
-0.347045 -0.225468 -0.158125 68 1 84
-0.386069 0.086543 -0.144893 70 48 125
0.124405 -0.261234 -0.255463 72 26 108
-0.528956 0.269330 0.216326 72 33 114
-0.608239 -0.383306 0.125205 68 1 84
-0.078782 -0.157890 -0.301819 34 137 141
0.344290 0.183502 -0.162936 68 1 84
-0.614522 -0.051169 0.203978 71 15 98
0.219702 0.553394 -0.076160 68 1 84
0.417416 0.420866 0.100153 68 1 84
0.268876 -0.348171 -0.221669 68 1 84
0.496193 -0.350650 -0.067961 68 1 84
0.218125 0.422262 -0.141318 69 5 88
0.651882 -0.514306 0.323538 68 1 84
-0.421177 0.406388 0.110188 69 52 127
0.321188 -0.293602 -0.179966 68 1 84
0.410587 0.409427 0.064820 68 1 84
0.032613 0.286417 -0.268805 42 117 142
0.471266 -0.091647 -0.084923 68 1 84
0.666023 -0.562993 0.383871 68 1 84
0.338645 -0.003520 -0.165603 68 1 84
-0.095076 0.614995 -0.083941 68 1 84
-0.175211 -0.137521 -0.230840 71 44 123
-0.072553 0.292550 -0.255497 51 97 141
-0.374080 0.453056 0.080774 68 1 84
-0.363575 0.467323 0.088745 71 24 106
-0.625763 -0.108736 0.206729 68 1 84
-0.480550 0.196542 0.018363 49 100 141
0.547311 0.227547 0.210047 68 1 84
-0.475696 -0.445184 -0.131936 71 43 122
0.049205 -0.064806 -0.441127 151 216 62
0.127296 -0.299450 -0.256243 62 73 137
-0.465637 0.393552 0.312112 68 1 84
-0.483564 0.327064 0.156279 70 47 124
-0.151295 0.113607 -0.242646 69 54 129
0.347400 0.506179 0.197836 68 1 84
-0.179301 -0.012617 -0.232416 56 86 139
0.577982 0.157538 0.458755 68 1 84
0.384799 0.310728 -0.073970 68 1 84
0.056369 0.624153 -0.107292 68 1 84
-0.338513 -0.162185 -0.178161 68 1 84
-0.636981 -0.365137 0.170739 68 1 84
-0.572095 0.121353 0.182660 71 42 121
-0.475611 -0.375390 -0.110970 72 35 116
-0.040861 0.402015 -0.216193 68 1 84
0.443967 0.422296 0.217294 68 1 84
0.284312 0.323364 -0.131372 68 1 84
0.502034 0.306034 0.154887 68 1 84
0.595156 0.057712 0.222761 68 1 84
-0.574811 -0.420867 0.059895 68 1 84
0.381961 -0.338692 -0.183783 68 1 84
0.358043 0.492146 0.126750 68 1 84
0.193532 0.462333 -0.153560 68 1 84
0.615087 -0.086783 0.195463 68 1 84
-0.124667 0.545828 -0.165622 68 1 84
-0.572592 0.101004 0.166371 71 42 121
-0.444313 -0.021762 -0.108935 67 59 131
-0.369284 -0.134682 -0.171831 68 1 84
0.188122 0.109600 -0.233017 68 57 130
-0.635333 -0.064045 0.334958 68 1 84
0.670990 -0.406750 0.445961 68 1 84
0.499083 0.045114 -0.024455 68 1 84
-0.034535 -0.211795 -0.347038 47 106 141
-0.430486 -0.471852 -0.203660 54 90 140
0.418488 0.333937 -0.005441 68 1 84
0.306055 0.444824 -0.049458 68 1 84
-0.531498 0.295188 0.298099 71 37 117
-0.171820 0.275959 -0.187801 66 64 133
0.485968 0.373060 0.279638 68 1 84
-0.648640 -0.480446 0.203387 68 1 84
0.294191 -0.425724 -0.322168 68 2 85
-0.335862 0.438894 -0.007183 71 44 123
-0.021051 0.617450 -0.137162 68 1 84
-0.413756 0.442419 0.258454 68 1 84
0.212690 -0.394193 -0.345634 71 21 103
0.416477 0.394904 0.055399 68 1 84
-0.157287 0.159531 -0.247920 63 71 136
0.337610 0.506665 0.110300 68 1 84
-0.080670 -0.336564 -0.315393 32 164 133
-0.059615 0.621505 -0.095346 68 1 84
-0.631677 -0.376740 0.164253 68 1 84
-0.635432 -0.198272 0.196518 68 1 84
0.634535 -0.105291 0.403554 68 1 84
-0.574506 -0.378362 0.057158 68 1 84
0.046282 0.399789 -0.219285 68 1 84
-0.513710 -0.092556 -0.040015 69 52 127
0.241296 0.557841 -0.020663 68 1 84
-0.276975 0.352764 -0.136573 68 55 129
0.652894 -0.466499 0.345974 68 1 84
0.025540 0.364575 -0.220255 72 28 110
-0.650058 -0.098927 0.429398 68 1 84
0.149341 -0.244478 -0.229820 68 1 84
0.641687 -0.158084 0.294670 68 1 84
0.485341 -0.387197 -0.131118 68 1 84
-0.393211 0.347799 -0.017021 72 30 112
0.074619 0.056910 -0.448777 119 208 82
0.387443 0.137863 -0.133832 68 1 84
0.267434 0.367078 -0.125859 70 14 97
-0.110755 0.403925 -0.200447 68 1 84
0.568278 -0.165010 0.047608 68 1 84
0.629042 -0.065268 0.413730 68 1 84
0.095130 0.580235 -0.180994 68 1 84
-0.653515 -0.276977 0.370035 68 1 84
