ply
format ascii 1.0
element vertex 1272
property float x
property float y
property float z
property uchar red
property uchar green
property uchar blue
end_header
0.656853 -0.023481 0.562756 68 1 84
0.629296 0.085143 0.547491 68 1 84
0.672286 -0.271935 0.543973 68 1 84
-0.659060 -0.301415 0.213717 68 1 84
0.321131 -0.467723 -0.312965 68 1 84
0.332309 0.087930 -0.190138 32 145 140
-0.385816 0.083562 -0.155360 30 151 138
0.672627 -0.439964 0.401249 68 1 84
0.523632 0.338470 0.358353 33 142 140
-0.552230 -0.511043 0.008165 68 1 84
-0.213401 0.601571 -0.016208 68 1 84
0.041502 0.594947 -0.220966 68 1 84
-0.134314 -0.207695 -0.261632 68 1 84
-0.325927 0.002458 -0.212162 46 108 142
-0.116102 -0.312129 -0.200937 68 1 84
-0.565703 0.213609 0.300594 44 113 142
0.110189 0.507919 -0.241908 68 1 84
0.255224 -0.186976 -0.193601 72 32 113
-0.482354 0.399882 0.372585 98 202 95
0.359957 0.530109 0.240836 36 132 141
0.608099 -0.098029 0.054634 68 1 84
-0.269300 -0.286505 -0.183819 68 1 84
0.173054 -0.357595 -0.184631 68 1 84
-0.635037 -0.509336 0.324978 68 1 84
0.324074 0.555848 0.201673 48 103 141
0.658245 -0.331042 0.198759 68 1 84
0.323837 0.071561 -0.197947 45 111 142
0.011023 -0.192797 -0.406129 64 67 135
0.593033 0.198775 0.441729 45 110 142
-0.194669 0.598288 -0.073343 68 1 84
-0.042088 -0.001790 -0.499915 71 15 98
-0.398416 0.396772 0.057670 31 162 134
0.055341 -0.090926 -0.460304 69 53 128
-0.606309 -0.406187 0.107977 68 1 84
0.362452 0.422732 0.014352 55 88 140
0.218260 0.085110 -0.271931 68 57 130
-0.659457 -0.219530 0.214609 68 1 84
-0.277874 0.145376 -0.227993 68 1 84
-0.675042 -0.053299 0.522319 68 1 84
0.610806 0.151800 0.422900 44 113 142
0.227041 0.164828 -0.276902 68 1 84
-0.621377 0.094332 0.547680 68 1 84
0.637531 0.082062 0.471918 71 24 106
-0.524242 -0.303095 -0.055636 68 1 84
0.543432 0.104982 0.100109 41 120 142
0.342501 -0.244976 -0.158927 64 68 135
0.566557 -0.447343 -0.035096 68 1 84
0.037952 0.062726 -0.440451 68 1 84
0.181630 -0.368438 -0.194400 68 1 84
-0.666516 -0.391102 0.402140 68 1 84
-0.187085 0.016080 -0.270213 68 1 84
-0.637930 -0.176144 0.136955 68 1 84
-0.583258 0.198227 0.551385 70 45 124
0.288121 -0.096954 -0.204036 45 110 142
0.159137 0.546617 -0.200847 68 1 84
0.192670 -0.395125 -0.247718 68 1 84
-0.038557 0.119263 -0.364988 68 1 84
0.224697 -0.053238 -0.247675 70 45 124
-0.519415 -0.221761 -0.096683 68 1 84
-0.211563 0.405075 -0.164629 68 1 84
0.472955 0.040227 -0.076448 39 124 142
0.408554 0.485083 0.293471 33 142 140
0.645119 0.018967 0.362053 70 14 97
-0.452881 0.298673 0.081298 207 225 28
0.677162 -0.143080 0.515354 68 1 84
-0.519180 0.349327 0.450783 94 201 97
0.155648 0.582471 -0.178096 68 1 84
0.105278 -0.091334 -0.403206 61 75 137
-0.452767 -0.060863 -0.144572 51 96 141
-0.590118 -0.506814 0.101548 68 1 84
0.001264 0.511055 -0.263685 68 1 84
0.270850 0.585026 0.090599 58 83 139
-0.325796 0.004772 -0.212181 42 117 142
0.281534 -0.235200 -0.176306 68 1 84
0.159894 -0.027830 -0.339618 68 57 130
0.671058 -0.562414 0.376329 68 1 84
-0.628408 -0.165372 0.109779 68 1 84
0.679921 -0.409497 0.514349 68 1 84
-0.543329 0.299989 0.381427 119 208 82
0.470914 0.349070 0.148888 56 185 118
0.626093 -0.410171 0.142616 68 1 84
0.533213 0.165508 0.134501 50 181 122
0.601306 0.041738 0.213044 69 52 127
-0.122026 0.142849 -0.330914 68 1 84
0.355468 0.528530 0.141927 65 65 134
-0.410556 0.267033 -0.020779 186 222 39
-0.254056 0.553987 -0.032723 68 1 84
-0.647631 -0.408223 0.244173 68 1 84
-0.139811 -0.026279 -0.347975 71 37 117
-0.493754 -0.449364 -0.142358 68 1 84
-0.292950 -0.386777 -0.216571 69 6 90
-0.234231 0.548323 -0.077050 68 1 84
0.045134 0.268547 -0.318575 68 1 84
0.626640 0.056139 0.328056 52 94 141
-0.668179 -0.135788 0.342975 68 1 84
-0.191065 0.227737 -0.289115 68 1 84
-0.561356 -0.328514 -0.001192 68 1 84
0.548863 0.179323 0.187193 41 175 127
-0.537926 -0.039355 -0.032574 62 72 136
-0.246732 -0.049866 -0.243461 68 1 84
-0.440053 0.395428 0.132651 36 134 141
-0.251592 -0.124924 -0.223662 68 1 84
-0.564405 0.102796 0.173371 49 101 141
0.383003 0.133643 -0.135982 40 122 142
0.613405 -0.055202 0.120387 68 1 84
0.285916 0.450998 -0.080458 68 1 84
0.496739 0.375377 0.287213 32 165 133
0.519377 0.298324 0.222110 61 187 116
-0.253891 -0.383788 -0.243483 72 25 107
0.679257 -0.306439 0.356985 68 1 84
0.559586 -0.126304 -0.059015 68 2 85
-0.573869 0.002949 0.089308 36 134 141
0.130740 0.174019 -0.337436 68 1 84
-0.155048 -0.426678 -0.321719 68 1 84
0.600023 -0.274670 0.021093 68 1 84
0.474793 0.248931 0.078797 36 170 130
0.465415 0.423123 0.241344 34 138 141
0.638981 -0.076814 0.221294 68 1 84
-0.435331 0.457665 0.293450 50 181 122
0.566495 0.058662 0.110396 49 100 141
0.613357 0.139312 0.402222 48 103 141
-0.430119 -0.470557 -0.239939 68 1 84
0.416806 0.232113 -0.040784 38 172 129
-0.665901 -0.352283 0.489560 68 1 84
-0.653734 -0.566149 0.399460 68 1 84
-0.562958 0.240915 0.337868 36 132 141
0.675516 -0.412991 0.417841 68 1 84
-0.638176 -0.123607 0.183910 68 1 84
-0.372585 0.437678 0.046533 31 149 139
-0.300077 -0.443473 -0.295716 68 1 84
-0.680347 -0.143912 0.450684 68 1 84
-0.092640 0.175712 -0.349120 68 1 84
0.149289 -0.147316 -0.291637 68 1 84
-0.380084 -0.121030 -0.188216 68 1 84
0.355180 0.247608 -0.123351 72 35 116
0.663616 -0.413814 0.371160 68 1 84
-0.111987 -0.412097 -0.323861 68 1 84
-0.585774 0.154783 0.299350 72 25 107
0.559857 0.035987 0.066859 45 111 142
-0.624648 -0.168511 0.097024 68 1 84
-0.052806 0.473837 -0.252099 68 1 84
0.675674 -0.352841 0.517864 68 1 84
0.339027 0.544714 0.182915 42 117 142
0.564571 -0.449672 -0.042002 68 1 84
-0.099771 0.420983 -0.222495 68 1 84
0.646537 -0.330351 0.159686 68 1 84
0.297364 0.456926 -0.061858 68 1 84
-0.493726 0.349184 0.229850 51 97 141
0.587903 -0.121799 -0.010636 68 1 84
-0.619545 -0.002699 0.246628 68 1 84
-0.003572 0.347736 -0.310646 68 1 84
0.406736 0.353959 0.031344 31 149 139
-0.629435 -0.314919 0.125402 68 1 84
-0.669952 -0.101967 0.373451 68 1 84
0.627073 -0.181148 0.070204 68 1 84
0.470739 0.401404 0.440390 30 159 136
0.659221 -0.078648 0.314668 68 1 84
0.364440 -0.426936 -0.255647 68 1 84
0.040856 0.626544 -0.170530 68 1 84
-0.133266 0.142575 -0.323751 68 1 84
-0.554507 0.280614 0.502204 53 92 140
-0.242677 0.218760 -0.250203 68 1 84
-0.297344 0.128765 -0.213252 44 112 142
0.394198 -0.282708 -0.133511 71 22 105
-0.561907 -0.422515 0.017800 68 1 84
-0.358174 0.028701 -0.190334 38 128 142
-0.019037 0.456840 -0.256995 68 1 84
-0.479088 0.052174 -0.055554 35 168 131
0.414252 0.243975 -0.037442 31 163 134
-0.586305 0.047276 0.185050 57 85 139
-0.405522 -0.554599 -0.263426 68 1 84
-0.371292 -0.384227 -0.222108 70 12 95
-0.653840 -0.600991 0.415395 68 1 84
0.165426 -0.462745 -0.361801 68 1 84
-0.661285 -0.411634 0.469606 68 1 84
-0.657549 -0.074269 0.329582 68 1 84
-0.505835 0.368277 0.396681 112 206 86
0.193937 0.439127 -0.183972 68 1 84
0.178882 0.156584 -0.307884 68 1 84
0.174417 0.442083 -0.197802 68 1 84
0.163210 0.092128 -0.302506 68 1 84
0.262469 -0.145462 -0.201768 48 103 141
-0.650738 -0.593176 0.350178 68 1 84
-0.043728 -0.384184 -0.319852 68 1 84
0.596179 0.191056 0.439313 51 182 121
-0.376547 -0.494325 -0.287282 68 1 84
0.090936 -0.324621 -0.264819 68 1 84
-0.379475 0.514292 0.220645 126 210 78
0.117596 0.245780 -0.329731 68 1 84
0.578283 0.141445 0.238269 31 147 139
-0.416581 0.476830 0.299010 96 201 96
0.675105 -0.289742 0.391735 68 1 84
0.366272 0.269432 -0.095895 33 140 141
0.359189 -0.483619 -0.301205 68 1 84
-0.537478 0.011281 0.010108 35 135 141
-0.588547 0.183618 0.553791 67 58 131
0.020261 0.302521 -0.307913 68 1 84
-0.546846 0.300964 0.426818 39 124 142
-0.651348 -0.388561 0.248199 68 1 84
0.202298 0.284548 -0.222779 68 1 84
0.435309 0.439952 0.166321 30 156 137
-0.588900 0.201827 0.519229 72 25 107
-0.322920 -0.469504 -0.306149 68 1 84
-0.643334 0.026666 0.374144 68 1 84
-0.281962 -0.026004 -0.231193 68 1 84
0.611842 -0.085836 0.077927 68 1 84
-0.541339 0.304663 0.498614 42 117 142
-0.446856 0.435875 0.224695 37 171 129
0.678851 -0.476969 0.427405 68 1 84
-0.638010 -0.293177 0.142738 68 1 84
-0.666654 -0.049706 0.405469 68 1 84
0.230628 0.001315 -0.251790 70 49 126
0.436062 0.343242 0.074794 42 176 126
0.681335 -0.442111 0.479745 68 1 84
0.574174 0.206742 0.576281 72 25 107
-0.649508 -0.303384 0.186494 68 1 84
0.385006 -0.294343 -0.147079 71 15 98
0.304006 0.177097 -0.208224 71 42 121
0.456124 0.437362 0.241097 31 148 139
0.026209 -0.307037 -0.333206 68 1 84
0.160005 -0.193976 -0.254122 71 24 106
0.074665 -0.395341 -0.329636 68 1 84
-0.005954 0.244463 -0.359656 68 1 84
0.437559 -0.218514 -0.131893 71 39 119
-0.638286 -0.300729 0.146478 68 1 84
0.644023 -0.132579 0.177884 68 1 84
0.570278 -0.107924 -0.036274 71 38 118
0.108982 -0.289154 -0.244228 68 1 84
0.300859 0.566642 0.105339 66 64 133
-0.113117 -0.176351 -0.311358 68 1 84
0.444429 -0.528730 -0.243025 68 1 84
0.376326 -0.233908 -0.148882 70 48 125
-0.076457 -0.317732 -0.245710 72 25 107
-0.414808 0.093391 -0.121757 31 161 135
-0.260072 0.478185 -0.080907 68 1 84
0.052422 0.405266 -0.238805 68 1 84
-0.467151 0.419795 0.315272 32 165 133
0.679844 -0.170815 0.505365 68 1 84
-0.470852 -0.557879 -0.187203 68 1 84
0.289884 0.575949 0.124246 50 98 141
-0.566671 0.038402 0.109323 34 137 141
0.675391 -0.085587 0.480246 68 1 84
-0.638548 -0.505960 0.346383 68 1 84
0.504369 0.267703 0.152925 85 198 102
0.545267 -0.492060 -0.087973 68 1 84
0.064017 0.606260 -0.203381 68 1 84
0.581322 0.181837 0.296307 30 152 138
-0.154797 0.127161 -0.307569 68 1 84
-0.607205 0.118271 0.567832 68 1 84
-0.309786 0.486415 -0.007966 68 1 84
-0.617703 0.134004 0.485504 68 1 84
0.631368 0.071202 0.370723 46 107 142
0.229527 0.309528 -0.195679 68 1 84
0.401288 -0.327988 -0.146519 72 26 108
0.202538 -0.446018 -0.348760 68 1 84
0.046136 0.537738 -0.256515 68 1 84
0.066938 -0.209382 -0.375284 68 1 84
-0.539244 0.023922 0.025231 40 174 127
-0.122240 -0.054068 -0.360620 70 49 126
0.140314 0.629125 -0.099680 68 1 84
0.181630 -0.406948 -0.290922 68 1 84
-0.612908 0.109928 0.558485 68 1 84
0.309906 0.496283 -0.017525 68 1 84
0.293764 0.477116 -0.057895 68 1 84
-0.482690 0.399590 0.345054 31 161 135
-0.542593 0.234700 0.242899 32 164 133
0.497113 0.361000 0.240972 47 179 123
0.567195 0.223334 0.572059 71 43 122
-0.453616 -0.293989 -0.106663 68 1 84
0.245608 0.535126 -0.103459 68 1 84
-0.377175 -0.545101 -0.287483 68 1 84
0.652423 -0.013089 0.354395 67 60 132
-0.326885 -0.374379 -0.200730 72 28 110
0.545820 0.279900 0.300039 51 182 121
-0.188540 0.260439 -0.261579 68 1 84
-0.191831 0.462637 -0.160840 68 1 84
0.110609 -0.075105 -0.415850 57 84 139
-0.470100 0.306956 0.124466 225 227 24
-0.636978 -0.503783 0.341627 68 1 84
-0.251278 0.572399 -0.007279 68 1 84
0.247186 0.281318 -0.181923 68 1 84
0.231112 -0.273147 -0.173320 68 1 84
0.639521 0.044444 0.561259 68 1 84
-0.047648 -0.112757 -0.431880 55 88 140
-0.381555 0.474895 0.094011 81 196 104
-0.654932 0.013636 0.456375 68 1 84
0.617366 -0.205931 0.043094 68 1 84
0.029347 -0.171540 -0.415109 51 96 141
0.542321 -0.229106 -0.068350 68 1 84
0.094711 0.023346 -0.356994 63 71 136
-0.596918 0.157810 0.358882 72 32 113
0.578608 0.229340 0.477742 36 132 141
-0.664066 -0.417252 0.493842 68 1 84
-0.390873 0.058012 -0.158963 30 153 138
-0.047382 0.559308 -0.243587 68 1 84
-0.417014 0.233934 -0.034766 114 207 85
-0.666636 -0.304426 0.449188 68 1 84
-0.570014 -0.379868 0.027709 68 1 84
-0.541375 0.288760 0.323765 85 198 102
0.663192 -0.391132 0.258044 68 1 84
-0.193796 0.617915 0.010231 68 1 84
-0.412042 0.372676 0.062141 30 152 138
0.676259 -0.347064 0.420401 68 1 84
0.188690 -0.097598 -0.265818 68 1 84
0.611714 -0.038347 0.140984 68 1 84
-0.467297 -0.446068 -0.179209 68 1 84
0.590516 0.204540 0.434166 40 122 142
-0.026561 0.007660 -0.505691 68 1 84
-0.160151 -0.304777 -0.176082 66 62 133
0.075147 -0.229031 -0.357452 68 1 84
0.580764 0.123577 0.229713 30 153 138
0.054210 -0.036868 -0.490680 67 60 132
0.584216 0.144787 0.263467 35 137 141
0.624420 -0.184663 0.061843 68 1 84
-0.269041 -0.356415 -0.187784 71 37 117
-0.181696 0.387873 -0.196734 68 1 84
-0.234020 0.164929 -0.264085 68 1 84
-0.671162 -0.348487 0.342282 68 1 84
0.077842 -0.432740 -0.357046 68 1 84
-0.632021 -0.043411 0.251810 68 1 84
0.674819 -0.241731 0.494500 68 1 84
0.383939 -0.377871 -0.197314 68 1 84
0.148558 0.385642 -0.224998 68 1 84
-0.215971 0.389214 -0.169440 68 1 84
-0.576041 0.231768 0.519740 71 44 123
0.314411 0.561504 0.156784 58 82 139
0.491878 -0.085627 -0.113334 50 99 141
0.299176 -0.371653 -0.238705 68 1 84
0.370344 -0.196971 -0.164052 71 39 119
0.256803 -0.209133 -0.187311 70 49 126
-0.577383 -0.484242 0.065490 68 1 84
0.660808 -0.422690 0.357069 68 1 84
-0.553993 0.040036 0.076820 30 156 137
0.093588 0.488405 -0.249537 68 1 84
0.510921 -0.474320 -0.178158 68 1 84
0.598341 -0.279938 0.020808 68 1 84
-0.660060 -0.401960 0.330353 68 1 84
-0.362006 -0.247380 -0.162738 68 1 84
0.345489 0.510820 0.067747 68 1 84
-0.542557 -0.557058 -0.014072 68 1 84
-0.361947 0.317651 -0.064638 55 89 140
-0.080428 -0.046704 -0.447905 69 52 127
-0.623218 -0.480803 0.186836 68 1 84
-0.543356 -0.354253 -0.019103 68 1 84
0.644479 -0.244948 0.091958 68 1 84
-0.026158 -0.239035 -0.369065 69 6 90
-0.511690 0.253831 0.174794 149 215 63
-0.502264 0.373499 0.391008 64 189 114
-0.083325 -0.099218 -0.397763 58 82 139
-0.377557 0.276873 -0.070713 38 128 142
0.478923 0.404930 0.306686 30 157 136
-0.562223 0.256754 0.377460 32 145 140
-0.236747 0.531595 -0.086465 68 1 84
0.008181 0.390515 -0.243982 68 1 84
-0.484478 0.241261 0.102621 157 217 58
-0.359069 0.531101 0.188565 48 180 122
-0.514222 -0.015714 -0.053289 51 96 141
0.453769 0.281123 0.062534 30 152 138
-0.333631 0.547822 0.148767 30 157 136
0.176879 0.618908 -0.087138 68 1 84
-0.258940 0.593396 0.096571 41 120 142
-0.060092 0.248825 -0.342965 68 1 84
-0.597351 0.173528 0.535214 68 3 87
0.552459 0.225877 0.240619 30 152 138
0.436618 -0.499098 -0.250702 68 1 84
-0.438906 -0.364945 -0.115111 69 52 127
-0.235999 0.167024 -0.262771 68 1 84
-0.352739 -0.191989 -0.188401 68 1 84
-0.155087 0.518505 -0.189780 68 1 84
0.580446 0.224824 0.484209 33 141 140
-0.064034 0.017836 -0.480733 71 15 98
-0.243992 -0.395706 -0.289203 68 1 84
0.497175 -0.207703 -0.108893 68 1 84
-0.625790 -0.402654 0.159340 68 1 84
-0.454497 0.259001 0.055269 191 223 36
0.095298 -0.095380 -0.415816 70 47 124
-0.631887 -0.376771 0.165747 68 1 84
-0.439650 0.308804 0.062804 162 218 55
-0.633426 -0.512127 0.301125 68 1 84
0.037246 0.586470 -0.229974 68 1 84
-0.474263 0.251507 0.089779 183 221 41
-0.339140 0.000347 -0.205271 43 115 142
-0.427180 0.448834 0.173267 35 135 141
-0.127641 0.530605 -0.210895 68 1 84
0.016749 -0.284452 -0.348628 72 29 111
-0.552905 -0.409796 -0.002441 68 1 84
0.603551 -0.025894 0.121823 58 83 139
0.673210 -0.460685 0.400813 68 1 84
0.325999 0.498671 0.014743 72 26 108
-0.667622 -0.389496 0.388211 68 1 84
0.425447 0.285082 0.013024 37 171 129
0.062657 0.271499 -0.310850 68 1 84
-0.668945 -0.285068 0.435119 68 1 84
0.419425 0.301178 0.013459 44 112 142
0.676236 -0.259738 0.366993 68 1 84
-0.468524 -0.381469 -0.109187 68 1 84
0.185806 0.315255 -0.242519 68 1 84
-0.489373 -0.413750 -0.115803 68 1 84
0.561695 0.253221 0.533479 42 117 142
0.672556 -0.268399 0.505509 68 1 84
-0.092276 -0.363081 -0.243950 71 39 119
0.467431 -0.449490 -0.220011 68 1 84
-0.203063 0.176295 -0.287111 68 1 84
0.333139 0.402752 -0.042224 72 34 115
0.039783 0.376581 -0.266638 68 1 84
-0.456931 0.198306 0.013079 30 153 138
-0.193523 0.366216 -0.199293 68 1 84
-0.667551 -0.041658 0.498703 68 1 84
-0.603458 0.104353 0.302585 70 11 94
-0.559785 0.271620 0.498017 62 73 137
-0.073270 -0.314131 -0.250691 68 1 84
-0.150597 -0.446489 -0.356806 68 1 84
-0.579369 -0.195431 -0.015881 68 1 84
0.423186 0.459651 0.168551 30 151 138
0.674002 -0.332630 0.429977 68 1 84
0.473786 -0.287109 -0.087869 68 1 84
-0.514475 0.257152 0.185193 212 225 26
0.034642 -0.221347 -0.385302 68 1 84
0.614850 -0.541720 0.126941 68 1 84
-0.546785 0.169345 0.189700 33 140 141
-0.450834 0.244185 0.036756 175 220 46
0.104185 0.528981 -0.241638 68 1 84
-0.483737 -0.100874 -0.132161 62 73 137
0.647881 0.033786 0.542360 68 1 84
0.443389 0.448084 0.315371 46 178 124
-0.587991 -0.018875 0.108577 51 97 141
-0.560552 0.252439 0.350697 34 137 141
0.401780 0.494458 0.259174 34 137 141
0.608967 0.160167 0.455212 49 100 141
-0.450407 0.033825 -0.106754 42 117 142
0.211308 0.509771 -0.159199 68 1 84
0.012151 0.092382 -0.379845 68 1 84
0.576910 -0.188457 -0.039164 68 1 84
0.340873 0.541062 0.142940 67 60 132
-0.652233 -0.492942 0.432518 68 1 84
-0.366171 0.502509 0.102633 30 158 136
0.121983 0.629040 -0.122413 68 1 84
-0.111179 -0.053642 -0.392335 71 18 101
0.048194 0.108354 -0.368056 68 1 84
0.455260 -0.514980 -0.233991 68 1 84
-0.396682 -0.335669 -0.130813 56 86 139
0.437035 -0.211583 -0.135313 71 20 102
-0.455685 -0.275582 -0.113589 68 1 84
0.675351 -0.325668 0.286677 68 1 84
-0.532879 -0.415769 -0.045801 68 1 84
0.574322 -0.045270 0.015818 58 82 139
0.671379 -0.378553 0.332571 68 1 84
-0.036556 0.210071 -0.368377 68 1 84
0.156633 0.080905 -0.302357 68 1 84
0.561686 -0.318682 -0.012967 68 1 84
0.544859 0.142782 0.142244 37 131 141
0.073770 -0.059982 -0.466274 62 73 137
0.083374 -0.366948 -0.297891 68 1 84
-0.643305 -0.166252 0.165740 68 1 84
0.518374 0.176309 0.110869 40 174 127
-0.581553 -0.070711 0.035013 56 87 140
0.223092 0.255738 -0.238196 68 1 84
0.236625 -0.098562 -0.229282 43 115 142
-0.381118 0.479909 0.099537 107 205 89
-0.019943 0.298968 -0.307218 68 1 84
0.550293 0.283541 0.493070 47 105 141
-0.376443 0.502408 0.129224 33 141 140
0.489339 0.067873 -0.033723 31 146 140
-0.253737 0.508880 -0.074341 68 1 84
0.077571 0.597059 -0.211721 68 1 84
-0.622842 -0.496432 0.192066 68 1 84
-0.453895 -0.168012 -0.158430 68 1 84
0.377934 0.122537 -0.144837 34 138 141
0.661862 -0.006768 0.515731 68 1 84
-0.406092 -0.160081 -0.180045 72 32 113
-0.367489 0.270642 -0.089607 49 101 141
0.393881 0.353891 0.009768 42 118 142
0.327405 0.410174 -0.044977 71 44 123
-0.030242 0.030302 -0.496180 68 1 84
0.162789 0.558717 -0.190848 68 1 84
0.012564 -0.021846 -0.509575 71 22 105
0.457812 0.417369 0.422879 30 152 138
0.071805 0.477108 -0.256044 68 1 84
0.564764 -0.055353 -0.012597 70 48 125
-0.041478 -0.288111 -0.317166 68 1 84
0.324886 0.530995 0.057078 68 1 84
0.677451 -0.104800 0.479742 68 1 84
0.404980 -0.407494 -0.209824 68 1 84
-0.632001 -0.425349 0.194751 68 1 84
-0.084506 0.604553 -0.189236 68 1 84
0.495233 -0.322600 -0.070937 68 1 84
-0.435386 0.441466 0.187634 32 164 133
0.374745 0.514127 0.160504 39 125 142
-0.017797 -0.444145 -0.360213 68 1 84
0.678859 -0.343170 0.312179 68 1 84
0.448148 0.340672 0.094759 46 178 124
-0.594969 -0.076376 0.065858 72 25 107
-0.650531 -0.049564 0.320324 68 1 84
0.633012 -0.460860 0.197578 68 1 84
0.549552 -0.103662 -0.064015 67 58 131
-0.593395 -0.004824 0.147159 61 75 137
0.251058 0.371603 -0.158056 68 1 84
0.345283 0.407202 -0.022000 70 14 97
-0.505106 0.368580 0.428521 57 185 118
-0.659345 -0.092668 0.323171 68 1 84
-0.010639 -0.443358 -0.359880 68 1 84
-0.007440 -0.294630 -0.338223 68 1 84
-0.597889 -0.080877 0.070587 72 34 115
-0.581096 0.212040 0.387207 69 50 127
0.221950 0.051570 -0.261570 65 65 134
-0.238732 -0.403504 -0.291644 68 1 84
0.257820 0.100247 -0.247615 65 66 134
-0.230952 0.261213 -0.220210 68 1 84
-0.593793 -0.570448 0.119403 68 1 84
0.601381 -0.440335 0.045273 68 1 84
0.558917 0.219479 0.255324 35 168 131
-0.488443 -0.441898 -0.144672 68 1 84
-0.150412 0.020287 -0.323266 72 32 113
-0.607231 -0.265649 0.056444 68 1 84
0.495554 0.251896 0.122327 53 183 120
-0.542002 0.051423 0.058402 50 181 122
-0.559466 0.088584 0.144129 39 124 142
-0.653081 -0.555798 0.388540 68 1 84
-0.088560 0.634082 -0.121699 68 1 84
0.365653 0.243777 -0.111295 33 166 133
0.331608 0.425026 -0.028599 69 53 128
-0.666271 -0.364015 0.492866 68 1 84
-0.600860 0.173347 0.511345 68 2 85
-0.619969 -0.090479 0.143330 68 1 84
-0.566602 0.253972 0.415972 37 131 141
0.679973 -0.145366 0.480609 68 1 84
0.205825 0.526920 -0.161582 68 1 84
0.339395 -0.255179 -0.159254 64 68 135
0.306529 0.562972 0.108460 63 69 135
0.425191 0.032135 -0.128856 32 164 133
0.459681 -0.065321 -0.129394 36 132 141
-0.518772 -0.512489 -0.085723 68 1 84
-0.638547 -0.401096 0.204858 68 1 84
-0.337001 -0.374110 -0.230352 71 21 103
0.661425 -0.001227 0.440386 68 1 84
-0.294145 0.094036 -0.219926 67 59 131
0.409920 -0.500756 -0.271253 68 1 84
0.678410 -0.206958 0.491183 68 1 84
0.493374 -0.273319 -0.083713 68 1 84
-0.577861 -0.206107 -0.016854 68 1 84
-0.568141 -0.552855 0.054344 68 1 84
-0.376736 0.030065 -0.177157 33 140 141
0.633622 -0.088088 0.175437 68 1 84
0.674910 -0.347684 0.444971 68 1 84
0.174271 -0.054858 -0.284681 68 1 84
-0.132716 0.409495 -0.214589 68 1 84
-0.048642 -0.402607 -0.335311 68 1 84
-0.633561 0.060780 0.542817 68 1 84
0.598635 -0.510760 0.059073 68 1 84
0.590048 -0.480538 0.025850 68 1 84
-0.455183 -0.380503 -0.120119 68 1 84
0.529453 -0.134926 -0.095886 71 44 123
-0.671923 -0.272810 0.401754 68 1 84
0.672204 -0.258977 0.414681 68 1 84
-0.630991 0.091268 0.443434 68 1 84
-0.608610 0.018475 0.232016 69 5 88
0.317680 -0.459720 -0.309239 68 1 84
-0.494592 -0.159410 -0.131962 69 5 88
-0.469032 0.284786 0.104071 165 218 53
-0.507572 0.365194 0.431772 83 197 103
-0.375183 -0.365849 -0.177166 70 49 126
0.516093 -0.261400 -0.075561 68 1 84
0.197374 -0.401699 -0.262331 68 1 84
0.040244 -0.434335 -0.357614 68 1 84
-0.249223 -0.437047 -0.308770 68 1 84
0.450443 0.355126 0.109845 30 158 136
-0.507390 -0.374114 -0.064555 68 1 84
-0.227587 0.575818 -0.050855 68 1 84
-0.162242 0.120922 -0.301625 68 1 84
0.407657 0.189202 -0.081772 30 154 137
0.325676 0.523010 0.044937 68 1 84
0.665453 -0.397611 0.323265 68 1 84
0.299411 0.249145 -0.178544 72 30 112
-0.668915 -0.305748 0.487377 68 1 84
0.467440 -0.333774 -0.087460 68 1 84
0.432093 0.450867 0.176749 33 141 140
-0.674586 -0.232229 0.361438 68 1 84
-0.024352 -0.220225 -0.380921 68 1 84
-0.079123 -0.119228 -0.383965 53 92 140
0.653350 -0.288682 0.129406 68 1 84
-0.294657 -0.381323 -0.248795 69 6 90
0.224274 -0.153763 -0.219199 66 62 133
-0.470856 0.221129 0.059083 146 215 65
0.609296 -0.528196 0.104368 68 1 84
-0.683978 -0.201811 0.503406 68 1 84
-0.573236 -0.539869 0.065369 68 1 84
-0.276389 -0.010487 -0.234706 72 26 108
-0.656883 -0.507370 0.469051 68 1 84
0.611196 0.068422 0.281342 70 48 125
-0.176699 -0.327581 -0.167521 71 37 117
0.296052 0.556763 0.043014 72 25 107
-0.535774 -0.487958 -0.039884 68 1 84
-0.465982 0.419224 0.286465 57 185 118
0.509041 0.072532 0.001704 44 112 142
-0.664495 -0.380417 0.480368 68 1 84
0.683744 -0.549187 0.480505 68 1 84
0.197741 -0.288558 -0.172349 68 1 84
0.074741 -0.007402 -0.486792 71 17 99
0.001330 -0.312284 -0.329095 68 1 84
-0.047061 -0.309620 -0.292722 68 1 84
0.680070 -0.324919 0.318922 68 1 84
-0.067634 -0.301463 -0.263856 68 1 84
-0.442928 0.024379 -0.120269 44 113 142
-0.061299 0.299732 -0.301625 68 1 84
0.217998 0.187744 -0.281845 68 1 84
0.386068 0.186765 -0.112007 34 138 141
0.672077 -0.064220 0.490352 68 1 84
0.237289 0.251416 -0.226939 68 1 84
-0.461629 -0.206182 -0.143740 68 1 84
0.115980 -0.080795 -0.392111 61 76 137
-0.661923 -0.428188 0.474420 68 1 84
0.674795 -0.213179 0.404562 68 1 84
-0.612135 0.127112 0.544343 68 1 84
0.198926 0.614554 -0.041664 68 1 84
-0.159569 0.584158 -0.152456 68 1 84
-0.335918 0.348494 -0.074598 60 77 138
-0.193712 -0.270079 -0.186294 68 1 84
-0.328680 0.096497 -0.197517 43 116 142
-0.521223 -0.108384 -0.095369 71 21 103
0.101007 0.171235 -0.352826 68 1 84
-0.426611 0.373733 0.087639 33 167 132
0.182942 0.180164 -0.306363 68 1 84
-0.652214 -0.050276 0.327108 68 1 84
0.452656 -0.214096 -0.127654 68 1 84
-0.420664 -0.084858 -0.169660 61 75 137
0.571905 -0.132268 -0.042259 72 28 110
0.396397 -0.239319 -0.138776 72 29 111
-0.392517 0.392240 0.045130 38 127 142
0.569309 -0.330108 -0.001660 68 1 84
-0.502833 0.334738 0.239034 52 95 141
-0.082447 0.214308 -0.355531 68 1 84
0.101638 0.061799 -0.337571 66 62 133
0.380423 -0.478990 -0.287941 68 1 84
-0.676445 -0.245402 0.461060 68 1 84
-0.460820 0.098501 -0.053159 30 158 136
0.060933 0.334123 -0.312380 68 1 84
0.430190 -0.271980 -0.111264 68 57 130
0.652814 -0.015231 0.591080 68 1 84
0.028399 0.298079 -0.307212 68 1 84
0.582075 -0.143728 -0.028097 72 26 108
-0.168839 0.595351 -0.127735 68 1 84
0.676211 -0.194783 0.354888 68 1 84
-0.095691 -0.383472 -0.273556 70 12 95
0.463572 -0.277157 -0.095180 71 18 101
-0.376269 0.293611 -0.061037 49 101 141
0.601988 0.011176 0.174257 63 69 135
0.073982 0.246132 -0.344575 68 1 84
0.171723 0.116720 -0.306718 68 1 84
0.173688 0.520690 -0.197226 68 1 84
-0.347412 0.229208 -0.138329 55 89 140
0.567710 -0.088669 -0.031121 71 15 98
-0.063785 0.297421 -0.300596 68 1 84
-0.074749 0.020723 -0.467611 69 5 88
-0.637767 -0.299304 0.143952 68 1 84
-0.141730 0.337852 -0.258446 68 1 84
-0.589998 -0.508464 0.101607 68 1 84
0.134842 0.578784 -0.197960 68 1 84
0.592227 0.170602 0.330835 71 192 110
0.194538 0.084555 -0.284717 68 3 87
-0.497784 0.378996 0.362960 53 183 120
-0.286315 0.397856 -0.096142 68 1 84
-0.603689 -0.333793 0.074769 68 1 84
0.670801 -0.052153 0.432993 68 1 84
0.165398 0.256361 -0.291173 68 1 84
-0.672025 -0.158838 0.355891 68 1 84
0.495916 -0.101261 -0.115376 57 85 139
-0.241058 0.118511 -0.253737 68 1 84
-0.560542 0.178244 0.238132 32 165 133
-0.566712 -0.122887 -0.030084 68 1 84
-0.525781 -0.524884 -0.058697 68 1 84
0.678162 -0.112022 0.475849 68 1 84
0.473924 0.386578 0.199424 34 138 141
-0.121642 0.035042 -0.360231 69 6 90
0.179470 0.124104 -0.303751 68 1 84
0.098050 0.578844 -0.220587 68 1 84
0.652065 -0.484301 0.292075 68 1 84
0.623485 -0.222330 0.056942 68 1 84
-0.126325 0.063876 -0.308543 68 1 84
0.242826 0.142230 -0.264014 68 1 84
-0.372865 -0.444843 -0.260794 68 1 84
0.350505 0.536676 0.192587 36 133 141
-0.110734 0.069080 -0.317676 68 1 84
0.074362 0.046953 -0.358121 67 60 132
-0.089659 -0.243172 -0.287968 71 15 98
-0.300824 0.223813 -0.196251 68 1 84
0.667604 -0.294040 0.449581 68 1 84
0.598411 0.179474 0.529211 71 39 119
-0.648894 -0.114273 0.250526 68 1 84
0.199185 0.600684 -0.099592 68 1 84
0.663417 -0.399795 0.340113 68 1 84
-0.097928 -0.080663 -0.384607 56 86 139
0.664100 -0.147929 0.286904 68 1 84
-0.340324 -0.378991 -0.243199 69 6 90
0.083257 0.400548 -0.235662 68 1 84
-0.300997 -0.435147 -0.289886 68 1 84
-0.020815 0.053962 -0.472253 68 1 84
0.488134 0.243025 0.100535 36 170 130
0.410160 0.470819 0.154013 39 126 142
0.491018 0.209291 0.080245 68 190 112
0.650234 0.018167 0.552753 68 1 84
0.037627 0.053007 -0.476596 68 1 84
0.343847 -0.422270 -0.260856 68 1 84
0.557616 0.110126 0.143638 46 108 142
0.013022 0.176530 -0.360978 68 1 84
-0.558755 0.184838 0.239458 34 139 141
-0.218462 -0.072441 -0.253147 68 1 84
0.556727 0.274850 0.369542 75 194 108
-0.450719 0.332594 0.103044 77 194 107
-0.025852 -0.060737 -0.488994 66 62 133
0.554493 -0.067261 -0.038114 38 127 142
-0.600084 0.056958 0.241576 68 1 84
-0.153843 0.339731 -0.246091 68 1 84
0.118604 0.467648 -0.234333 68 1 84
0.540565 -0.535181 -0.103579 68 1 84
-0.590860 0.099218 0.253627 68 1 84
-0.453911 0.214604 0.020366 37 171 129
-0.242405 0.534908 -0.074865 68 1 84
0.496615 -0.436010 -0.180555 68 1 84
0.105843 -0.397624 -0.322866 68 1 84
-0.607164 -0.175693 0.045941 68 1 84
0.350948 -0.287977 -0.162369 70 12 95
-0.677501 -0.232731 0.458096 68 1 84
-0.217826 0.245218 -0.256752 68 1 84
0.417119 0.476530 0.299581 30 157 136
-0.572732 -0.245069 -0.016838 68 1 84
-0.423921 0.401319 0.105373 45 111 142
-0.649262 -0.183238 0.179619 68 1 84
0.669868 -0.283392 0.494773 68 1 84
0.484365 0.333424 0.165810 35 168 131
0.283310 0.577693 0.094941 50 99 141
-0.523390 -0.068854 -0.075862 70 14 97
-0.636130 -0.477834 0.258086 68 1 84
0.281041 -0.254713 -0.172786 68 1 84
-0.003467 -0.096098 -0.474303 65 66 134
0.374093 0.334407 -0.039062 54 90 140
0.092307 0.109917 -0.354683 68 1 84
-0.658735 -0.348222 0.237269 68 1 84
0.299380 -0.425882 -0.284182 68 1 84
-0.064661 0.068297 -0.352114 68 1 84
-0.059854 0.527444 -0.250006 68 1 84
0.525678 0.332181 0.335334 30 160 135
-0.658088 -0.460436 0.466606 68 1 84
0.449041 0.220194 0.010390 43 116 142
0.125368 -0.053544 -0.413406 66 64 133
0.436129 0.448824 0.360728 30 159 136
0.180582 0.373560 -0.214924 68 1 84
0.640073 -0.341851 0.146731 68 1 84
-0.638576 -0.085204 0.234329 68 1 84
0.357416 -0.101844 -0.177516 56 87 140
0.323674 0.555399 0.171933 47 106 141
-0.437478 0.215055 -0.010594 77 194 107
-0.581229 -0.185730 -0.012499 68 1 84
-0.487134 0.093480 -0.012004 42 118 142
-0.515801 -0.188938 -0.109341 68 1 84
0.116399 0.248198 -0.327747 68 1 84
-0.129101 -0.388573 -0.246353 68 1 84
0.189940 -0.120158 -0.257016 68 2 85
0.376057 -0.444135 -0.270162 68 1 84
0.137322 -0.244074 -0.241776 68 1 84
-0.172570 0.440942 -0.181012 68 1 84
-0.181636 -0.326121 -0.169332 71 42 121
0.423575 0.474030 0.234971 30 159 136
0.263240 0.526501 -0.079682 68 1 84
-0.079621 -0.379703 -0.286285 69 6 90
0.440888 -0.372643 -0.138029 68 1 84
-0.113421 0.411423 -0.221036 68 1 84
0.133115 0.619137 -0.140162 68 1 84
-0.594024 0.121215 0.286749 69 5 88
-0.060538 0.259153 -0.324359 68 1 84
0.676771 -0.250970 0.338743 68 1 84
-0.488578 0.273011 0.135992 149 215 63
-0.228989 -0.150660 -0.225391 68 1 84
-0.009022 -0.226152 -0.383028 68 1 84
-0.477908 -0.378427 -0.097149 68 1 84
0.177482 0.289408 -0.246343 68 1 84
-0.311167 -0.050620 -0.216734 62 73 137
0.659598 -0.296905 0.182340 68 1 84
0.421866 -0.440274 -0.245166 68 1 84
-0.212318 -0.112707 -0.246173 68 1 84
-0.128268 0.321023 -0.275095 68 1 84
0.181817 -0.411493 -0.303142 68 1 84
0.419295 -0.438954 -0.245204 68 1 84
0.630406 -0.442357 0.177360 68 1 84
0.329523 -0.391931 -0.253498 68 1 84
-0.599575 -0.252188 0.034834 68 1 84
-0.069384 -0.295645 -0.265273 68 1 84
0.615531 -0.541219 0.130764 68 1 84
-0.077403 -0.064112 -0.439616 71 37 117
0.144212 -0.093053 -0.312488 72 35 116
-0.421149 0.466244 0.355634 85 198 102
0.445162 0.396762 0.137475 32 145 140
-0.582474 0.213223 0.402255 67 58 131
-0.164835 -0.459683 -0.360567 68 1 84
-0.267780 0.336295 -0.155682 68 1 84
-0.081356 -0.091176 -0.409597 51 97 141
0.247045 -0.082748 -0.228196 47 105 141
-0.649519 -0.517727 0.388323 68 1 84
-0.615955 0.116690 0.386529 68 1 84
-0.070813 0.076911 -0.348745 68 1 84
-0.559262 0.213835 0.275436 33 140 141
0.192953 0.404126 -0.193323 68 1 84
-0.163762 0.577891 -0.154178 68 1 84
0.682347 -0.554283 0.452457 68 1 84
-0.473997 0.037876 -0.073797 39 124 142
0.610237 -0.545793 0.103522 68 1 84
-0.675708 -0.104279 0.467405 68 1 84
-0.427596 0.373556 0.089253 34 167 132
0.678938 -0.395259 0.476481 68 1 84
0.164234 0.626610 -0.071101 68 1 84
0.645198 -0.016522 0.315719 68 1 84
-0.671426 -0.272267 0.291730 68 1 84
-0.357161 -0.094022 -0.194827 69 52 127
0.439532 0.026021 -0.117973 32 165 133
-0.176592 0.244824 -0.290601 68 1 84
0.220971 -0.050821 -0.250549 72 28 110
0.521385 -0.155054 -0.103844 68 1 84
0.550243 0.132412 0.145669 35 135 141
0.353291 -0.436943 -0.272589 68 1 84
0.474477 0.334206 0.143158 47 179 123
-0.092288 -0.184962 -0.332928 68 1 84
-0.351415 0.086991 -0.184244 30 155 137
0.564394 -0.156617 -0.056980 70 47 124
-0.445554 0.440803 0.366065 31 163 134
-0.460331 -0.391664 -0.127406 68 1 84
-0.539483 0.238504 0.237487 89 199 100
0.094682 -0.057734 -0.449961 47 105 141
0.390454 0.453708 0.086513 66 61 132
0.523055 -0.513289 -0.151479 68 1 84
-0.678548 -0.144391 0.412351 68 1 84
-0.010920 -0.083336 -0.480667 68 55 129
0.179744 0.585627 -0.150713 68 1 84
-0.147146 0.411308 -0.206831 68 1 84
0.224664 -0.411201 -0.275365 68 1 84
0.433373 -0.014685 -0.136003 30 151 138
-0.633931 -0.480201 0.331084 68 1 84
-0.653987 0.013751 0.516259 68 1 84
-0.426723 -0.160924 -0.172565 68 1 84
0.667790 -0.044622 0.409602 68 1 84
0.660248 -0.399242 0.253300 68 1 84
-0.582937 -0.233249 -0.002719 68 1 84
0.124863 -0.066462 -0.391703 66 64 133
-0.063118 0.631226 -0.149689 68 1 84
-0.304777 0.551498 0.060130 69 54 129
0.661024 -0.284751 0.176039 68 1 84
-0.469826 0.252517 0.081247 189 222 38
-0.201219 -0.183883 -0.224482 68 1 84
0.057980 0.197507 -0.366624 68 1 84
-0.274303 0.015227 -0.236292 66 61 132
0.648974 -0.263025 0.110390 68 1 84
-0.395743 -0.121311 -0.183477 68 1 84
-0.654376 -0.426468 0.350175 68 1 84
-0.559491 0.262512 0.374446 30 159 136
-0.247895 0.317514 -0.176644 68 1 84
-0.104521 0.090555 -0.325516 68 1 84
-0.317989 0.086637 -0.206795 40 123 142
0.327373 -0.516851 -0.324225 68 1 84
-0.352395 -0.427268 -0.259502 68 1 84
-0.161450 -0.431688 -0.329266 68 1 84
-0.319265 0.116467 -0.199547 54 91 140
-0.198599 0.215552 -0.287314 68 1 84
-0.039158 -0.057934 -0.481223 56 86 139
0.560127 -0.262800 -0.037097 68 1 84
-0.536738 -0.253987 -0.064916 68 1 84
0.626612 0.050270 0.320305 57 85 139
0.156529 -0.315287 -0.184660 68 1 84
-0.627240 -0.444785 0.186070 68 1 84
-0.649541 -0.554232 0.355707 68 1 84
-0.663600 -0.396049 0.443943 68 1 84
0.656794 -0.359229 0.212861 68 1 84
-0.348526 0.117299 -0.177407 40 123 142
0.559828 0.092612 0.131227 46 108 142
0.495183 0.170844 0.057490 30 157 136
0.206549 -0.304933 -0.166168 68 1 84
0.624595 -0.449995 0.157314 68 1 84
0.494226 0.364996 0.494755 61 75 137
-0.624826 0.001007 0.268812 68 1 84
-0.678895 -0.172134 0.414240 68 1 84
-0.600362 0.165722 0.404116 68 1 84
0.569868 -0.443844 -0.025584 68 1 84
0.451571 0.400499 0.155196 36 132 141
0.415039 0.428194 0.106945 39 173 128
-0.619500 -0.268575 0.085616 68 1 84
0.275648 0.581871 0.089726 51 97 141
-0.446686 0.442967 0.334071 51 182 121
-0.137892 0.624600 -0.097762 68 1 84
0.643727 -0.483243 0.250971 68 1 84
-0.677038 -0.220541 0.440491 68 1 84
-0.353488 0.173573 -0.153464 54 90 140
0.570259 -0.050899 0.002701 71 39 119
-0.412916 0.207878 -0.060553 40 123 142
-0.242817 -0.378744 -0.259192 70 47 124
-0.603575 -0.044058 0.135074 71 21 103
-0.566207 0.260937 0.479304 60 78 138
0.600451 0.151665 0.342215 39 173 128
0.601769 -0.113291 0.025557 68 1 84
-0.042192 -0.366429 -0.305412 70 9 92
-0.354570 0.398525 -0.006057 70 48 125
-0.616447 -0.136398 0.084724 68 1 84
0.470692 0.011957 -0.094412 57 185 118
0.532578 0.096175 0.068550 35 135 141
0.392527 0.088744 -0.142132 31 148 139
-0.668106 -0.342836 0.399031 68 1 84
-0.137872 -0.325753 -0.173829 71 44 123
-0.361080 0.458103 0.043937 35 135 141
0.586727 0.176022 0.312449 39 173 128
-0.568386 0.241205 0.377587 49 101 141
0.519248 0.103968 0.048534 31 147 139
0.609465 -0.531162 0.104512 68 1 84
-0.318902 -0.428371 -0.277972 68 1 84
-0.516134 -0.002848 -0.039358 48 103 141
-0.143676 -0.471055 -0.366274 68 1 84
-0.626000 -0.032674 0.239106 68 1 84
-0.095377 0.023557 -0.431987 68 1 84
0.105219 0.025365 -0.449745 68 1 84
-0.678670 -0.134528 0.419534 68 1 84
-0.228717 -0.023568 -0.254198 68 1 84
0.586527 0.057421 0.175376 42 118 142
0.311141 0.520651 0.010129 68 1 84
-0.067307 -0.057451 -0.454449 69 50 127
0.087086 0.571670 -0.231191 68 1 84
0.610017 -0.087191 0.070420 68 1 84
0.612657 0.025977 0.236745 68 1 84
0.073340 0.332289 -0.310414 68 1 84
-0.671421 -0.290622 0.299877 68 1 84
0.470722 0.208611 0.040653 44 113 142
-0.498340 0.216967 0.112028 215 226 25
0.413091 0.468637 0.158582 38 128 142
0.551147 0.283513 0.348798 35 168 131
-0.040578 0.271241 -0.312875 68 1 84
-0.445274 0.093948 -0.080296 30 151 138
0.644356 -0.543852 0.262293 68 1 84
0.582179 0.066131 0.170330 54 90 140
-0.185925 -0.440919 -0.333584 68 1 84
0.509586 -0.338930 -0.063710 68 1 84
0.535501 0.268171 0.236026 41 175 127
-0.012897 0.625657 -0.174610 68 1 84
-0.425240 0.445208 0.159101 30 156 137
-0.470389 0.174698 0.020414 57 185 118
0.587936 0.200410 0.369706 81 196 104
-0.192162 -0.378068 -0.205403 70 11 94
0.672311 -0.174511 0.324433 68 1 84
-0.181417 0.255676 -0.276870 68 1 84
0.632311 0.093116 0.432660 57 84 139
-0.058426 -0.094506 -0.436751 58 82 139
-0.347074 0.045722 -0.195095 40 122 142
0.045205 0.289785 -0.305120 68 1 84
-0.644464 -0.372487 0.206378 68 1 84
0.503022 0.368742 0.399507 30 153 138
0.327616 0.187582 -0.181051 70 47 124
0.444766 0.193959 -0.016409 53 183 120
0.522576 0.338848 0.408705 30 156 137
-0.467192 0.312126 0.122384 233 228 25
0.583203 0.136311 0.250301 36 134 141
0.281977 0.373518 -0.124474 71 40 120
-0.062713 -0.419370 -0.349042 68 1 84
-0.675215 -0.100358 0.494419 68 1 84
0.160360 0.605831 -0.141977 68 1 84
-0.362905 0.528653 0.222529 62 188 115
0.115900 0.341992 -0.293401 68 1 84
0.247136 0.579996 -0.040650 68 1 84
0.663518 -0.399394 0.357151 68 1 84
-0.263918 0.155997 -0.240171 68 1 84
-0.125931 -0.416344 -0.321609 69 6 90
-0.516926 0.067958 0.021831 79 195 105
-0.287112 0.306814 -0.159125 72 35 116
0.235973 -0.206915 -0.193038 71 37 117
0.243672 -0.384135 -0.246465 68 1 84
-0.462718 -0.430571 -0.167631 68 1 84
-0.385807 -0.418351 -0.229837 69 5 88
0.079116 -0.426127 -0.353329 68 1 84
-0.582358 0.101799 0.229642 61 76 137
0.609964 0.156769 0.490969 60 78 138
-0.562782 0.025736 0.083955 36 134 141
0.340049 0.014277 -0.191841 51 97 141
-0.624485 -0.269596 0.098168 68 1 84
0.676770 -0.099318 0.482382 68 1 84
-0.166084 0.214888 -0.309287 68 1 84
0.682105 -0.529800 0.438798 68 1 84
-0.467667 0.066530 -0.063291 41 175 127
-0.575359 0.230213 0.399256 58 83 139
0.303739 0.126172 -0.211061 50 99 141
-0.302576 -0.021976 -0.222778 68 57 130
-0.371068 0.317930 -0.050166 53 93 140
-0.362785 -0.005422 -0.191772 44 114 142
-0.238509 -0.432023 -0.307073 68 1 84
-0.556120 -0.013121 0.026131 38 128 142
0.553724 0.276716 0.343926 42 176 126
-0.289952 0.296761 -0.163356 72 25 107
0.266862 -0.361052 -0.193416 68 1 84
0.599184 0.175568 0.388432 30 158 136
-0.599360 0.174497 0.426410 68 1 84
0.675701 -0.217413 0.327036 68 1 84
0.109435 0.534678 -0.237656 68 1 84
0.050345 -0.221887 -0.379474 72 30 112
-0.533746 0.326969 0.449539 35 168 131
-0.524840 0.078613 0.047665 38 172 129
-0.383046 -0.240205 -0.158593 68 1 84
0.606993 0.132057 0.342245 35 135 141
0.669001 -0.333587 0.236917 68 1 84
0.577144 -0.381493 0.002531 68 1 84
-0.671623 -0.176161 0.342495 68 1 84
0.603095 0.056256 0.236384 66 64 133
-0.665503 -0.392323 0.417382 68 1 84
0.626486 -0.455990 0.167703 68 1 84
-0.336832 0.072589 -0.197268 36 132 141
0.677676 -0.284319 0.313624 68 1 84
0.276247 -0.416008 -0.278692 68 1 84
-0.651919 -0.597874 0.377272 68 1 84
-0.175096 -0.410065 -0.278541 71 15 98
0.500278 0.375229 0.356279 32 144 140
-0.534474 0.209763 0.193976 38 172 129
0.662540 -0.073347 0.338372 68 1 84
0.183402 0.479523 -0.189479 68 1 84
0.556278 0.015731 0.037194 48 103 141
-0.142379 0.580329 -0.172622 68 1 84
-0.522082 0.160269 0.116538 38 128 142
-0.617867 -0.067248 0.165255 68 1 84
0.681768 -0.506739 0.436827 68 1 84
-0.375781 0.027320 -0.178485 35 137 141
-0.135923 0.063439 -0.299985 68 1 84
-0.287353 -0.327750 -0.186737 67 58 131
0.089706 0.630509 -0.146328 68 1 84
-0.331654 0.115398 -0.190834 44 113 142
0.639235 0.045805 0.372195 69 50 127
0.143393 0.497749 -0.223205 68 1 84
0.467398 0.085151 -0.055587 37 171 129
0.085280 -0.341449 -0.279441 68 1 84
0.268679 -0.418705 -0.282598 68 1 84
0.493083 0.385354 0.332781 31 149 139
-0.449225 0.035656 -0.107131 41 121 142
0.181989 0.377088 -0.211878 68 1 84
0.586618 -0.070465 0.019843 69 50 127
0.359595 -0.258811 -0.150464 67 60 132
0.046277 0.512735 -0.261212 68 1 84
0.354723 0.078952 -0.174959 34 138 141
0.624538 -0.273032 0.063065 68 1 84
-0.323855 0.557637 0.198834 81 196 104
-0.524970 -0.547680 -0.066864 68 1 84
-0.653888 -0.440039 0.380818 68 1 84
-0.097850 -0.362318 -0.235835 69 5 88
-0.667237 -0.332018 0.404668 68 1 84
-0.649710 -0.376208 0.226791 68 1 84
-0.566785 -0.415166 0.028274 68 1 84
0.316449 -0.257424 -0.165521 72 26 108
-0.619827 -0.242840 0.080472 68 1 84
0.601592 0.178680 0.456697 46 109 142
0.390662 0.121527 -0.132027 31 146 140
-0.419713 -0.051251 -0.163814 55 89 140
-0.634519 -0.526615 0.245720 68 1 84
-0.470705 -0.211253 -0.136898 68 1 84
0.111806 0.633040 -0.117906 68 1 84
-0.031179 0.251079 -0.346007 68 1 84
0.570695 -0.307620 -0.005385 68 1 84
0.393164 -0.014000 -0.161912 52 95 141
0.096785 0.633433 -0.129854 68 1 84
-0.653345 -0.188275 0.195682 68 1 84
-0.630230 0.059241 0.359202 68 1 84
-0.586885 0.160978 0.313416 71 38 118
-0.542890 -0.009127 0.001962 42 117 142
-0.366028 -0.044357 -0.192283 43 115 142
0.665303 -0.325188 0.217214 68 1 84
0.362276 0.436722 0.024829 53 92 140
0.428295 0.113696 -0.093449 34 138 141
0.108721 0.181852 -0.350533 68 1 84
-0.186081 0.008705 -0.270974 68 1 84
0.135556 -0.197438 -0.285281 72 26 108
0.679029 -0.400794 0.465222 68 1 84
0.020375 0.195493 -0.367237 68 1 84
0.632993 -0.268519 0.076016 68 1 84
-0.357572 -0.515910 -0.300212 68 1 84
-0.652938 -0.147444 0.231749 68 1 84
-0.618467 0.053385 0.300031 68 1 84
-0.538492 0.060103 0.058990 35 168 131
0.434407 0.291943 0.034428 34 137 141
-0.158952 0.388566 -0.211198 68 1 84
0.079671 -0.097088 -0.434412 67 60 132
0.289811 0.490016 -0.057530 68 1 84
-0.220727 0.040992 -0.258384 68 1 84
-0.325980 -0.427989 -0.274019 68 1 84
0.651452 -0.478968 0.287905 68 1 84
0.646191 -0.346219 0.177169 68 1 84
-0.466539 -0.219076 -0.135967 68 1 84
-0.243420 -0.106441 -0.232235 68 1 84
0.107009 0.592760 -0.202763 68 1 84
-0.059453 0.086373 -0.359802 68 1 84
0.631158 -0.516138 0.199489 68 1 84
-0.280321 0.543944 0.000510 68 1 84
-0.450617 0.059678 -0.092239 43 116 142
-0.280933 0.576605 0.077829 67 58 131
0.076650 -0.266582 -0.327033 68 1 84
0.176931 0.619568 -0.083953 68 1 84
-0.003519 -0.100812 -0.470547 66 64 133
0.015805 0.373491 -0.272973 68 1 84
-0.628223 -0.162198 0.110462 68 1 84
-0.060837 -0.135914 -0.396105 43 116 142
-0.153437 0.471680 -0.192825 68 1 84
-0.426873 -0.084281 -0.166308 59 80 138
0.674930 -0.222348 0.479954 68 1 84
-0.140269 -0.042940 -0.327988 71 39 119
0.179504 0.165621 -0.307801 68 1 84
-0.498758 0.260596 0.148655 103 204 92
0.370569 0.518081 0.161155 42 118 142
-0.039356 0.052937 -0.376546 68 1 84
0.322199 0.211483 -0.178796 66 64 133
-0.087316 -0.287088 -0.247070 71 17 99
-0.381437 0.263523 -0.073205 42 118 142
0.659472 -0.110987 0.288708 68 1 84
0.442606 -0.361930 -0.121282 68 1 84
0.197033 -0.171777 -0.227842 70 48 125
-0.675702 -0.146462 0.386549 68 1 84
0.101064 0.162202 -0.351688 68 1 84
0.585973 -0.018990 0.072381 68 57 130
0.018003 -0.052777 -0.499732 68 1 84
-0.118548 0.405636 -0.221506 68 1 84
0.307038 0.038335 -0.210249 41 120 142
0.641307 -0.233579 0.087899 68 1 84
0.676254 -0.193930 0.363249 68 1 84
-0.235146 0.301047 -0.188517 68 1 84
-0.108326 0.187687 -0.343235 68 1 84
0.685348 -0.524365 0.471568 68 1 84
-0.371230 0.520121 0.261430 30 155 137
0.139305 -0.019537 -0.413410 72 32 113
-0.673716 -0.093559 0.406243 68 1 84
-0.079153 0.030454 -0.439144 68 1 84
0.288798 -0.123877 -0.197829 60 77 138
0.007466 -0.206666 -0.397221 66 61 132
-0.052390 0.207160 -0.365242 68 1 84
0.629701 -0.081686 0.162849 68 1 84
0.157659 0.301808 -0.264454 68 1 84
0.221519 -0.079812 -0.244427 62 73 137
-0.449175 0.253086 0.040181 136 213 71
-0.603203 0.171197 0.482798 68 1 84
0.222319 -0.155680 -0.219527 71 38 118
-0.195713 0.092419 -0.276295 68 1 84
-0.372612 0.520331 0.233930 69 191 111
-0.423752 -0.421299 -0.197055 68 1 84
0.415723 -0.144660 -0.160986 68 1 84
0.550575 0.264924 0.551876 59 81 138
0.395014 0.427984 0.071352 58 83 139
0.556251 0.277819 0.390718 35 168 131
-0.268638 0.050434 -0.237617 72 35 116
-0.673336 -0.292834 0.350070 68 1 84
-0.066752 -0.282626 -0.281195 68 1 84
-0.652413 -0.469286 0.408221 68 1 84
-0.658327 -0.443766 0.419080 68 1 84
-0.666122 -0.313032 0.423601 68 1 84
-0.129579 0.267915 -0.280266 68 1 84
0.671129 -0.290741 0.421344 68 1 84
0.615060 -0.334057 0.083626 68 1 84
-0.297621 0.085761 -0.219037 57 85 139
-0.299150 0.572413 0.149153 32 164 133
0.674818 -0.357938 0.292854 68 1 84
0.599201 -0.416242 0.037353 68 1 84
0.242475 -0.344025 -0.177108 68 1 84
-0.541678 0.303523 0.500534 44 113 142
0.415171 0.236683 -0.040760 30 154 137
-0.088925 -0.030597 -0.448035 71 18 101
-0.212117 0.222585 -0.274638 68 1 84
-0.066082 0.067069 -0.350362 68 1 84
-0.543251 0.287131 0.330968 68 190 112
-0.081186 -0.025773 -0.458819 71 17 99
-0.014802 -0.013217 -0.509156 68 3 87
0.209845 -0.082410 -0.252038 70 49 126
-0.537445 0.271499 0.271773 32 165 133
-0.545809 0.198259 0.214402 32 144 140
-0.096048 0.017517 -0.440207 68 1 84
-0.172898 -0.257371 -0.196047 68 1 84
-0.038993 0.528721 -0.255544 68 1 84
-0.011342 -0.402319 -0.340612 68 1 84
-0.289627 0.474879 -0.044025 68 1 84
0.655931 -0.129611 0.248376 68 1 84
0.365479 0.292746 -0.081792 55 88 140
-0.663093 -0.019684 0.567975 68 1 84
0.117895 0.598064 -0.189656 68 1 84
0.520698 0.269395 0.194658 91 200 98
0.621648 0.108678 0.547084 68 1 84
0.676232 -0.511609 0.403717 68 1 84
0.498026 0.313054 0.179308 30 159 136
0.448232 0.446973 0.273017 64 189 114
0.453083 -0.405782 -0.180112 68 1 84
-0.201595 0.531464 -0.137924 68 1 84
-0.478240 -0.498839 -0.185144 68 1 84
-0.637265 -0.190445 0.129792 68 1 84
-0.136031 -0.008018 -0.375922 72 29 111
-0.655574 -0.574931 0.427306 68 1 84
-0.288918 0.426383 -0.073645 68 1 84
0.654724 -0.155654 0.214200 68 1 84
0.527809 0.327076 0.330097 35 137 141
0.397139 -0.467673 -0.274640 68 1 84
-0.405514 0.419579 0.086204 31 148 139
-0.423261 -0.225032 -0.151832 68 1 84
0.612365 0.120401 0.563625 68 1 84
0.676003 -0.339803 0.405512 68 1 84
0.567168 0.183555 0.243892 31 146 140
0.568058 0.074257 0.132986 56 86 139
0.485905 0.355327 0.192244 54 184 119
-0.444169 -0.484092 -0.229288 68 1 84
-0.116109 0.037129 -0.356507 68 3 87
-0.579215 0.228115 0.436617 72 26 108
0.669079 -0.384071 0.380933 68 1 84
0.296505 -0.455042 -0.316101 68 1 84
-0.148090 -0.381023 -0.207641 71 24 106
0.505808 0.365403 0.320440 37 171 129
-0.529979 0.138665 0.115199 35 136 141
-0.030927 0.608830 -0.202994 68 1 84
-0.398689 -0.080511 -0.178622 70 45 124
-0.469807 -0.164408 -0.149547 68 1 84
0.243385 0.591538 -0.007445 68 1 84
-0.072379 0.279467 -0.296949 68 1 84
0.257819 0.522485 -0.091158 68 1 84
0.468158 -0.069504 -0.124987 33 141 140
-0.156428 0.334211 -0.246596 68 1 84
-0.217351 0.072783 -0.262367 68 1 84
0.059030 -0.011104 -0.494901 71 38 118
-0.381403 0.511500 0.194587 56 185 118
0.668342 -0.163723 0.304020 68 1 84
-0.035162 0.026728 -0.496423 68 1 84
0.128060 0.081710 -0.321579 68 1 84
0.284542 -0.372157 -0.220537 68 1 84
-0.100130 0.484416 -0.231063 68 1 84
-0.144007 -0.152921 -0.286285 68 1 84
0.421260 -0.074308 -0.153095 58 82 139
-0.679933 -0.140192 0.470218 68 1 84
-0.603144 -0.517025 0.143240 68 1 84
-0.612307 -0.061960 0.147641 69 6 90
-0.465354 0.269801 0.085107 181 221 43
0.289026 0.574519 0.100108 58 83 139
0.572631 -0.426313 -0.024176 68 1 84
-0.159161 0.393430 -0.208618 68 1 84
0.675330 -0.196747 0.408482 68 1 84
-0.510313 -0.464862 -0.114924 68 1 84
-0.536592 0.305484 0.518404 37 130 142
0.624470 -0.554113 0.170115 68 1 84
0.505724 -0.387971 -0.108004 68 1 84
-0.619881 -0.148271 0.090259 68 1 84
-0.291476 -0.005480 -0.228453 70 49 126
0.453168 0.145036 -0.036713 48 180 122
0.143203 0.246385 -0.317869 68 1 84
-0.636145 0.076116 0.444740 68 1 84
-0.640448 -0.445757 0.239313 68 1 84
0.361845 0.165500 -0.148828 42 118 142
-0.273068 0.532376 -0.025496 68 1 84
-0.230296 0.034739 -0.254485 68 1 84
-0.546703 -0.072472 -0.041950 64 67 135
-0.250863 0.187638 -0.250703 68 1 84
-0.068955 -0.338556 -0.257748 68 1 84
0.104581 -0.368802 -0.278115 68 1 84
0.072761 -0.254137 -0.342367 68 1 84
0.254746 0.030168 -0.240495 71 40 120
0.485738 0.381056 0.232437 32 164 133
-0.675437 -0.209539 0.378591 68 1 84
-0.314876 0.337496 -0.108737 54 90 140
0.640591 -0.381455 0.179468 68 1 84
-0.107236 -0.085750 -0.356997 64 68 135
0.419938 0.333469 0.038254 30 156 137
0.337031 -0.192093 -0.173673 69 54 129
-0.387907 -0.537646 -0.279744 68 1 84
-0.626437 0.090679 0.395587 68 1 84
-0.551501 0.219180 0.254353 30 157 136
-0.218603 0.484166 -0.128570 68 1 84
-0.592458 -0.502831 0.106929 68 1 84
-0.380441 0.232655 -0.093037 50 99 141
0.248457 -0.420594 -0.288436 68 1 84
0.191898 0.378647 -0.204095 68 1 84
0.237023 -0.260031 -0.175926 68 1 84
-0.564120 -0.570898 0.042650 68 1 84
-0.335986 -0.290958 -0.172897 66 62 133
-0.376161 -0.291044 -0.150280 68 1 84
-0.238461 0.108003 -0.254621 68 1 84
0.530733 0.325820 0.361877 31 147 139
-0.489924 0.177565 0.062218 39 126 142
-0.533002 -0.309443 -0.043395 68 1 84
