ply
format ascii 1.0
element vertex 1275
property float x
property float y
property float z
property uchar red
property uchar green
property uchar blue
end_header
-0.637318 -0.271364 0.380453 33 140 141
-0.588602 0.067054 0.348180 70 11 94
-0.488372 -0.412423 -0.120198 41 175 127
-0.358518 0.333438 -0.040676 68 1 84
-0.086035 0.271501 -0.297541 68 1 84
0.137093 -0.374806 -0.225095 68 1 84
-0.300952 -0.149256 -0.153349 70 48 125
-0.434757 -0.291088 -0.052405 31 161 135
-0.335230 -0.366220 -0.147122 32 145 140
-0.653009 -0.394318 0.363498 50 181 122
0.369071 -0.002315 -0.158393 68 1 84
0.357961 0.460400 0.142996 68 1 84
0.372292 -0.367084 -0.153803 58 82 139
0.612552 -0.120073 0.203946 68 1 84
-0.640737 -0.296258 0.300146 37 131 141
0.558384 0.171222 0.375820 68 1 84
-0.544673 0.229916 0.388234 72 33 114
-0.557842 0.091848 0.202864 64 67 135
-0.561062 0.138309 0.467010 72 29 111
0.127333 -0.029656 -0.298462 68 1 84
-0.234191 0.542030 0.034784 68 1 84
-0.268154 0.425914 -0.090126 68 1 84
0.359953 -0.112911 -0.161863 68 1 84
-0.596937 -0.303092 0.137324 31 147 139
0.275501 -0.490323 -0.294013 68 1 84
-0.225549 -0.408812 -0.252199 57 84 139
-0.430908 0.217407 0.001817 68 1 84
-0.434841 -0.427190 -0.180499 31 161 135
0.381728 0.377711 0.060223 68 1 84
-0.514230 0.000746 -0.001127 55 89 140
-0.609355 -0.161710 0.217306 49 101 141
-0.478563 0.328831 0.216873 71 44 123
0.039817 0.038199 -0.356181 68 1 84
0.259905 0.187383 -0.178505 68 1 84
0.390994 -0.118742 -0.149023 68 1 84
-0.069539 -0.143171 -0.372782 68 1 84
0.418593 -0.452469 -0.203413 48 104 141
0.071075 -0.124713 -0.370799 68 1 84
0.121220 -0.053501 -0.242909 68 1 84
-0.438490 0.119088 -0.045604 72 29 111
-0.178039 0.496437 -0.159597 68 1 84
-0.576174 0.127325 0.376466 68 1 84
0.437861 0.316299 0.102113 68 1 84
-0.623062 -0.196771 0.454755 50 98 141
-0.492152 0.255209 0.147025 69 52 127
-0.142502 -0.012430 -0.273412 68 1 84
0.560161 0.168999 0.399531 68 1 84
-0.489034 -0.174579 -0.067719 47 106 141
0.315573 0.508587 0.187419 68 1 84
0.392328 -0.331188 -0.094437 66 64 133
0.052536 0.344039 -0.253784 68 1 84
-0.582332 0.063662 0.284915 72 30 112
0.039124 -0.012694 -0.468328 68 1 84
0.530320 0.143174 0.177274 68 1 84
0.553150 0.120523 0.260214 68 1 84
-0.517519 0.006329 0.007835 50 98 141
-0.572986 0.142807 0.369051 69 8 91
-0.552073 0.180584 0.252070 70 48 125
0.507420 0.033229 -0.007436 68 1 84
-0.176265 -0.363922 -0.178460 59 80 138
-0.339309 0.337726 -0.063032 68 1 84
-0.450271 0.339009 0.141718 68 1 84
0.051314 0.000623 -0.372276 68 1 84
-0.195219 0.278439 -0.213784 68 1 84
0.235416 0.471763 -0.057389 68 1 84
0.562326 0.024950 0.195472 68 1 84
-0.561478 -0.061201 0.043126 51 96 141
0.575503 -0.236857 0.031854 68 1 84
-0.598130 -0.505376 0.135502 202 224 30
0.100915 -0.393179 -0.291880 68 1 84
-0.424244 0.396577 0.289750 72 35 116
0.250277 -0.272193 -0.155804 68 1 84
-0.218026 -0.424133 -0.284593 69 8 91
0.110455 0.587828 -0.062567 68 1 84
0.565901 0.105992 0.515805 68 1 84
0.559968 0.037887 0.200039 68 1 84
0.696444 -0.425810 0.330944 44 112 142
-0.370324 0.440647 0.167348 70 9 92
-0.552589 -0.473556 0.016119 157 217 58
-0.106566 -0.310614 -0.195067 72 28 110
0.570554 -0.320760 0.040395 62 72 136
-0.630381 -0.231303 0.282734 34 138 141
-0.562917 0.095991 0.497964 71 42 121
0.085242 -0.287407 -0.195347 68 1 84
0.423059 -0.348882 -0.097046 64 68 135
-0.455095 0.111280 -0.026044 67 60 132
0.399936 0.229973 -0.030480 68 1 84
-0.622641 -0.206233 0.454937 52 94 141
0.497699 0.000320 -0.046264 68 1 84
-0.375739 -0.361230 -0.144209 32 143 140
0.511330 -0.150022 -0.070337 68 1 84
0.526683 -0.316888 -0.010492 70 48 125
0.200649 0.403392 -0.123801 68 1 84
-0.636040 -0.320332 0.487759 31 149 139
0.341852 0.234228 -0.103286 68 1 84
-0.048943 -0.037028 -0.464110 68 1 84
-0.389880 -0.001252 -0.134586 65 66 134
0.447922 0.387200 0.246910 68 1 84
-0.417585 0.124032 -0.072959 68 1 84
0.166608 -0.359749 -0.165045 70 12 95
0.045652 -0.251151 -0.317689 68 1 84
-0.508914 0.063952 0.035786 66 64 133
0.211093 0.071341 -0.206169 68 1 84
-0.534315 -0.471525 -0.039277 212 225 26
0.700280 -0.540225 0.284202 46 108 142
-0.501466 -0.377525 -0.050880 105 204 91
0.629785 -0.108900 0.365021 68 1 84
-0.363025 0.024903 -0.152015 68 1 84
-0.547549 -0.001281 0.069571 54 91 140
-0.330660 -0.185046 -0.134143 58 82 139
0.473911 -0.166717 -0.097918 68 1 84
0.493086 0.268403 0.183251 68 1 84
0.095557 -0.128089 -0.282614 68 1 84
0.137790 0.547505 -0.119048 68 1 84
0.497488 0.328897 0.405386 68 1 84
0.625562 -0.282484 0.136040 63 69 135
-0.393710 -0.432844 -0.210252 30 152 138
0.565904 0.146334 0.384391 68 1 84
0.094471 0.519261 -0.173772 68 1 84
-0.621152 -0.171287 0.464748 55 88 140
-0.583683 0.077374 0.420772 72 29 111
0.278071 0.412838 -0.048478 68 1 84
-0.501544 -0.384124 -0.060345 87 198 101
0.610792 -0.010990 0.418518 68 1 84
-0.149359 -0.108919 -0.232481 68 1 84
-0.584573 -0.103613 0.084416 61 76 137
0.076292 -0.294066 -0.208687 68 1 84
-0.609637 -0.107627 0.277301 68 55 129
-0.138072 0.024742 -0.224944 68 1 84
0.031283 0.265465 -0.296801 68 1 84
0.276373 0.227619 -0.161060 68 1 84
-0.262851 0.448154 -0.089005 68 1 84
-0.559794 0.148531 0.250930 71 40 120
0.337523 -0.355373 -0.143723 68 55 129
0.279564 -0.078235 -0.194733 68 1 84
0.531901 0.055566 0.087798 68 1 84
-0.155420 0.326565 -0.222511 68 1 84
-0.567747 0.133168 0.437246 72 25 107
-0.199838 -0.086191 -0.199091 68 1 84
-0.239391 0.302026 -0.165320 68 1 84
0.075760 0.017370 -0.308718 68 1 84
-0.063060 0.133712 -0.318886 68 1 84
0.588504 -0.045038 0.219302 68 1 84
0.462350 -0.162857 -0.105773 68 1 84
0.561679 0.025123 0.192462 68 1 84
-0.300302 0.489294 0.048931 68 55 129
0.059053 0.050620 -0.325905 68 1 84
0.263161 -0.053448 -0.202931 68 1 84
0.501478 -0.339661 -0.039443 51 96 141
-0.548637 0.206427 0.430073 71 24 106
-0.631963 -0.222484 0.349472 39 125 142
0.523357 0.112832 0.128077 68 1 84
-0.379900 0.344204 -0.000212 71 24 106
-0.062600 -0.289659 -0.288370 68 1 84
0.117007 -0.375164 -0.245599 68 1 84
0.148293 0.043950 -0.220009 68 1 84
0.630923 -0.196288 0.187672 68 1 84
-0.211898 -0.260914 -0.148285 67 58 131
0.580731 -0.049615 0.168833 68 1 84
-0.546430 0.217792 0.418206 71 21 103
0.528333 0.110727 0.143435 68 1 84
0.134221 0.273980 -0.243218 68 1 84
-0.215233 -0.193510 -0.165149 68 1 84
-0.273223 0.387541 -0.101444 68 1 84
-0.298370 0.468162 -0.008352 71 20 102
0.559397 -0.077533 0.018196 68 1 84
0.183426 0.349158 -0.165890 68 1 84
0.595258 -0.350542 0.087152 62 72 136
0.126512 0.567097 -0.101120 68 1 84
-0.619185 -0.115349 0.362958 61 74 137
0.273562 -0.315827 -0.149850 68 1 84
-0.614545 -0.247178 0.191395 33 142 140
-0.643542 -0.321674 0.405390 39 124 142
0.257559 -0.388803 -0.217381 71 37 117
0.225733 0.151310 -0.200457 68 1 84
-0.404995 -0.239323 -0.086432 42 117 142
0.531389 0.214657 0.255226 68 1 84
0.307670 0.372662 -0.049196 68 1 84
0.163080 -0.435980 -0.312150 68 1 84
0.146451 0.330615 -0.215752 68 1 84
-0.586795 -0.381343 0.118880 62 188 115
-0.459697 0.353945 0.213295 68 1 84
-0.621264 -0.118731 0.381580 69 54 129
0.693495 -0.528796 0.263934 31 146 140
0.274294 0.348450 -0.099824 68 1 84
-0.625873 -0.447860 0.233739 149 215 63
-0.627825 -0.211700 0.278448 50 98 141
-0.554206 -0.360068 0.052792 64 189 114
0.102192 0.040422 -0.257812 68 1 84
0.002509 0.519309 -0.215633 68 1 84
-0.519907 0.088766 0.087752 70 45 124
-0.556207 -0.051197 0.039818 52 95 141
0.627930 -0.446809 0.118243 38 129 142
-0.595897 0.000117 0.307937 72 32 113
0.149341 -0.324576 -0.144955 71 42 121
-0.559234 0.152677 0.252361 72 35 116
-0.353095 0.232952 -0.107494 68 1 84
0.504086 -0.024042 -0.050146 68 1 84
-0.296145 0.431810 -0.051521 68 1 84
-0.501433 0.254895 0.168773 72 29 111
-0.599490 -0.265923 0.140492 30 156 137
-0.259574 0.216553 -0.189892 68 1 84
-0.544737 0.226784 0.292346 72 34 115
-0.658387 -0.465276 0.294362 61 187 116
-0.554341 0.151978 0.230506 61 75 137
-0.504160 -0.483588 -0.096738 107 205 89
0.506387 0.075994 0.032997 68 1 84
0.406984 -0.086183 -0.144347 68 1 84
-0.301295 0.140008 -0.171143 68 1 84
-0.221058 0.469260 -0.132190 68 3 87
0.400596 -0.318471 -0.090120 70 45 124
0.129677 -0.424776 -0.314364 68 1 84
0.170307 -0.394979 -0.253223 68 1 84
-0.320191 -0.173785 -0.140525 53 92 140
-0.599318 -0.348093 0.149409 38 172 129
-0.559919 -0.386457 0.055010 83 197 103
-0.528293 -0.390655 -0.017413 107 205 89
0.389992 0.094006 -0.119730 68 1 84
-0.644589 -0.306493 0.304654 36 134 141
-0.617089 -0.089605 0.376970 67 58 131
-0.619165 -0.164809 0.471181 60 77 138
0.350609 0.340930 -0.024016 68 1 84
-0.596619 0.005626 0.319574 72 29 111
0.389434 -0.484447 -0.229776 69 53 128
-0.347960 0.165560 -0.131500 68 1 84
0.579735 -0.046352 0.169743 68 1 84
-0.550607 0.181806 0.466834 70 14 97
0.175863 -0.381870 -0.205662 68 1 84
0.546946 0.023975 0.106197 68 1 84
0.603509 -0.141214 0.118307 68 1 84
0.663746 -0.270129 0.355242 68 1 84
0.144313 -0.135026 -0.219781 68 1 84
0.587092 0.011624 0.298625 68 1 84
0.455139 0.325558 0.152008 68 1 84
-0.604140 -0.232144 0.156210 37 131 141
0.349581 0.054953 -0.159604 68 1 84
0.607074 -0.030678 0.342760 68 1 84
0.098956 -0.368722 -0.249511 68 1 84
-0.401203 0.417212 0.284865 71 37 117
-0.273126 0.512803 0.034984 68 1 84
0.471582 -0.080435 -0.101743 68 1 84
-0.234733 0.370945 -0.140753 71 24 106
-0.084830 0.101693 -0.301745 68 1 84
-0.688433 -0.434663 0.450436 32 164 133
-0.285189 0.011401 -0.192293 68 1 84
-0.408486 -0.257164 -0.079502 36 132 141
-0.369409 0.414751 0.063578 68 1 84
-0.468716 0.309794 0.150688 71 37 117
-0.554372 -0.002508 0.093758 62 72 136
-0.268709 0.433981 -0.086486 69 8 91
0.591209 -0.267695 0.063487 70 48 125
-0.384282 -0.388139 -0.176997 30 151 138
0.639995 -0.185609 0.246065 68 1 84
0.114993 0.261096 -0.253941 68 1 84
-0.017865 0.335209 -0.272058 68 1 84
-0.420130 -0.470644 -0.201643 30 159 136
0.095924 0.559016 -0.140506 68 1 84
0.101753 -0.334672 -0.190129 68 1 84
0.529464 -0.126963 -0.049635 68 1 84
0.121810 0.568712 -0.103307 68 1 84
0.416954 -0.105350 -0.138354 68 1 84
0.455879 -0.024297 -0.102152 68 1 84
-0.236100 -0.297917 -0.142566 62 72 136
0.270380 -0.132768 -0.182741 68 1 84
-0.593951 -0.112575 0.157907 46 107 142
0.545927 0.174942 0.516381 68 1 84
0.032367 -0.396393 -0.311352 68 1 84
-0.592451 -0.057026 0.516350 60 77 138
0.438729 0.035020 -0.099733 68 1 84
-0.604685 -0.108748 0.474365 47 105 141
0.265579 0.444645 -0.039345 68 1 84
-0.594972 -0.193627 0.119126 39 126 142
0.374575 0.296272 -0.024202 68 1 84
-0.118724 -0.049676 -0.343662 68 1 84
0.650956 -0.204492 0.328679 68 1 84
-0.016726 0.586724 -0.124777 68 1 84
0.044045 0.009312 -0.371190 68 1 84
0.487274 -0.415318 -0.124086 43 115 142
0.468657 -0.431337 -0.153337 43 115 142
0.507572 0.298444 0.294170 68 1 84
-0.524616 -0.392313 -0.026804 126 210 78
0.563974 0.152621 0.381196 68 1 84
-0.606221 -0.113696 0.473178 47 106 141
0.405190 0.072707 -0.115783 68 1 84
-0.043675 -0.205601 -0.368083 68 1 84
0.507700 0.131985 0.100292 68 1 84
0.680125 -0.361013 0.411101 70 49 126
-0.171260 0.093640 -0.232082 68 1 84
0.220720 -0.052883 -0.212206 68 1 84
0.590452 -0.533929 0.066141 34 138 141
0.515519 -0.466399 -0.075470 32 144 140
0.575402 0.092344 0.349086 68 1 84
0.591576 0.041658 0.379634 68 1 84
0.690868 -0.430743 0.282844 49 100 141
-0.235135 0.377014 -0.137220 70 45 124
-0.311751 -0.430926 -0.251044 51 96 141
-0.064619 0.574115 -0.145715 68 1 84
0.061309 -0.104871 -0.409732 68 1 84
-0.466402 -0.028510 -0.073065 61 75 137
0.024603 -0.140308 -0.416054 68 1 84
0.079415 0.036510 -0.300189 68 1 84
-0.331536 -0.451562 -0.248545 43 115 142
0.247598 0.167670 -0.187376 68 1 84
0.515819 0.260605 0.245704 68 1 84
-0.233489 -0.200903 -0.156358 71 15 98
-0.144228 0.264443 -0.265523 68 1 84
-0.109117 0.512571 -0.197310 68 1 84
-0.433092 -0.340266 -0.055833 73 193 109
-0.620057 -0.414479 0.215097 75 194 108
0.322690 -0.378279 -0.203407 65 65 134
-0.579681 -0.028266 0.201720 56 86 139
-0.107443 0.142783 -0.300262 68 1 84
0.005444 0.322391 -0.295102 68 1 84
0.064363 -0.004840 -0.375412 68 1 84
0.324130 -0.375762 -0.199126 63 69 135
0.074658 -0.186431 -0.299412 68 1 84
-0.370882 0.007777 -0.147845 71 37 117
-0.229947 0.181708 -0.218340 68 1 84
0.663284 -0.307649 0.452029 71 24 106
0.053415 -0.014476 -0.455701 68 1 84
0.388824 0.257616 -0.028836 68 1 84
-0.054325 -0.330201 -0.282673 68 1 84
0.651897 -0.261150 0.437535 70 12 95
0.603784 -0.026567 0.331006 68 1 84
-0.278203 -0.459276 -0.279461 68 1 84
0.558201 -0.029499 0.060566 68 1 84
0.608630 -0.332065 0.108314 67 59 131
-0.493302 0.321704 0.288499 68 1 84
-0.599832 0.005947 0.355365 71 38 118
0.189885 0.549973 -0.031701 68 1 84
-0.093990 0.580446 -0.117069 68 1 84
-0.071881 -0.157567 -0.358541 68 1 84
-0.215943 0.419197 -0.140947 69 53 128
-0.394926 -0.402912 -0.187961 30 157 136
0.260609 -0.242122 -0.153844 68 1 84
0.368378 0.207427 -0.087586 68 1 84
-0.592780 0.007260 0.442681 68 1 84
0.354510 0.480566 0.192854 68 1 84
0.333103 0.271557 -0.095428 68 1 84
-0.217067 -0.224753 -0.154194 70 12 95
0.021422 -0.319083 -0.292752 68 1 84
-0.611792 -0.142091 0.482428 59 80 138
0.206307 0.560344 0.054179 68 1 84
0.264862 0.337807 -0.115085 68 1 84
0.284224 -0.482884 -0.288243 68 1 84
-0.604912 -0.527376 0.157202 243 229 30
0.529816 0.245189 0.307997 68 1 84
-0.422479 0.100275 -0.078280 68 1 84
-0.172673 -0.106558 -0.211122 68 1 84
-0.532407 -0.093601 -0.021322 36 133 141
0.390113 -0.365305 -0.138050 61 74 137
-0.077991 -0.005677 -0.387136 68 1 84
0.417756 0.374503 0.127561 68 1 84
0.598581 0.021318 0.393546 68 1 84
-0.074189 0.261323 -0.294306 68 1 84
-0.468977 0.142909 0.021930 71 20 102
-0.228978 0.495057 -0.113418 70 48 125
0.153653 0.199989 -0.254632 68 1 84
0.226241 -0.334790 -0.147537 71 24 106
-0.394707 -0.279077 -0.084384 32 143 140
0.008265 -0.347711 -0.296714 68 1 84
-0.554648 0.205852 0.317982 71 17 99
0.280992 -0.368643 -0.158295 70 48 125
0.572141 -0.032665 0.150449 68 1 84
0.392133 0.326099 0.027165 68 1 84
0.376804 0.457609 0.186184 68 1 84
0.373275 -0.483813 -0.242927 72 28 110
-0.412791 0.110460 -0.086204 68 1 84
-0.643952 -0.294185 0.352708 35 137 141
-0.564966 -0.013045 0.133069 60 78 138
0.397449 -0.323576 -0.091396 69 54 129
0.395118 -0.286911 -0.101950 70 14 97
0.044666 -0.244593 -0.325310 68 1 84
0.168649 -0.394667 -0.253451 68 1 84
-0.643198 -0.507033 0.257237 162 218 55
0.263831 -0.133920 -0.184132 68 1 84
-0.578634 -0.268433 0.084211 30 159 136
-0.135425 0.172198 -0.286866 68 1 84
0.211662 -0.057972 -0.213289 68 1 84
0.496831 -0.505434 -0.107489 45 111 142
0.557072 -0.055677 0.029019 68 1 84
-0.422931 0.082573 -0.085651 71 40 120
0.358381 0.059476 -0.152825 68 1 84
-0.439993 -0.034404 -0.097829 66 64 133
0.227984 0.234342 -0.183682 68 1 84
0.324217 -0.085229 -0.178887 68 1 84
-0.140154 0.045342 -0.226524 68 1 84
-0.512937 -0.237570 -0.022337 37 130 142
-0.462401 0.015970 -0.063818 68 57 130
0.241851 0.544299 0.093522 69 5 88
-0.072541 -0.155964 -0.358316 68 1 84
0.356362 -0.364991 -0.160254 66 64 133
0.230987 0.404817 -0.098784 68 1 84
0.535165 0.135521 0.189786 68 1 84
-0.311873 0.040013 -0.181335 68 1 84
0.504842 0.307955 0.308235 68 1 84
-0.472668 -0.452951 -0.150729 81 196 104
0.621351 -0.135424 0.224429 68 1 84
0.388626 -0.091922 -0.152482 68 1 84
0.244529 0.302202 -0.145225 68 1 84
0.462880 0.313729 0.156442 68 1 84
-0.558946 -0.156615 0.009713 44 113 142
0.344170 0.066716 -0.160970 68 1 84
-0.045336 -0.124807 -0.415550 68 1 84
-0.457281 0.362848 0.353556 68 1 84
-0.503233 -0.050490 -0.041582 54 91 140
-0.648140 -0.363990 0.386885 30 158 136
-0.625021 -0.244286 0.422898 47 105 141
-0.437247 0.187540 -0.005116 68 1 84
-0.072433 -0.308505 -0.262174 68 1 84
0.106451 0.143846 -0.287625 68 1 84
0.702380 -0.437099 0.391072 46 108 142
-0.250274 0.043405 -0.198316 68 1 84
-0.285019 0.506540 0.092501 72 29 111
-0.055542 -0.014182 -0.454460 68 1 84
0.560839 -0.034058 0.064613 68 1 84
-0.193280 -0.350767 -0.152739 49 102 141
-0.567097 -0.067487 0.051132 44 112 142
-0.569657 0.063691 0.225729 69 50 127
-0.327276 0.474657 0.113605 71 42 121
-0.300817 0.484704 0.034889 70 47 124
0.680707 -0.362127 0.407721 68 55 129
0.309476 0.218930 -0.136290 68 1 84
0.609744 0.009447 0.445331 68 1 84
0.480098 0.137507 0.038823 68 1 84
0.551239 -0.164469 -0.019246 68 1 84
-0.041705 0.019130 -0.428056 68 1 84
0.049267 -0.191331 -0.357667 68 1 84
0.484349 -0.150541 -0.093486 68 1 84
-0.386223 -0.260867 -0.093459 39 125 142
0.463983 -0.001836 -0.086999 68 1 84
-0.547407 0.041161 0.128674 68 57 130
0.592342 -0.082637 0.168871 68 1 84
0.576759 0.019597 0.259520 68 1 84
-0.012467 0.349392 -0.233350 68 1 84
0.292541 0.469875 0.024128 68 1 84
0.278525 0.051058 -0.197465 68 1 84
0.544490 0.197769 0.314335 68 1 84
0.479490 -0.440214 -0.140402 34 137 141
-0.114112 0.514480 -0.192954 68 1 84
0.163867 0.391318 -0.155356 68 1 84
0.661605 -0.521126 0.176390 32 164 133
-0.069199 0.134986 -0.317591 68 1 84
-0.504465 0.198465 0.126868 71 20 102
0.177477 0.292993 -0.202184 68 1 84
-0.501280 -0.441427 -0.111306 64 189 114
-0.399077 -0.374150 -0.146730 42 176 126
-0.250186 -0.399020 -0.226589 53 93 140
-0.115732 0.047788 -0.248341 68 1 84
-0.633967 -0.249612 0.370910 40 122 142
0.415802 0.440580 0.305667 68 1 84
-0.225767 0.063925 -0.200834 68 1 84
0.151640 0.399659 -0.159745 68 1 84
0.137702 -0.382931 -0.246589 68 1 84
-0.495233 -0.050643 -0.050376 50 99 141
-0.599714 -0.268338 0.141316 30 156 137
0.700446 -0.429846 0.397090 53 93 140
-0.229211 0.385315 -0.138397 72 32 113
-0.108401 -0.419532 -0.307307 68 1 84
0.530180 0.258897 0.393778 68 1 84
0.313138 0.506253 0.162112 68 1 84
0.394177 0.328731 0.032953 68 1 84
-0.401690 -0.413953 -0.194612 33 166 133
0.435923 -0.139902 -0.125275 68 1 84
0.074483 -0.075540 -0.415750 68 1 84
-0.624881 -0.167119 0.429392 57 84 139
0.036493 0.429159 -0.216614 68 1 84
-0.201082 0.454923 -0.151961 68 1 84
-0.339571 0.306961 -0.087009 68 1 84
0.336797 -0.272055 -0.140186 68 1 84
-0.360657 -0.197788 -0.119970 59 80 138
-0.118567 0.057439 -0.247525 68 1 84
0.087690 -0.303742 -0.191367 68 1 84
0.656142 -0.124107 0.498928 68 1 84
0.586438 -0.203812 0.047634 70 14 97
0.228721 -0.396624 -0.233118 68 1 84
0.623648 -0.036040 0.530945 71 43 122
-0.056874 0.434150 -0.230171 68 1 84
-0.616336 -0.167415 0.496116 66 62 133
-0.536855 0.131470 0.162588 70 48 125
-0.609766 -0.408920 0.179166 109 206 88
0.017284 -0.096995 -0.447507 68 1 84
-0.486640 0.085638 0.009011 70 9 92
-0.023220 -0.334126 -0.298048 68 1 84
-0.375512 0.014736 -0.144245 68 1 84
-0.154298 -0.214580 -0.190400 68 3 87
0.333272 0.337496 -0.049524 68 1 84
-0.527822 0.042319 0.061203 60 78 138
-0.381014 -0.244902 -0.099211 44 112 142
-0.405721 -0.392251 -0.168701 33 167 132
0.559383 -0.008264 0.114845 68 1 84
0.598182 -0.006356 0.329659 68 1 84
0.075775 0.192083 -0.301700 68 1 84
-0.059166 -0.297524 -0.287262 68 1 84
-0.457362 -0.335005 -0.039222 91 200 98
0.170835 -0.380833 -0.207030 68 1 84
0.487235 0.287469 0.188808 68 1 84
0.610655 -0.092010 0.250926 68 1 84
0.184540 0.023085 -0.214659 68 1 84
0.013874 -0.280000 -0.324082 68 1 84
-0.529231 -0.419236 -0.040233 194 223 34
-0.143059 0.261578 -0.265180 68 1 84
0.208151 -0.161842 -0.190009 68 1 84
-0.180572 -0.375663 -0.199225 71 40 120
0.538091 0.139206 0.205250 68 1 84
-0.566362 0.093371 0.235706 70 49 126
0.180309 0.435941 -0.129047 68 1 84
0.343129 0.116003 -0.148710 68 1 84
0.521320 -0.008925 -0.014935 68 1 84
0.512008 0.286079 0.283697 68 1 84
0.688902 -0.383705 0.361816 62 73 137
0.569874 -0.258668 0.027545 71 38 118
-0.600278 -0.023363 0.313508 50 99 141
0.492691 -0.084529 -0.084223 68 1 84
0.226894 0.531246 0.008538 68 1 84
-0.534243 0.207045 0.502159 67 60 132
-0.531741 0.231858 0.237643 72 32 113
0.233960 0.137639 -0.196351 68 1 84
0.644151 -0.289326 0.186269 60 78 138
-0.301925 0.474113 0.011439 71 22 105
-0.595501 -0.058663 0.252912 59 81 138
-0.130956 0.014468 -0.304152 68 1 84
-0.549903 0.210449 0.411578 69 50 127
0.548528 0.174937 0.300936 68 1 84
-0.099124 0.540860 -0.180302 68 1 84
-0.243606 -0.366059 -0.160230 34 138 141
0.678381 -0.437776 0.233673 35 135 141
-0.266493 0.051660 -0.194886 68 1 84
-0.009921 -0.186606 -0.394961 68 1 84
0.249556 -0.034836 -0.208213 68 1 84
0.104441 0.288428 -0.277283 68 1 84
0.524002 0.181936 0.187472 68 1 84
0.516478 -0.058047 -0.048228 68 1 84
-0.039764 0.211448 -0.302230 68 1 84
0.117052 -0.138996 -0.243631 68 1 84
0.552948 0.181069 0.345095 68 1 84
0.372315 -0.154339 -0.149019 68 1 84
0.459277 -0.270054 -0.063959 71 38 118
0.537617 -0.475976 -0.029357 35 137 141
0.291463 0.393146 -0.049585 68 1 84
-0.018508 0.237174 -0.286464 68 1 84
0.542635 -0.337286 0.003361 67 60 132
-0.324335 -0.011744 -0.176164 68 1 84
0.138198 -0.441067 -0.317288 68 1 84
0.092566 0.202799 -0.283562 68 1 84
0.401310 0.049651 -0.126257 68 1 84
0.398634 0.452204 0.295166 68 1 84
-0.337445 0.353375 -0.053004 68 1 84
0.210490 0.227413 -0.193350 68 1 84
0.557849 -0.388535 0.016650 46 107 142
-0.598803 -0.071522 0.256328 60 77 138
-0.072559 -0.337260 -0.265040 68 1 84
-0.587225 -0.169473 0.082416 34 138 141
0.389207 -0.373202 -0.153078 60 78 138
0.414516 -0.293394 -0.087354 69 53 128
0.219858 0.548878 0.035397 68 1 84
-0.021067 -0.431284 -0.324633 68 1 84
0.281374 0.529204 0.170767 68 1 84
-0.506813 -0.031375 -0.029695 49 102 141
0.181274 0.135218 -0.227524 68 1 84
-0.599567 0.011941 0.382485 71 43 122
0.565874 0.148669 0.402137 68 1 84
0.665221 -0.276984 0.353714 68 1 84
0.391501 0.116126 -0.109199 68 1 84
-0.009923 -0.299391 -0.315283 68 1 84
-0.497899 -0.457147 -0.113878 35 169 130
-0.373100 0.302232 -0.043156 68 1 84
-0.584692 -0.022856 0.503548 62 73 137
-0.246018 0.440545 -0.111242 71 44 123
0.079163 -0.404379 -0.308501 68 1 84
0.628021 -0.483072 0.118176 35 169 130
0.141775 -0.192401 -0.201524 68 1 84
0.285675 0.213554 -0.156718 68 1 84
0.407305 -0.283655 -0.093879 65 65 134
-0.007096 0.587075 -0.122965 68 1 84
-0.168346 0.555637 -0.115638 68 1 84
-0.228045 -0.096201 -0.189040 68 1 84
0.334416 0.054010 -0.169654 68 1 84
0.012645 -0.375585 -0.304330 68 1 84
-0.252671 0.517218 -0.029857 70 48 125
0.304284 0.023440 -0.190076 68 1 84
0.122863 0.020473 -0.227752 68 1 84
-0.476344 0.337513 0.240035 71 17 99
-0.555514 0.206145 0.352117 68 1 84
0.312504 0.307748 -0.095536 68 1 84
0.031286 0.042670 -0.365215 68 1 84
-0.331823 -0.202506 -0.129647 54 90 140
0.190352 0.324851 -0.173308 68 1 84
-0.238446 -0.425160 -0.277530 72 33 114
0.121612 -0.370510 -0.231005 68 1 84
-0.250582 0.316872 -0.154132 68 1 84
0.155376 0.268253 -0.220136 68 1 84
-0.621498 -0.137562 0.350654 64 68 135
-0.338343 -0.358200 -0.133801 32 164 133
0.282449 0.226437 -0.156839 68 1 84
-0.591121 -0.332016 0.126906 31 147 139
-0.600023 0.008987 0.388079 70 47 124
-0.179105 -0.379743 -0.210153 69 53 128
0.055095 -0.021557 -0.455700 68 1 84
0.492775 0.261996 0.176044 68 1 84
0.574782 0.098005 0.487869 68 1 84
-0.463588 -0.429904 -0.158089 59 186 117
-0.486698 0.082064 0.006282 70 9 92
-0.126006 0.181867 -0.289532 68 1 84
0.480330 -0.051820 -0.087014 68 1 84
0.311816 0.502857 0.142073 68 1 84
0.398137 -0.124978 -0.145429 68 1 84
0.445517 0.155624 -0.010621 68 1 84
-0.229445 0.530907 -0.063650 71 17 99
0.013127 0.443769 -0.225977 68 1 84
0.673909 -0.518757 0.208077 41 175 127
-0.407423 0.344771 0.048190 71 37 117
-0.656848 -0.406782 0.366114 42 176 126
-0.251800 0.501124 -0.067080 70 14 97
-0.164293 0.165811 -0.266336 68 1 84
-0.490483 0.242073 0.130815 72 25 107
-0.431523 -0.215319 -0.082726 39 125 142
-0.008936 0.465598 -0.229367 70 9 92
-0.098709 -0.345624 -0.234244 72 33 114
-0.085258 -0.038436 -0.416320 68 1 84
0.413583 -0.239057 -0.099471 68 1 84
0.357115 -0.296229 -0.126749 69 5 88
0.678956 -0.502950 0.224366 30 154 137
-0.082008 -0.195415 -0.320596 68 1 84
0.224875 0.143848 -0.200896 68 1 84
-0.059937 0.004970 -0.325301 68 1 84
-0.198361 -0.369354 -0.180435 53 92 140
0.026890 0.274685 -0.301239 68 1 84
0.566593 0.102983 0.312622 68 1 84
0.675419 -0.332304 0.313971 71 44 123
0.698989 -0.553263 0.277962 38 127 142
0.221523 0.400849 -0.107992 68 1 84
-0.048768 -0.248926 -0.335962 68 1 84
-0.058845 -0.076614 -0.438617 68 1 84
-0.495799 0.177355 0.097216 70 47 124
-0.415359 -0.026516 -0.116805 67 58 131
0.010647 -0.451131 -0.327563 68 1 84
-0.094819 0.415108 -0.219147 68 1 84
0.432217 0.407097 0.241630 68 1 84
0.306782 0.344275 -0.073929 68 1 84
0.388445 -0.382989 -0.168717 60 77 138
-0.447237 0.141886 -0.018752 71 15 98
-0.618603 -0.220530 0.503073 49 100 141
0.053608 0.588506 -0.110299 68 1 84
0.495574 -0.171343 -0.081558 68 1 84
0.142281 -0.272541 -0.159219 69 8 91
0.707106 -0.451622 0.412980 52 95 141
0.427212 -0.513544 -0.193740 60 77 138
-0.545231 0.195353 0.475705 71 42 121
0.311377 -0.222416 -0.143818 68 1 84
-0.653939 -0.526516 0.281395 129 211 76
0.451127 -0.056019 -0.114070 68 1 84
0.285978 0.517966 0.116100 68 1 84
0.540912 0.229095 0.417054 68 1 84
-0.362964 0.405430 0.033731 68 1 84
-0.480627 -0.497275 -0.133106 85 198 102
0.403481 0.428151 0.190691 68 1 84
-0.487043 0.161154 0.070906 70 11 94
-0.580140 -0.052150 0.168542 53 92 140
-0.276511 -0.159409 -0.157750 71 40 120
-0.256581 0.095941 -0.193148 68 1 84
-0.565553 -0.497606 0.048619 116 208 84
0.455969 0.390698 0.320228 68 1 84
-0.108718 0.268711 -0.289918 68 1 84
-0.566592 0.135964 0.271814 71 38 118
-0.678271 -0.448480 0.360650 103 204 92
-0.318675 0.197189 -0.150732 68 1 84
-0.618712 -0.258658 0.508485 33 140 141
0.288245 0.253434 -0.144814 68 1 84
-0.388166 -0.119051 -0.131927 57 84 139
-0.364198 -0.391144 -0.192053 30 158 136
-0.225659 0.294560 -0.177958 68 1 84
-0.100728 -0.250401 -0.238543 68 1 84
-0.357217 0.453317 0.171958 70 11 94
-0.473162 0.248505 0.099666 70 9 92
0.086608 -0.379769 -0.279286 68 1 84
-0.337425 0.468532 0.136163 68 1 84
0.592761 -0.500843 0.081543 35 168 131
0.550721 0.200777 0.404393 68 1 84
-0.393479 -0.490205 -0.220797 39 126 142
-0.126567 -0.171889 -0.253140 68 1 84
0.054473 -0.168090 -0.364134 68 1 84
0.010316 -0.322556 -0.297985 68 1 84
-0.541478 0.229576 0.419812 71 22 105
-0.494653 0.179266 0.096072 72 33 114
-0.579608 -0.449148 0.087685 181 221 43
-0.244681 0.532623 0.003480 71 42 121
0.360303 -0.045016 -0.167245 68 1 84
-0.093250 -0.135440 -0.326123 68 1 84
-0.522739 0.279391 0.346785 68 1 84
0.516285 0.070294 0.053136 68 1 84
-0.596453 -0.070282 0.475603 66 62 133
-0.509944 0.275225 0.468079 69 54 129
0.155971 0.411328 -0.152774 68 1 84
-0.590862 -0.101125 0.148041 42 119 142
-0.611740 -0.324486 0.183698 32 165 133
-0.396467 0.376164 0.065266 68 1 84
0.432369 0.376329 0.167570 68 1 84
-0.596206 -0.222685 0.125838 33 140 141
-0.606704 -0.467624 0.163869 210 225 27
-0.406718 -0.018465 -0.122756 69 53 128
-0.529809 0.216319 0.504323 71 37 117
0.219231 0.361156 -0.133693 68 1 84
-0.614346 -0.227697 0.196102 37 131 141
0.543410 0.008365 0.056604 68 1 84
0.539705 -0.084684 -0.023899 68 1 84
0.000824 -0.336523 -0.298282 68 1 84
-0.650145 -0.349415 0.372348 35 135 141
0.126487 -0.371346 -0.228120 68 1 84
0.027087 -0.231347 -0.355222 68 1 84
-0.015480 -0.336601 -0.299733 68 1 84
0.250276 0.200248 -0.183825 68 1 84
0.540765 -0.459158 -0.023239 31 146 140
-0.379765 0.433159 0.182669 68 1 84
0.431869 0.381585 0.175390 68 1 84
-0.356202 0.399333 0.014855 68 1 84
0.646435 -0.207149 0.431303 68 1 84
0.097999 -0.369700 -0.252340 68 1 84
-0.137718 -0.028673 -0.310734 68 1 84
0.093780 -0.241764 -0.215916 68 1 84
-0.036112 0.229594 -0.285508 68 1 84
0.517268 -0.470283 -0.071100 33 141 140
0.710616 -0.466660 0.391033 44 113 142
-0.246147 -0.078005 -0.189062 68 1 84
-0.607177 -0.130373 0.237230 54 90 140
-0.112046 0.206366 -0.272561 68 1 84
-0.536849 -0.428077 -0.026870 189 222 38
-0.627452 -0.179718 0.379183 64 68 135
-0.600286 -0.073647 0.261746 63 69 135
-0.456249 -0.168025 -0.091023 57 85 139
-0.204508 0.043636 -0.204514 68 1 84
0.643958 -0.174464 0.426536 68 1 84
0.519550 0.285553 0.382764 68 1 84
0.468549 0.160723 0.037695 68 1 84
-0.504776 0.067803 0.029923 71 44 123
0.572268 0.113826 0.363639 68 1 84
0.517461 0.045427 0.025651 68 1 84
-0.259356 0.360044 -0.128311 68 1 84
-0.068498 -0.296974 -0.274361 68 1 84
0.659552 -0.256544 0.301532 69 8 91
-0.122520 0.048664 -0.240915 68 1 84
0.367728 0.042127 -0.150399 68 1 84
0.325663 0.015612 -0.180282 68 1 84
-0.221528 -0.272969 -0.146952 69 50 127
-0.372995 0.421592 0.091361 68 1 84
0.145217 0.580100 -0.029287 68 1 84
0.009171 0.339109 -0.264621 68 1 84
-0.190935 0.097742 -0.223031 68 1 84
0.413820 0.195558 -0.032561 68 1 84
0.136855 0.158774 -0.269376 68 1 84
0.494486 0.052282 -0.015667 68 1 84
0.412572 0.045309 -0.119340 68 1 84
-0.397072 0.224613 -0.051675 68 1 84
-0.449605 0.234090 0.045288 71 17 99
0.558245 0.167317 0.471123 68 1 84
-0.593028 0.028101 0.423849 72 26 108
0.071029 0.047825 -0.308497 68 1 84
0.335426 -0.489309 -0.265340 72 30 112
-0.432458 0.141555 -0.041593 71 20 102
0.660528 -0.337153 0.202302 52 94 141
-0.587941 0.072481 0.360219 72 34 115
0.080042 0.581568 -0.111632 68 1 84
-0.028751 -0.088519 -0.449888 68 1 84
0.115026 0.140429 -0.279698 68 1 84
0.518227 -0.128866 -0.063943 68 1 84
-0.343839 -0.135240 -0.144459 66 62 133
0.089903 0.018692 -0.303389 68 1 84
0.263904 0.441560 -0.043663 68 1 84
0.577528 -0.067237 0.091041 68 1 84
0.304863 0.176750 -0.152164 68 1 84
0.721811 -0.555850 0.412333 60 78 138
-0.009751 -0.127794 -0.431936 68 1 84
0.533964 0.194516 0.244769 68 1 84
-0.311842 0.443373 -0.015584 68 1 84
0.312570 -0.369111 -0.162809 67 60 132
0.645520 -0.430296 0.152468 45 111 142
-0.481935 0.085375 0.000004 72 29 111
-0.535666 0.222872 0.475660 69 54 129
0.409670 0.185836 -0.045359 68 1 84
-0.493536 -0.482489 -0.113928 119 208 82
0.323268 0.244778 -0.116656 68 1 84
-0.336736 0.296050 -0.097539 68 1 84
0.640668 -0.533213 0.134284 36 170 130
-0.226243 0.007400 -0.203268 68 1 84
-0.580801 -0.381173 0.105614 59 186 117
0.256607 -0.479120 -0.299220 68 1 84
0.394930 0.352652 0.056542 68 1 84
-0.129184 0.452872 -0.203305 68 1 84
-0.421107 0.399768 0.300418 70 12 95
0.569020 0.137587 0.418156 68 1 84
0.239891 -0.431650 -0.288868 68 1 84
-0.318190 0.478002 0.081919 72 33 114
0.554912 -0.017445 0.064380 68 1 84
0.710926 -0.463843 0.440757 39 126 142
0.505593 0.263324 0.213987 68 1 84
0.238479 -0.259488 -0.156727 68 1 84
0.348546 0.284485 -0.069972 68 1 84
-0.505510 0.073320 0.036911 68 57 130
0.537869 0.222162 0.315936 68 1 84
0.339276 0.362186 -0.020824 68 1 84
0.339650 0.399250 0.013498 68 1 84
-0.195992 0.479923 -0.151868 68 1 84
-0.140921 -0.004702 -0.309616 68 1 84
0.588256 -0.052240 0.205348 68 1 84
-0.446279 -0.286145 -0.045136 32 164 133
0.236721 0.547506 0.094847 71 21 103
-0.491155 0.192532 0.097472 71 20 102
-0.022129 0.530013 -0.211579 68 1 84
0.445559 0.249588 0.059694 68 1 84
-0.405405 0.279148 -0.006440 71 17 99
-0.417240 -0.445105 -0.199345 31 162 134
0.567560 0.136740 0.372980 68 1 84
0.629518 -0.105475 0.370719 68 1 84
-0.152308 0.131597 -0.262990 68 1 84
0.010956 0.201079 -0.317177 68 1 84
0.276330 -0.238201 -0.151559 68 1 84
-0.495321 0.301280 0.458328 59 80 138
-0.338708 -0.057558 -0.163691 71 42 121
-0.243053 0.181960 -0.210608 68 1 84
-0.245286 0.168965 -0.209827 68 1 84
-0.384666 0.282986 -0.037322 72 26 108
-0.472365 -0.095669 -0.082148 51 97 141
-0.009361 0.503944 -0.223059 68 1 84
-0.618255 -0.181506 0.246014 40 122 142
0.686900 -0.416967 0.268127 46 107 142
-0.491649 -0.347500 -0.025002 91 200 98
-0.019768 0.332494 -0.278099 68 1 84
0.233867 -0.144736 -0.188210 68 1 84
0.498906 0.256665 0.188260 68 1 84
-0.546319 0.201506 0.458200 71 21 103
-0.484968 0.295011 0.171890 72 29 111
-0.135725 0.012588 -0.283812 68 1 84
0.494892 0.175135 0.107525 68 1 84
-0.400841 0.136528 -0.088911 68 1 84
-0.151297 -0.155123 -0.223588 68 1 84
-0.598250 -0.311305 0.141767 30 154 137
-0.381808 0.429960 0.170100 68 1 84
0.709570 -0.459533 0.434625 46 109 142
0.536871 -0.127564 -0.039481 68 1 84
0.163775 0.547967 -0.084845 68 1 84
-0.573804 -0.041548 0.138810 64 68 135
-0.185975 -0.143018 -0.196253 68 1 84
-0.320245 0.200202 -0.148786 68 1 84
0.464009 -0.371970 -0.111815 48 104 141
0.075671 -0.119026 -0.365137 68 1 84
0.287006 0.243593 -0.148918 68 1 84
0.395830 0.454887 0.300675 68 1 84
0.008497 0.188241 -0.325252 68 1 84
0.336807 0.053948 -0.168222 68 1 84
-0.617113 -0.476799 0.203125 205 224 29
-0.126735 0.291543 -0.280571 68 1 84
-0.596688 -0.099621 0.205084 50 99 141
0.568255 0.124939 0.354976 68 1 84
-0.491612 0.146172 0.069551 71 17 99
0.253560 0.513921 0.029418 68 1 84
0.218657 0.115659 -0.203268 68 1 84
0.604684 -0.108921 0.184360 68 1 84
-0.216986 0.042345 -0.202893 68 1 84
-0.063068 -0.113693 -0.405246 68 1 84
-0.587294 -0.231033 0.093968 33 141 140
0.008338 -0.180478 -0.397671 68 1 84
0.042086 -0.199186 -0.362918 68 1 84
0.297885 -0.155611 -0.167917 68 1 84
-0.103990 0.356827 -0.216240 68 1 84
-0.625620 -0.154778 0.399021 60 77 138
-0.246042 0.365168 -0.135532 68 1 84
0.308228 -0.231143 -0.144757 68 1 84
0.515716 0.224035 0.203210 68 1 84
-0.552965 -0.296955 0.049054 47 179 123
0.374820 0.243730 -0.058845 68 1 84
-0.037865 -0.037106 -0.470960 68 1 84
0.645647 -0.180657 0.326058 68 1 84
-0.558855 0.146897 0.467670 71 20 102
-0.419355 0.231212 -0.009791 68 1 84
0.546108 0.137069 0.241644 68 1 84
-0.100817 0.032367 -0.283380 68 1 84
-0.564663 0.164185 0.407058 70 14 97
-0.101136 -0.155746 -0.300346 68 1 84
-0.302947 0.129643 -0.171283 68 1 84
0.139873 -0.048577 -0.225779 68 1 84
0.209870 -0.419505 -0.284933 68 1 84
0.273516 0.239020 -0.160571 68 1 84
-0.183568 0.231145 -0.211094 68 1 84
0.593674 -0.292654 0.071920 50 98 141
-0.082805 0.331062 -0.266055 68 1 84
-0.333954 0.184351 -0.138627 68 1 84
-0.268576 0.422882 -0.090666 68 2 85
0.573596 -0.509820 0.041813 37 171 129
0.034783 0.286493 -0.303826 68 1 84
0.343898 -0.356516 -0.143858 68 57 130
0.477084 0.364167 0.368859 68 1 84
0.075962 0.253509 -0.276063 68 1 84
0.597068 0.034766 0.419888 68 1 84
0.326822 -0.178049 -0.152235 68 1 84
-0.323500 0.111722 -0.162683 68 1 84
-0.592130 -0.033442 0.258529 63 69 135
-0.563341 -0.019970 0.107665 58 82 139
0.662765 -0.301572 0.274569 72 33 114
-0.449452 0.371733 0.323645 72 32 113
0.087978 -0.338974 -0.211492 68 1 84
-0.299674 0.266234 -0.142861 68 1 84
0.463557 0.272170 0.116224 68 1 84
-0.425102 -0.220027 -0.083358 40 123 142
-0.123048 -0.133136 -0.269044 68 1 84
-0.638203 -0.317697 0.270728 34 137 141
-0.443811 0.204584 0.016824 70 14 97
0.195501 0.537812 -0.048637 68 1 84
-0.265910 0.476861 -0.066994 71 15 98
0.490627 -0.015816 -0.063142 68 1 84
-0.283066 0.507124 0.062034 72 30 112
-0.643205 -0.296233 0.319519 33 140 141
0.373103 0.396527 0.066387 68 1 84
-0.519420 0.084291 0.082695 71 42 121
0.537084 0.032523 0.070319 68 1 84
0.357201 0.261492 -0.072754 68 1 84
0.188819 -0.100616 -0.210475 68 1 84
-0.410049 0.007108 -0.117437 71 38 118
-0.036903 0.031848 -0.358901 68 1 84
0.570219 0.132666 0.427790 68 1 84
-0.370299 -0.495487 -0.235289 38 128 142
-0.409960 0.292751 0.009137 70 9 92
-0.213575 0.448662 -0.141983 71 24 106
-0.018297 0.592124 -0.103437 68 1 84
0.085996 0.128874 -0.295845 68 1 84
0.531573 -0.383377 -0.033807 44 114 142
0.219946 0.490975 -0.065845 68 1 84
-0.282512 0.429759 -0.072250 68 1 84
0.592077 0.049147 0.410730 68 1 84
-0.523530 -0.307498 0.016562 41 175 127
0.547204 -0.111843 -0.020713 68 1 84
-0.131367 -0.378290 -0.246603 71 24 106
0.549479 0.148901 0.531067 68 1 84
-0.402779 -0.379668 -0.153037 39 173 128
-0.654858 -0.427250 0.312163 68 190 112
-0.516604 -0.162922 -0.045697 54 90 140
-0.616687 -0.274857 0.197001 31 149 139
-0.594171 -0.305241 0.130439 30 153 138
0.536824 -0.086293 -0.029216 68 1 84
-0.652245 -0.395687 0.373918 46 178 124
0.419338 0.083937 -0.097862 68 1 84
-0.420664 -0.442154 -0.196025 32 164 133
0.629668 -0.171471 0.210919 68 1 84
-0.502309 0.273866 0.193326 72 28 110
0.454573 -0.080051 -0.115217 68 1 84
0.638141 -0.069848 0.466817 68 1 84
-0.082587 0.585883 -0.095621 68 1 84
0.556167 -0.478852 0.010853 35 168 131
-0.360688 0.298152 -0.064617 69 5 88
-0.470026 0.272479 0.114008 71 22 105
0.381148 0.288808 -0.019343 68 1 84
0.400356 0.275558 0.000692 68 1 84
-0.616278 -0.431853 0.201379 91 200 98
-0.265739 0.010981 -0.197111 68 1 84
0.290649 0.207316 -0.153989 68 1 84
0.561679 0.138927 0.333236 68 1 84
0.336067 0.024032 -0.173477 68 1 84
0.230892 0.531119 0.016814 68 1 84
0.462648 -0.083235 -0.109380 68 1 84
-0.300641 -0.373808 -0.179900 42 118 142
0.266460 0.332168 -0.118004 68 1 84
-0.204148 0.249005 -0.196535 68 1 84
0.669045 -0.297956 0.365809 70 11 94
-0.037694 -0.095923 -0.440733 68 1 84
0.499414 0.193756 0.131421 68 1 84
0.438544 0.408816 0.397827 68 1 84
0.062001 -0.148186 -0.365703 68 1 84
0.334815 0.330258 -0.053669 68 1 84
-0.532990 -0.246839 0.002319 37 130 142
0.358578 0.440131 0.099179 68 1 84
-0.215967 0.448529 -0.139896 71 22 105
-0.258492 0.125116 -0.194613 68 1 84
-0.412448 0.227969 -0.023958 68 1 84
-0.135064 -0.040328 -0.296197 68 1 84
-0.513213 -0.239225 -0.021211 38 128 142
0.595716 0.046319 0.474863 68 1 84
0.126159 0.074779 -0.241114 68 1 84
0.138230 0.060265 -0.228899 68 1 84
-0.144483 0.492699 -0.184073 68 1 84
-0.099473 -0.294049 -0.208586 70 14 97
-0.084521 -0.093386 -0.382610 68 1 84
0.287306 -0.312142 -0.148935 68 1 84
0.042472 -0.386169 -0.302647 68 1 84
-0.146727 -0.119310 -0.235364 68 1 84
0.035940 0.560463 -0.172221 68 1 84
-0.515326 0.275007 0.244315 70 14 97
-0.303178 -0.300084 -0.135200 47 106 141
-0.591660 0.001608 0.281897 69 53 128
-0.545650 0.227630 0.387409 71 37 117
0.672724 -0.345792 0.461686 70 45 124
0.111259 -0.018997 -0.358434 68 1 84
-0.567849 0.164814 0.352522 68 1 84
0.329622 0.181214 -0.134519 68 1 84
0.168326 0.196720 -0.243085 68 1 84
0.048917 0.571414 -0.149368 68 1 84
0.036760 -0.335323 -0.279184 68 1 84
-0.577367 0.016662 0.501656 67 58 131
0.696001 -0.469938 0.286584 37 131 141
-0.215054 -0.367198 -0.176843 45 111 142
0.052440 0.594703 -0.084485 68 1 84
-0.582650 -0.033943 0.210828 61 76 137
0.528387 0.263340 0.362550 68 1 84
-0.660437 -0.396342 0.464339 35 169 130
-0.523949 0.204996 0.182445 71 42 121
0.191013 0.537406 -0.058437 68 1 84
0.210544 0.132135 -0.207736 68 1 84
-0.322359 0.477367 0.102183 72 30 112
0.376617 0.303229 -0.016060 68 1 84
0.226771 -0.433568 -0.297423 68 1 84
-0.403230 -0.497749 -0.213267 36 132 141
0.014509 -0.402160 -0.316663 68 1 84
0.015626 0.046791 -0.372181 68 1 84
0.604516 -0.152030 0.110673 68 1 84
-0.252284 -0.404620 -0.236163 57 84 139
-0.382232 -0.291440 -0.092050 32 144 140
0.656341 -0.148169 0.457991 68 1 84
0.591982 -0.121853 0.084632 68 1 84
0.223565 -0.397611 -0.236146 70 12 95
0.209728 -0.138982 -0.196202 68 1 84
0.417043 -0.303127 -0.083560 61 75 137
0.708743 -0.456844 0.424112 45 110 142
0.202140 0.494415 -0.088533 68 1 84
-0.699212 -0.453637 0.423443 30 152 138
-0.193309 0.511127 -0.139692 68 1 84
-0.302166 -0.176890 -0.145376 57 85 139
0.581488 -0.177634 0.036375 68 1 84
-0.197131 -0.235644 -0.156617 72 26 108
-0.111570 0.185007 -0.295421 68 1 84
0.699903 -0.432006 0.362181 48 103 141
-0.256508 -0.025333 -0.196616 68 1 84
-0.574846 -0.377850 0.092873 57 185 118
0.177159 -0.316307 -0.137063 72 25 107
0.053594 -0.383601 -0.296940 68 1 84
-0.514928 0.122564 0.102143 67 59 131
-0.463893 0.354741 0.249769 72 26 108
-0.518682 0.010996 0.013105 52 95 141
0.136729 -0.225395 -0.186736 68 1 84
0.133836 -0.356446 -0.186690 68 1 84
-0.167720 0.405305 -0.176505 70 11 94
0.025641 -0.130484 -0.421699 68 1 84
-0.122055 0.132971 -0.286251 68 1 84
-0.200744 0.348347 -0.172874 68 1 84
0.657501 -0.159790 0.506012 68 1 84
-0.214751 0.212486 -0.212498 68 1 84
-0.371152 -0.354055 -0.113854 31 162 134
-0.600194 -0.099565 0.230646 52 94 141
0.652419 -0.247109 0.405086 68 1 84
0.660723 -0.284742 0.275123 72 25 107
0.247776 0.545419 0.133422 68 1 84
-0.610494 -0.074617 0.330741 67 58 131
-0.161255 0.264004 -0.247797 68 1 84
0.294308 -0.359966 -0.150835 71 20 102
-0.267643 -0.196827 -0.148962 63 71 136
0.289766 0.482428 0.039135 68 1 84
0.073115 0.069113 -0.300354 68 1 84
-0.630582 -0.363227 0.249468 32 164 133
0.612880 -0.126306 0.195779 68 1 84
-0.574196 -0.241459 0.062919 33 140 141
-0.345589 0.267173 -0.102513 68 1 84
0.544612 -0.402608 -0.015719 45 111 142
0.530417 0.056930 0.083914 68 1 84
0.610849 -0.344325 0.116001 60 78 138
0.544160 -0.161496 -0.030044 68 1 84
0.539747 0.202575 0.507909 68 1 84
0.647928 -0.236313 0.438789 68 1 84
0.491762 -0.404409 -0.111571 47 106 141
-0.078618 -0.006264 -0.355560 68 1 84
0.399500 -0.235457 -0.107132 68 1 84
-0.004826 0.514904 -0.218519 68 1 84
-0.132740 0.561935 -0.132091 68 1 84
-0.011375 0.143086 -0.320625 68 1 84
-0.067788 -0.000994 -0.415485 68 1 84
-0.031665 0.045127 -0.356245 68 1 84
0.362609 0.105129 -0.137272 68 1 84
-0.438177 0.315568 0.083978 72 26 108
0.066193 -0.203965 -0.309005 68 1 84
0.550847 0.002856 0.080314 68 1 84
0.181631 -0.338494 -0.139116 72 29 111
-0.077074 0.283507 -0.302948 68 1 84
-0.266685 0.471789 -0.069821 71 20 102
0.485770 0.298009 0.198862 68 1 84
0.232468 -0.340245 -0.148619 72 26 108
0.233725 0.487637 -0.046974 68 1 84
0.096649 0.585617 -0.086836 68 1 84
-0.157389 0.322148 -0.226485 68 1 84
0.025910 -0.080281 -0.456216 68 1 84
-0.599732 -0.468780 0.141949 139 213 70
-0.590501 -0.211938 0.100802 38 128 142
0.589659 -0.057128 0.203659 68 1 84
-0.538878 -0.472822 -0.026606 215 226 25
-0.414597 -0.275486 -0.071122 32 143 140
-0.175951 0.565705 -0.081169 68 1 84
-0.539330 0.232810 0.272404 70 45 124
0.195987 0.408237 -0.125368 68 1 84
-0.491131 0.224130 0.117991 72 26 108
0.405126 -0.008762 -0.137761 68 1 84
0.141901 0.389970 -0.169764 68 1 84
-0.493002 0.316020 0.250382 68 1 84
-0.287074 0.369870 -0.097587 68 1 84
0.005010 -0.395384 -0.314241 68 1 84
0.140074 0.392910 -0.169744 68 1 84
0.501858 0.177617 0.124817 68 1 84
0.648440 -0.200317 0.292443 68 1 84
-0.444998 0.157108 -0.012499 72 33 114
-0.589873 -0.079677 0.188186 53 92 140
0.588269 -0.432591 0.075985 31 148 139
-0.338708 -0.256044 -0.123146 67 60 132
0.293615 0.517793 0.141150 68 1 84
0.533281 0.158365 0.203014 68 1 84
0.064356 -0.003351 -0.345835 68 1 84
-0.389142 0.426434 0.200017 68 1 84
-0.545350 0.210307 0.261653 69 53 128
-0.543309 0.115326 0.170687 66 61 132
-0.282823 0.291635 -0.141707 68 1 84
0.386363 -0.298943 -0.105878 70 49 126
-0.593043 -0.153298 0.112526 36 133 141
-0.546042 0.101968 0.171069 71 44 123
-0.341410 0.260707 -0.110210 68 1 84
-0.020145 0.330233 -0.282910 68 1 84
0.054996 0.194985 -0.308453 68 1 84
-0.532414 0.235951 0.245839 72 35 116
0.625078 -0.039522 0.508949 70 14 97
-0.238972 0.447353 -0.117726 71 39 119
0.250226 0.448970 -0.055025 68 1 84
-0.492171 0.322046 0.384632 68 1 84
-0.652072 -0.395619 0.375494 47 179 123
0.557297 0.099911 0.260584 68 1 84
0.443634 0.403264 0.400316 68 1 84
0.249874 0.353735 -0.114929 68 1 84
-0.599346 -0.149628 0.160881 41 120 142
-0.394667 -0.200949 -0.105423 50 98 141
0.051680 0.058179 -0.333150 68 1 84
-0.646304 -0.319026 0.380700 33 141 140
0.292225 -0.140902 -0.174351 68 1 84
0.665512 -0.500778 0.188262 41 175 127
0.623956 -0.168044 0.188874 68 1 84
0.400492 -0.466731 -0.219630 51 96 141
0.649372 -0.196517 0.331571 68 1 84
-0.555447 0.171151 0.255271 71 42 121
-0.639899 -0.288039 0.309706 34 137 141
0.653952 -0.193801 0.456663 68 1 84
0.014619 0.018024 -0.454467 68 1 84
-0.006365 -0.116111 -0.440702 68 1 84
-0.340198 0.252107 -0.114774 68 1 84
0.515703 0.139269 0.129517 68 1 84
0.023843 -0.294577 -0.306360 68 1 84
0.548997 0.170464 0.295948 68 1 84
-0.562250 0.023946 0.173786 63 69 135
-0.566055 0.126233 0.260321 67 60 132
0.255421 0.455226 -0.043309 68 1 84
-0.645445 -0.347806 0.464386 31 148 139
0.514259 -0.081213 -0.060392 68 1 84
0.189688 0.019789 -0.215249 68 1 84
-0.216803 -0.198405 -0.162719 68 1 84
-0.226312 0.541895 -0.035056 68 1 84
-0.051608 0.215733 -0.292671 68 1 84
0.020664 0.469243 -0.224559 68 1 84
0.553962 0.184411 0.456625 68 1 84
-0.328421 0.026851 -0.173968 68 1 84
0.242568 0.212510 -0.187475 68 1 84
-0.276719 0.512427 0.093538 72 33 114
-0.235558 0.237253 -0.182283 68 1 84
0.596594 -0.145335 0.083920 68 1 84
-0.445205 -0.312892 -0.040899 66 190 113
-0.285919 -0.041169 -0.186846 68 1 84
0.652778 -0.541887 0.156262 35 169 130
-0.548408 0.225797 0.353443 72 26 108
0.620604 -0.345900 0.137855 59 81 138
-0.389758 0.136158 -0.102596 68 1 84
-0.551399 0.182614 0.461224 69 6 90
-0.255396 -0.444628 -0.284499 71 15 98
-0.628380 -0.372525 0.243821 30 154 137
-0.622087 -0.534276 0.216433 253 231 36
-0.609474 -0.255912 0.172837 31 147 139
0.595332 -0.115144 0.114470 68 1 84
-0.186454 -0.346948 -0.148523 49 102 141
-0.591202 0.014321 0.290456 72 35 116
-0.437265 0.149090 -0.029845 72 33 114
-0.246710 0.397803 -0.119561 63 69 135
-0.117478 -0.173655 -0.267352 68 1 84
0.172980 0.110645 -0.226097 68 1 84
-0.521752 0.235093 0.206168 71 20 102
0.042281 0.170671 -0.322100 68 1 84
-0.012306 0.341726 -0.251952 68 1 84
-0.188368 0.474554 -0.159435 68 1 84
-0.113798 0.517082 -0.191431 68 1 84
-0.173822 0.119370 -0.243425 68 1 84
0.575904 0.042296 0.285497 68 1 84
-0.280575 -0.457786 -0.278050 69 5 88
0.094959 -0.347804 -0.214295 68 1 84
0.167619 -0.159093 -0.203421 68 1 84
0.459963 -0.489097 -0.161162 46 108 142
0.545273 0.026088 0.100396 68 1 84
0.209514 -0.449674 -0.305416 68 1 84
-0.010662 0.042012 -0.388558 68 1 84
-0.574193 0.045587 0.490245 61 74 137
-0.387944 -0.447791 -0.218946 31 149 139
0.516678 -0.412904 -0.072875 39 125 142
0.529434 -0.435488 -0.051669 42 117 142
0.054923 -0.339418 -0.261133 68 1 84
-0.080491 0.428062 -0.225892 68 1 84
0.140735 -0.211242 -0.192526 68 1 84
0.575869 -0.473889 0.051645 30 153 138
0.244355 0.060540 -0.203968 68 1 84
0.216868 -0.118881 -0.199622 68 1 84
-0.413573 -0.356580 -0.085786 51 182 121
-0.295378 0.496095 0.056934 72 29 111
0.585844 -0.222812 0.047996 70 47 124
-0.118172 0.576311 -0.114695 68 1 84
-0.161318 0.432021 -0.181242 68 1 84
-0.581613 -0.336889 0.107158 33 166 133
-0.564970 0.120150 0.469053 72 29 111
0.026816 -0.104651 -0.439144 68 1 84
0.008121 0.225207 -0.289746 68 1 84
-0.286645 0.480999 -0.016037 72 34 115
-0.089161 -0.252393 -0.263734 68 1 84
-0.440525 0.226988 0.024552 68 1 84
0.190396 0.464485 -0.114729 68 1 84
-0.003292 0.431848 -0.227289 68 1 84
0.675402 -0.360405 0.224023 52 94 141
-0.101780 0.206367 -0.276733 68 1 84
-0.653411 -0.405491 0.381640 107 205 89
-0.589076 -0.009561 0.259981 69 53 128
0.561890 0.162964 0.400677 68 1 84
-0.389075 0.427942 0.243886 71 37 117
0.690445 -0.523976 0.255236 33 140 141
0.465525 0.270730 0.119265 68 1 84
-0.254602 -0.370069 -0.171663 41 121 142
-0.200480 -0.403970 -0.255426 61 74 137
-0.543123 0.235774 0.376765 71 15 98
-0.334734 0.458615 0.072260 72 26 108
-0.094469 0.063180 -0.278962 68 1 84
0.310224 -0.123479 -0.174187 68 1 84
-0.258657 0.262317 -0.163982 68 1 84
-0.427703 0.391898 0.219376 70 45 124
0.722766 -0.514675 0.429648 46 107 142
0.542508 0.206889 0.318546 68 1 84
-0.355986 -0.294891 -0.111011 34 137 141
0.550420 0.158520 0.287438 68 1 84
0.402621 -0.193292 -0.121082 68 1 84
0.472318 0.187677 0.067616 68 1 84
0.644355 -0.220025 0.228660 68 1 84
-0.617921 -0.125886 0.321589 65 65 134
0.394517 0.160501 -0.083286 68 1 84
-0.492739 0.320208 0.268278 68 1 84
0.468579 0.134616 0.012388 68 1 84
0.074294 0.001405 -0.325483 68 1 84
-0.609327 -0.037494 0.380494 72 25 107
-0.087189 -0.402154 -0.300599 68 1 84
0.047797 0.557831 -0.170613 68 1 84
0.720979 -0.503104 0.426029 43 115 142
-0.102875 -0.290007 -0.202997 69 5 88
0.566690 -0.408927 0.034378 47 106 141
0.659712 -0.253150 0.316147 72 28 110
0.433188 0.270917 0.053147 68 1 84
-0.305866 0.492782 0.121395 72 29 111
-0.477963 0.116784 0.018115 72 32 113
0.168528 0.151111 -0.240081 68 1 84
-0.549175 0.222948 0.336794 70 12 95
0.044781 -0.210376 -0.351555 68 1 84
-0.157834 0.152876 -0.268332 68 1 84
0.563474 0.093273 0.284636 68 1 84
-0.117763 0.353484 -0.214030 68 1 84
-0.693281 -0.441970 0.430949 30 151 138
0.586342 0.062832 0.383321 68 1 84
0.067792 -0.049529 -0.439283 68 1 84
0.650057 -0.265080 0.222556 70 47 124
0.588922 -0.386455 0.080287 45 111 142
0.117775 -0.110581 -0.247630 68 1 84
0.030059 -0.367326 -0.295078 68 1 84
-0.589092 -0.334284 0.122633 31 163 134
0.478663 0.002734 -0.068933 68 1 84
0.685482 -0.374716 0.278407 53 93 140
-0.197517 0.532075 -0.117323 68 1 84
-0.455495 0.134682 -0.009783 72 30 112
0.338002 -0.400182 -0.216950 69 52 127
