ply
format ascii 1.0
element vertex 1277
property float x
property float y
property float z
property uchar red
property uchar green
property uchar blue
end_header
0.522914 -0.454890 0.016263 34 167 132
0.309303 0.396685 -0.087381 30 156 137
0.537524 -0.032562 0.019248 72 26 108
0.041765 0.363336 -0.267314 68 1 84
-0.381563 0.009860 -0.145237 68 1 84
0.190749 -0.066408 -0.216874 68 1 84
0.595465 -0.013443 0.219603 68 1 84
-0.588229 0.062973 0.317379 68 1 84
0.649215 -0.456071 0.384312 72 28 110
0.542890 0.199743 0.473195 68 1 84
-0.621895 -0.269230 0.094281 68 1 84
0.323357 0.249522 -0.140023 72 34 115
0.596154 -0.378366 0.125452 30 155 137
0.628205 -0.300539 0.173655 40 123 142
-0.235974 0.337354 -0.135607 66 61 132
0.607335 -0.252693 0.116226 34 167 132
0.160555 0.408687 -0.188168 39 126 142
0.518681 -0.489529 0.015483 38 172 129
0.641929 -0.606335 0.349313 42 117 142
-0.146748 0.492330 -0.163804 75 194 108
0.612547 -0.095526 0.225533 69 6 90
-0.572299 0.122633 0.280509 68 1 84
-0.341838 0.549091 0.129166 68 1 84
-0.058624 -0.207193 -0.391178 71 38 118
0.661706 -0.384293 0.392642 71 43 122
-0.590187 0.035193 0.398615 68 1 84
-0.084943 0.160823 -0.295318 68 1 84
0.108078 0.074552 -0.242679 68 1 84
-0.573960 -0.420355 -0.004345 68 1 84
-0.326160 0.186120 -0.153995 68 1 84
0.236188 0.342979 -0.152210 68 1 84
-0.240970 0.330048 -0.135290 70 49 126
0.627261 -0.519311 0.294377 39 126 142
-0.638650 -0.433084 0.161350 68 1 84
-0.720149 -0.503273 0.475489 68 1 84
0.199733 0.590666 -0.139034 253 231 36
-0.447524 0.255201 0.007587 68 1 84
0.047431 0.402436 -0.232151 69 54 129
-0.463190 -0.395989 -0.156399 68 2 85
-0.554555 0.026573 0.058563 68 1 84
0.047859 -0.027844 -0.419054 68 1 84
0.204599 0.447729 -0.147684 79 195 105
0.459942 0.045967 -0.065621 44 113 142
0.353543 0.082933 -0.151432 71 38 118
0.463197 0.165670 -0.030884 61 76 137
0.622489 -0.073952 0.391555 69 8 91
0.653727 -0.228707 0.389815 68 1 84
0.602120 -0.476889 0.203131 44 114 142
-0.639067 -0.492540 0.163713 68 1 84
-0.601731 0.000398 0.386413 68 1 84
-0.225105 0.271682 -0.161632 68 1 84
0.158211 -0.338334 -0.137814 38 128 142
-0.134397 -0.096612 -0.357259 68 1 84
-0.318181 -0.244137 -0.129202 68 1 84
0.521630 0.290880 0.150133 68 1 84
0.467929 0.110535 -0.041337 61 75 137
-0.257039 0.533970 -0.045013 68 1 84
0.575674 -0.249225 0.054159 32 165 133
-0.052944 0.340309 -0.279422 68 1 84
-0.251340 0.627839 0.090195 56 87 140
0.204702 -0.276401 -0.151785 70 45 124
0.436673 0.144488 -0.069565 48 103 141
-0.293483 0.594762 0.127992 68 2 85
-0.609693 -0.010629 0.286740 68 1 84
0.531865 0.308094 0.211386 68 1 84
-0.107768 0.697400 -0.085815 34 137 141
-0.593763 -0.007766 0.470543 68 1 84
-0.463743 0.354628 0.129984 68 1 84
-0.185434 -0.028001 -0.236107 68 1 84
0.321513 0.324367 -0.112612 68 55 129
0.658131 -0.277100 0.341214 68 1 84
-0.601854 0.012739 0.251759 68 1 84
0.286110 -0.391077 -0.151952 65 65 134
-0.094674 0.069464 -0.278534 68 1 84
-0.348088 -0.509289 -0.269005 68 1 84
0.068004 -0.528333 -0.313342 51 96 141
-0.466401 0.331035 0.420919 68 1 84
-0.031085 -0.164201 -0.418175 71 18 101
-0.083492 -0.501602 -0.319975 50 99 141
0.594931 0.046604 0.282071 68 1 84
-0.415424 -0.030831 -0.123761 68 1 84
-0.047723 -0.040036 -0.474161 68 1 84
0.656632 -0.355115 0.362079 68 1 84
-0.224546 0.050528 -0.209857 68 1 84
-0.417533 -0.146971 -0.112131 68 1 84
-0.501049 0.297358 0.370668 68 1 84
-0.209330 -0.140578 -0.218606 68 1 84
-0.183082 0.673489 0.043030 33 166 133
0.082453 0.655880 -0.189437 43 177 125
-0.106426 -0.293116 -0.305909 68 1 84
0.545120 0.281582 0.330692 68 1 84
-0.155197 -0.305191 -0.191030 72 25 107
-0.084990 -0.001800 -0.396361 68 1 84
0.413080 0.471470 0.086625 68 1 84
0.533065 -0.155877 -0.013564 35 135 141
-0.447496 -0.355092 -0.104663 71 21 103
0.454798 0.086342 -0.062796 60 77 138
-0.585097 0.034424 0.436518 68 1 84
0.062172 0.106446 -0.284285 68 1 84
-0.694259 -0.488155 0.352815 68 1 84
0.142412 0.366041 -0.217078 41 120 142
0.537611 -0.277650 0.012100 83 197 103
-0.359602 -0.527700 -0.268918 68 1 84
-0.453695 0.363119 0.392426 68 1 84
0.374933 -0.128390 -0.142440 42 119 142
0.545225 0.271596 0.215576 68 1 84
-0.012121 0.612428 -0.217989 31 147 139
-0.374340 0.406762 0.011926 68 1 84
0.486395 0.359706 0.126452 68 1 84
-0.447020 -0.011271 -0.098491 68 1 84
-0.639664 -0.111729 0.390080 68 1 84
-0.623977 -0.408521 0.113592 68 1 84
-0.155374 0.644036 -0.107768 32 165 133
-0.583728 -0.497731 0.006709 68 1 84
0.572927 0.020188 0.129058 68 1 84
0.014281 0.684567 -0.175177 71 192 110
-0.115324 -0.441850 -0.296847 67 59 131
-0.563193 -0.463291 -0.039998 68 1 84
0.618716 -0.097193 0.280319 68 1 84
0.568255 -0.358188 0.069021 124 210 79
-0.578202 -0.331946 0.035071 68 1 84
0.573175 0.103889 0.180796 68 1 84
-0.146791 -0.108468 -0.310289 68 1 84
0.606251 -0.009571 0.323742 68 1 84
-0.574185 -0.251094 0.033813 68 1 84
-0.242611 -0.216251 -0.163824 70 11 94
0.114934 0.295592 -0.246657 71 43 122
0.272690 0.129916 -0.194898 68 1 84
-0.468239 0.111597 -0.039842 68 1 84
-0.350565 0.293706 -0.087585 68 1 84
0.570536 0.206422 0.290820 68 1 84
-0.590852 -0.033991 0.559581 68 1 84
-0.138899 0.151245 -0.262431 68 1 84
0.583501 0.089528 0.233180 68 1 84
0.050554 -0.020738 -0.354707 68 1 84
0.122015 0.688077 -0.135185 178 221 44
0.452771 0.247091 -0.007314 68 1 84
0.441886 0.319536 0.016197 68 1 84
0.054935 0.069326 -0.275985 68 1 84
-0.124728 0.035516 -0.275160 68 1 84
0.673298 -0.446455 0.487232 68 1 84
-0.305491 0.510330 0.000397 68 1 84
0.406936 -0.307730 -0.081161 56 185 118
0.491317 0.393548 0.268917 68 1 84
-0.684977 -0.295132 0.491589 68 1 84
-0.509182 0.303064 0.277270 68 1 84
-0.015159 -0.154648 -0.417548 68 1 84
0.354107 -0.084163 -0.156907 61 76 137
0.101848 0.593840 -0.210925 61 187 116
-0.557626 0.134100 0.175224 68 1 84
0.562076 0.069076 0.117881 68 1 84
0.288331 -0.464525 -0.230904 70 47 124
0.576211 0.168045 0.259767 68 1 84
0.127093 0.704240 -0.086688 40 122 142
-0.358751 0.533865 0.151701 68 1 84
-0.670442 -0.432856 0.286235 68 1 84
0.023671 0.713930 -0.127306 37 171 129
-0.019148 0.057629 -0.319094 68 1 84
0.028460 -0.101785 -0.425986 68 1 84
0.291566 -0.386979 -0.150818 70 47 124
-0.292617 -0.164386 -0.160332 71 18 101
-0.114182 -0.499878 -0.317178 52 94 141
-0.437047 0.244255 -0.014475 68 1 84
-0.039247 0.196770 -0.312116 68 1 84
-0.352001 0.527597 0.264612 68 1 84
-0.280905 0.248382 -0.169988 71 21 103
0.440723 -0.511287 -0.153942 47 179 123
0.619194 -0.256977 0.145589 36 132 141
0.445101 -0.502627 -0.149072 31 149 139
-0.510027 0.242290 0.125359 68 1 84
0.653052 -0.491734 0.410203 71 18 101
-0.144233 0.229088 -0.253376 68 1 84
-0.373719 0.248121 -0.086912 68 1 84
-0.545823 0.100780 0.094374 68 1 84
0.612779 -0.371477 0.160276 31 150 139
0.040841 0.212739 -0.303879 68 1 84
0.442124 -0.052298 -0.098528 58 83 139
-0.619582 -0.526598 0.093223 68 1 84
-0.605601 -0.044249 0.143826 68 1 84
-0.244250 -0.081726 -0.208271 68 1 84
0.154965 0.278191 -0.203265 66 64 133
0.301643 0.215045 -0.166725 66 61 132
0.188903 0.220336 -0.219198 68 1 84
-0.351078 0.542361 0.185648 68 1 84
-0.104556 0.294511 -0.243989 68 1 84
0.612859 -0.052261 0.479939 68 1 84
-0.337500 0.006396 -0.172977 68 1 84
0.108443 0.292284 -0.249027 67 60 132
-0.114927 0.574010 -0.184651 37 171 129
0.311954 0.360354 -0.102132 67 58 131
0.135941 -0.265127 -0.171555 71 22 105
-0.133962 -0.356503 -0.232194 70 48 125
0.246691 0.506917 -0.104107 189 222 38
0.516022 0.330367 0.366712 68 1 84
0.099228 -0.077422 -0.290225 68 1 84
0.238232 -0.128781 -0.189774 69 54 129
-0.109894 -0.011391 -0.403081 68 1 84
-0.261900 0.564727 -0.019219 72 26 108
-0.246859 0.250554 -0.183424 71 38 118
0.672596 -0.454427 0.496238 68 1 84
-0.439929 0.162406 -0.054524 68 1 84
0.136155 0.387353 -0.211444 48 104 141
0.656414 -0.349581 0.359631 68 1 84
0.092938 0.219905 -0.278077 68 1 84
-0.477953 0.076168 -0.040371 68 1 84
-0.631728 -0.115927 0.467012 68 1 84
-0.214894 -0.177880 -0.200683 68 1 84
-0.444914 0.254185 0.002991 68 1 84
0.558636 0.015329 0.081514 72 34 115
-0.432717 0.421811 0.314602 68 1 84
-0.522733 0.223901 0.421272 68 1 84
0.270951 -0.184960 -0.161903 42 118 142
0.613096 -0.227985 0.132866 34 138 141
0.154240 0.144111 -0.243874 68 1 84
-0.532683 -0.036848 -0.014119 68 1 84
0.459434 0.429338 0.308490 68 1 84
-0.460096 -0.032099 -0.090542 68 1 84
0.194649 0.622494 -0.131372 194 223 34
-0.588644 -0.020471 0.108280 68 1 84
0.615369 -0.048689 0.352537 68 1 84
0.432533 0.406478 0.061470 68 1 84
0.508678 0.357671 0.323866 68 1 84
0.014538 0.135406 -0.307562 68 1 84
-0.085315 -0.129951 -0.421419 68 1 84
0.227109 -0.428314 -0.210382 68 1 84
-0.483385 0.256013 0.499256 68 1 84
0.062840 -0.168256 -0.312429 68 1 84
0.063874 0.264881 -0.255875 68 3 87
-0.681747 -0.291766 0.309178 68 1 84
0.490685 -0.214457 -0.052020 61 187 116
-0.050114 -0.393682 -0.303832 51 96 141
-0.194945 0.274335 -0.162804 68 1 84
-0.270395 0.471419 -0.061175 70 11 94
0.418743 0.385214 0.024335 68 1 84
0.461287 -0.070005 -0.082842 40 122 142
-0.200124 0.647066 -0.028838 33 142 140
0.186846 -0.446588 -0.214362 69 5 88
0.538272 0.164037 0.100057 68 1 84
0.065468 -0.208585 -0.292987 68 1 84
-0.380036 -0.365655 -0.127329 68 1 84
-0.440879 0.270740 0.007989 68 1 84
-0.509912 0.258250 0.145554 68 1 84
-0.515817 -0.411014 -0.120858 70 9 92
0.536560 -0.323063 0.022419 189 222 38
-0.318188 0.219847 -0.149606 68 3 87
0.011084 -0.240046 -0.350012 68 1 84
-0.672131 -0.270331 0.234986 68 1 84
0.565361 0.106656 0.485322 68 1 84
-0.385640 0.046989 -0.138915 68 1 84
0.350073 -0.378978 -0.138055 36 133 141
0.578986 -0.316694 0.074798 64 189 114
0.069342 -0.502171 -0.307711 65 65 134
0.534408 0.232102 0.464287 68 1 84
0.549455 -0.175889 0.007988 34 139 141
-0.478648 0.353855 0.186006 68 1 84
0.491355 0.239893 0.046414 68 1 84
-0.242200 0.634151 0.099058 48 103 141
0.269182 0.135720 -0.196399 68 1 84
-0.478603 -0.215111 -0.052489 68 1 84
0.364383 0.231938 -0.111697 70 11 94
-0.614082 -0.166620 0.083039 68 1 84
-0.693349 -0.356107 0.405351 68 1 84
0.538404 0.295877 0.222944 68 1 84
-0.282761 0.391399 -0.094104 66 62 133
0.567690 0.108867 0.474454 68 1 84
0.093955 0.055860 -0.245370 68 1 84
-0.161897 0.058833 -0.229894 68 1 84
-0.039954 -0.100087 -0.462561 68 1 84
0.031135 -0.020618 -0.340461 68 1 84
0.140047 -0.240495 -0.186281 68 3 87
-0.446631 0.130966 -0.059090 68 1 84
-0.442875 -0.269348 -0.068010 68 1 84
-0.028899 0.029161 -0.406956 68 1 84
-0.442886 0.424387 0.240979 68 1 84
-0.355701 0.364005 -0.046072 68 1 84
0.026569 -0.261718 -0.320181 68 1 84
-0.492591 0.313723 0.164305 68 1 84
0.089309 -0.441030 -0.251713 71 44 123
-0.242567 0.269643 -0.166321 68 1 84
0.177891 0.264942 -0.181177 72 30 112
-0.478248 -0.289997 -0.041374 70 11 94
-0.457730 -0.173871 -0.080528 68 1 84
-0.529355 0.068293 0.035950 68 1 84
-0.616370 -0.044299 0.207752 68 1 84
0.378380 -0.566667 -0.216762 53 93 140
-0.604902 -0.136028 0.072363 68 1 84
0.066417 -0.211238 -0.290265 68 1 84
0.079997 0.274540 -0.253402 70 48 125
0.350453 -0.051380 -0.160892 40 123 142
0.459980 0.417462 0.129682 68 1 84
0.492840 -0.001735 -0.036748 63 71 136
-0.499073 -0.080033 -0.063159 68 1 84
-0.354040 0.068164 -0.158370 68 1 84
-0.266064 0.062616 -0.201414 68 1 84
0.570868 0.109480 0.462744 68 1 84
0.011145 0.008795 -0.408839 68 1 84
0.342772 0.543189 0.033769 70 11 94
-0.079898 -0.142906 -0.416191 68 1 84
-0.583130 -0.458624 0.011099 68 1 84
0.090779 -0.113540 -0.285225 68 1 84
-0.454359 -0.004768 -0.091002 68 1 84
0.575214 -0.493515 0.143171 109 206 88
0.301981 -0.283480 -0.142439 37 130 142
0.652618 -0.608713 0.414876 71 40 120
0.648765 -0.190295 0.503828 68 1 84
-0.178341 -0.265230 -0.184074 71 40 120
-0.359970 0.443505 0.022688 68 1 84
0.185633 -0.021152 -0.219524 68 1 84
-0.248885 0.605330 0.000829 59 80 138
-0.613732 -0.028194 0.346052 68 1 84
-0.585252 0.069228 0.244795 68 1 84
-0.539158 0.003533 0.014647 68 1 84
0.428453 -0.369011 -0.074206 44 177 125
-0.055292 0.441463 -0.216402 72 34 115
0.421325 -0.533930 -0.177079 64 189 114
-0.362365 0.517350 0.259150 68 1 84
0.458719 -0.343751 -0.040916 220 226 24
-0.142905 0.682623 -0.069237 98 202 95
0.571009 -0.559512 0.160706 43 115 142
0.537814 0.191851 0.115780 68 1 84
-0.164108 0.417666 -0.168923 72 33 114
-0.035553 0.222944 -0.305454 68 1 84
0.103169 -0.362770 -0.155897 35 136 141
-0.503067 0.310939 0.318884 68 1 84
-0.151490 -0.368944 -0.203004 72 30 112
0.637378 -0.135281 0.485936 68 1 84
-0.714130 -0.498518 0.432236 68 1 84
0.380940 0.534702 0.132652 71 21 103
-0.667463 -0.199321 0.413388 68 1 84
0.386806 -0.396243 -0.130382 30 160 135
0.190780 0.383656 -0.176109 47 105 141
-0.653103 -0.133846 0.318477 68 1 84
-0.310005 0.248151 -0.147700 68 1 84
-0.447998 -0.500630 -0.219759 72 32 113
-0.261190 0.620491 0.121350 68 1 84
-0.222874 0.435065 -0.116710 70 48 125
-0.206651 -0.244056 -0.172241 68 1 84
-0.442940 -0.321007 -0.075000 71 40 120
0.081475 -0.116950 -0.300425 68 1 84
0.566554 -0.399907 0.079695 197 223 33
0.060675 -0.082751 -0.394324 68 1 84
-0.180901 0.543349 -0.123513 32 164 133
0.057443 -0.243617 -0.283712 71 44 123
0.624309 -0.163933 0.212100 71 40 120
-0.586479 -0.091843 0.051676 68 1 84
0.305772 0.187977 -0.169114 72 29 111
0.546680 -0.336011 0.036994 119 208 82
-0.047935 0.022663 -0.358272 68 1 84
-0.172693 0.605695 -0.113205 30 159 136
0.298248 0.307888 -0.134388 67 59 131
0.487060 0.400861 0.221611 68 1 84
0.190887 -0.432007 -0.201136 71 21 103
-0.227002 0.584870 -0.054691 53 93 140
-0.186821 -0.374820 -0.165428 68 1 84
0.478762 0.221496 0.016520 72 25 107
-0.499546 -0.361947 -0.086868 68 1 84
0.481145 -0.034836 -0.058082 61 76 137
0.512571 0.215924 0.071577 68 1 84
-0.373002 0.501899 0.274719 68 1 84
0.537126 0.286432 0.198951 68 1 84
0.609522 -0.068129 0.250356 68 1 84
0.404506 0.282810 -0.052384 68 1 84
-0.524019 0.208574 0.133185 68 1 84
-0.318727 -0.183225 -0.142626 70 9 92
-0.708340 -0.422402 0.463085 68 1 84
-0.022503 -0.126893 -0.442545 68 1 84
0.464949 0.106893 -0.045893 58 82 139
-0.144050 0.578577 -0.155262 59 186 117
0.563642 0.177127 0.188706 68 1 84
-0.219155 0.404679 -0.130963 63 69 135
-0.128737 0.084495 -0.253774 68 1 84
0.200687 0.669669 -0.067427 73 193 109
-0.173892 0.173946 -0.244261 68 1 84
0.286008 0.012994 -0.193567 72 30 112
0.580178 0.050122 0.499850 68 1 84
-0.485733 -0.203727 -0.051539 68 1 84
0.613870 -0.056119 0.480042 68 1 84
-0.391081 0.458254 0.350562 68 1 84
-0.680007 -0.488602 0.307730 68 1 84
-0.575382 0.004321 0.574723 68 1 84
-0.149355 0.400908 -0.186849 70 9 92
-0.549352 0.069971 0.078631 68 1 84
0.599559 0.042155 0.356669 68 1 84
-0.323371 -0.086476 -0.167413 68 1 84
-0.371897 -0.381864 -0.184641 68 1 84
0.343273 0.257855 -0.120854 66 62 133
0.181098 -0.489422 -0.266084 72 25 107
0.611466 -0.411352 0.182199 38 127 142
0.323445 0.571194 0.031316 38 127 142
-0.504743 0.226452 0.476983 68 1 84
0.304377 -0.552665 -0.266877 61 74 137
-0.451299 -0.378130 -0.147140 68 1 84
-0.360454 0.260094 -0.093524 68 1 84
-0.383093 0.169978 -0.110722 68 1 84
0.486168 0.172553 0.004793 72 26 108
0.229357 -0.425813 -0.206362 68 1 84
-0.577443 -0.358812 0.024540 68 1 84
-0.410085 0.183895 -0.078618 68 1 84
0.030800 0.446965 -0.224715 55 89 140
-0.029733 0.179820 -0.312287 68 1 84
0.278257 0.530448 -0.067754 68 190 112
-0.123837 -0.508137 -0.316762 54 91 140
0.027286 -0.019842 -0.339828 68 1 84
0.536100 0.215552 0.484245 68 1 84
-0.569607 -0.455548 -0.022885 68 1 84
0.237890 -0.048070 -0.206379 72 29 111
0.601399 0.026172 0.332343 68 1 84
-0.023486 -0.258013 -0.366505 68 1 84
0.424263 0.016635 -0.105677 50 99 141
-0.238934 0.520164 -0.068989 63 71 136
0.640639 -0.448631 0.310192 51 96 141
-0.483614 0.307925 0.411968 68 1 84
-0.374062 0.307063 -0.057314 68 1 84
0.001163 -0.082264 -0.464369 68 1 84
0.365610 0.518336 0.047899 68 1 84
-0.086555 -0.421314 -0.298838 51 96 141
-0.374486 0.303834 -0.058493 68 1 84
-0.400708 0.179668 -0.090291 68 1 84
-0.545993 0.207762 0.261335 68 1 84
0.563315 0.128076 0.155117 68 1 84
0.174325 0.237277 -0.211524 68 1 84
-0.478422 -0.243641 -0.045239 68 1 84
0.171643 0.251455 -0.193152 68 1 84
-0.191529 -0.112005 -0.240137 68 1 84
-0.636940 -0.156994 0.144399 68 1 84
-0.378652 -0.192521 -0.115644 68 1 84
0.042445 -0.021803 -0.342006 68 1 84
0.057220 0.403798 -0.230584 71 21 103
0.478510 -0.281400 -0.039083 136 213 71
0.366977 -0.114049 -0.147938 49 102 141
-0.019281 0.664051 -0.187976 48 180 122
0.011572 0.143134 -0.307598 68 1 84
0.384333 0.285132 -0.074409 68 1 84
0.304061 0.017707 -0.185290 72 29 111
0.309284 0.459015 -0.060912 54 184 119
-0.558204 0.058700 0.518603 68 1 84
0.644887 -0.160413 0.429249 68 1 84
-0.410625 0.443829 0.327567 68 1 84
0.098323 0.373910 -0.239969 64 67 135
-0.490495 -0.024169 -0.060387 68 1 84
0.131630 0.082777 -0.236185 68 1 84
0.623472 -0.449839 0.252934 55 89 140
-0.162273 0.423183 -0.168244 66 64 133
-0.236023 0.637620 0.118600 65 65 134
-0.525458 0.221549 0.414503 68 1 84
0.590343 -0.359079 0.106426 68 190 112
0.293875 -0.099777 -0.179874 43 116 142
-0.418012 0.399676 0.421316 68 1 84
0.279115 0.144240 -0.191342 68 1 84
-0.354635 -0.120716 -0.144528 68 1 84
-0.607171 -0.043276 0.151166 68 1 84
-0.543233 -0.383184 -0.054485 68 1 84
-0.478935 -0.471767 -0.185986 68 1 84
-0.135740 0.024902 -0.285851 68 1 84
0.612091 -0.273208 0.128425 30 151 138
0.585932 0.116668 0.283295 68 1 84
-0.528776 -0.186203 -0.025016 68 1 84
0.330925 0.581606 0.091024 71 44 123
0.058469 -0.041947 -0.414422 68 1 84
0.168073 0.293987 -0.197459 70 48 125
-0.312353 -0.173983 -0.148200 70 14 97
-0.629521 -0.080190 0.378116 68 1 84
-0.410407 0.334340 0.008063 68 1 84
0.026105 -0.017694 -0.322156 68 1 84
0.101033 -0.111012 -0.269665 68 1 84
-0.626411 -0.074384 0.207505 68 1 84
0.592102 -0.430945 0.146182 44 177 125
-0.505918 0.188203 0.065443 68 1 84
-0.420549 -0.031151 -0.120262 68 1 84
0.570162 -0.249610 0.045450 47 179 123
0.601283 -0.009850 0.476799 68 1 84
0.496899 -0.296185 -0.019585 134 212 73
-0.233955 -0.067874 -0.215313 68 1 84
-0.058767 0.549413 -0.218513 30 153 138
0.601834 -0.315867 0.114677 31 149 139
-0.234548 0.257817 -0.179389 68 1 84
0.282185 -0.255141 -0.143863 45 111 142
0.514361 0.300670 0.442150 68 1 84
-0.483136 0.351643 0.211781 68 1 84
0.403600 -0.299741 -0.084013 54 184 119
0.213957 -0.050540 -0.212375 68 1 84
-0.677046 -0.279039 0.268672 68 1 84
0.464904 -0.560164 -0.095765 35 169 130
-0.515052 0.031472 -0.008796 68 1 84
0.511301 0.319957 0.150636 68 1 84
0.513653 0.166795 0.047896 71 22 105
0.546396 0.285113 0.272516 68 1 84
0.051588 -0.288977 -0.258173 60 78 138
0.317248 0.015312 -0.178737 70 45 124
0.015076 -0.294117 -0.315527 70 12 95
-0.154893 -0.409904 -0.248161 66 62 133
0.136849 -0.305900 -0.152064 57 84 139
0.083734 0.353483 -0.261881 72 29 111
0.127854 0.126482 -0.252263 68 1 84
0.138740 -0.457921 -0.238418 71 37 117
0.216711 -0.180054 -0.180851 72 32 113
-0.549583 -0.031881 0.012292 68 1 84
0.431779 0.089198 -0.086915 56 86 139
-0.226914 0.223000 -0.206170 68 1 84
-0.586097 0.053087 0.386898 68 1 84
0.647993 -0.440046 0.361180 68 3 87
0.645618 -0.356529 0.264045 57 84 139
0.540160 -0.085625 0.007473 46 107 142
-0.054490 0.161098 -0.306491 68 1 84
0.463499 0.230678 -0.000778 68 1 84
-0.198523 -0.412772 -0.204064 71 42 121
-0.602862 -0.391099 0.063844 68 1 84
-0.456705 -0.435400 -0.186438 68 1 84
-0.604708 -0.456279 0.065253 68 1 84
-0.150977 0.686568 -0.032769 61 187 116
0.410214 -0.118903 -0.124355 36 132 141
0.556798 -0.413173 0.067923 98 202 95
-0.011292 -0.205009 -0.385451 68 1 84
-0.498309 0.323247 0.298366 68 1 84
-0.579340 0.037064 0.462338 68 1 84
-0.298033 0.563020 0.040873 68 1 84
0.060166 0.052586 -0.268312 68 1 84
-0.359988 0.530518 0.212017 68 1 84
0.419290 0.494562 0.175651 68 1 84
0.333173 0.012499 -0.170181 69 54 129
-0.495349 0.245842 0.477164 68 1 84
0.101891 -0.512436 -0.305264 60 77 138
0.275490 0.261366 -0.164861 68 1 84
-0.616692 -0.031940 0.280481 68 1 84
0.579247 -0.014564 0.132107 70 48 125
0.149351 -0.322751 -0.143326 44 113 142
0.597557 -0.589958 0.229243 57 84 139
0.516658 -0.044836 -0.015677 54 90 140
-0.076012 0.011560 -0.311230 68 1 84
-0.451203 -0.177775 -0.082854 68 1 84
0.071996 -0.401234 -0.213466 38 128 142
0.647013 -0.340327 0.259314 62 73 137
0.023858 0.512098 -0.230641 35 137 141
-0.692961 -0.338209 0.445222 68 1 84
-0.365407 -0.458589 -0.235181 68 1 84
-0.392206 -0.516192 -0.253295 68 1 84
0.243918 0.433267 -0.120688 42 176 126
0.063839 0.199794 -0.300637 68 1 84
0.469851 -0.397339 -0.056460 85 198 102
-0.269359 0.138111 -0.197129 68 1 84
0.143627 -0.180610 -0.214686 68 1 84
-0.184059 0.459702 -0.138733 42 117 142
-0.588651 -0.018144 0.110937 68 1 84
0.367403 -0.479077 -0.211714 48 103 141
0.198445 -0.458972 -0.227393 68 1 84
0.655113 -0.215035 0.439212 68 1 84
0.521181 -0.442655 0.011224 68 190 112
0.409807 -0.039687 -0.123583 55 88 140
-0.669441 -0.210284 0.429731 68 1 84
0.661829 -0.332743 0.411422 68 1 84
0.218884 0.413418 -0.146204 33 166 133
-0.045092 0.035892 -0.338958 68 1 84
-0.454384 -0.312707 -0.063039 71 20 102
0.256132 -0.078141 -0.196495 72 25 107
-0.465306 0.131574 -0.035527 68 1 84
-0.616361 -0.087016 0.132691 68 1 84
-0.661185 -0.398019 0.236309 68 1 84
-0.174133 0.671094 -0.029442 30 151 138
0.230550 -0.222209 -0.160038 64 67 135
-0.435697 0.139725 -0.068702 68 1 84
0.557684 0.095750 0.117420 68 1 84
-0.199318 0.253824 -0.196051 68 1 84
-0.472373 0.275281 0.505749 68 1 84
0.617679 -0.056048 0.364843 68 1 84
0.663041 -0.396765 0.403122 72 26 108
-0.002343 0.363964 -0.273393 68 1 84
-0.040642 0.045950 -0.328850 68 1 84
0.586138 0.096713 0.259540 68 1 84
-0.548114 -0.314017 0.005412 68 1 84
-0.184078 -0.405834 -0.205628 72 29 111
0.121041 0.701384 -0.108373 31 162 134
0.322833 0.427555 -0.061649 48 103 141
0.494517 0.130145 0.001578 67 60 132
-0.302146 -0.248761 -0.132829 71 17 99
0.331645 0.185653 -0.150756 71 20 102
-0.484197 0.337208 0.174316 68 1 84
0.608020 -0.043389 0.279757 68 1 84
-0.544804 -0.097493 -0.015984 68 1 84
0.213320 0.490680 -0.135818 100 203 93
0.252458 0.460473 -0.107248 46 178 124
-0.399742 -0.332532 -0.107296 68 1 84
0.597300 -0.001002 0.487820 68 1 84
-0.600284 -0.219033 0.059552 68 1 84
-0.554483 0.173157 0.230698 68 1 84
-0.054098 -0.347726 -0.312923 70 47 124
-0.608742 -0.230813 0.071579 68 1 84
0.005863 0.156005 -0.308606 68 1 84
-0.551687 0.073275 0.087265 68 1 84
-0.039084 0.579233 -0.222501 36 134 141
0.638466 -0.320959 0.211487 70 45 124
0.085063 0.089108 -0.262674 68 1 84
-0.323942 -0.384294 -0.154529 68 1 84
0.292156 0.616302 0.085516 62 72 136
-0.559900 0.153216 0.361902 68 1 84
-0.338926 0.541833 0.256549 68 1 84
-0.659154 -0.436541 0.247933 68 1 84
0.189634 0.234600 -0.206186 68 1 84
0.435546 0.447365 0.108106 68 1 84
0.644528 -0.156739 0.465432 68 1 84
0.110499 0.150689 -0.270121 68 1 84
-0.344445 -0.349165 -0.119893 68 1 84
-0.614899 -0.052594 0.435183 68 1 84
0.023373 -0.187559 -0.358507 68 1 84
0.480687 -0.527595 -0.065273 56 185 118
-0.659170 -0.193160 0.486567 68 1 84
0.384585 0.489074 0.051633 68 1 84
-0.662892 -0.189637 0.426630 68 1 84
0.506245 0.066061 -0.000304 72 29 111
-0.404601 -0.040129 -0.130916 68 1 84
0.606648 0.003902 0.388368 68 1 84
-0.643937 -0.125337 0.395148 68 1 84
0.118095 0.312714 -0.251180 68 55 129
-0.209803 0.142731 -0.222955 68 1 84
0.637705 -0.321211 0.208810 69 50 127
0.167444 -0.193637 -0.195556 68 1 84
-0.507762 -0.278173 -0.019070 68 1 84
0.594301 0.032821 0.448075 68 1 84
0.604383 -0.180516 0.121145 48 103 141
0.631824 -0.123197 0.377473 68 1 84
0.186967 0.601614 -0.148215 136 213 71
0.583511 -0.338190 0.087607 37 171 129
-0.499408 0.142616 0.023556 68 1 84
0.031268 0.673478 -0.183387 40 174 127
-0.097034 0.163505 -0.288950 68 1 84
-0.495624 -0.309634 -0.036983 68 1 84
0.485594 0.319882 0.089136 68 1 84
-0.656595 -0.233844 0.181379 68 1 84
-0.069123 -0.480309 -0.317485 49 100 141
-0.490821 0.025381 -0.043766 68 1 84
0.577864 -0.095247 0.080062 57 85 139
0.062598 -0.274786 -0.250702 71 43 122
0.445123 -0.274827 -0.063731 119 208 82
-0.103393 0.219870 -0.282178 68 1 84
-0.148630 0.688205 -0.021306 51 182 121
-0.558426 0.079907 0.111972 68 1 84
0.641229 -0.179354 0.300681 68 1 84
-0.211546 0.303032 -0.146934 72 35 116
0.530341 0.316203 0.330396 68 1 84
-0.308307 0.577900 0.100952 72 32 113
0.405277 0.314926 -0.036098 68 1 84
-0.661375 -0.257656 0.193273 68 1 84
-0.568938 0.047267 0.113323 68 1 84
0.301078 0.098899 -0.182718 68 1 84
0.595664 0.062284 0.370652 68 1 84
-0.311481 -0.422131 -0.206887 68 1 84
0.051282 0.079102 -0.281997 68 1 84
-0.139347 -0.122566 -0.322158 68 1 84
-0.077048 0.685414 -0.145819 47 179 123
-0.676472 -0.297659 0.268487 68 1 84
0.428683 0.121221 -0.083719 52 94 141
0.519825 0.288050 0.440441 68 1 84
0.558099 0.136238 0.141481 68 1 84
-0.276128 -0.126957 -0.180861 68 1 84
0.390175 -0.487251 -0.201888 40 122 142
0.373945 -0.087832 -0.146360 48 104 141
0.515343 -0.568721 0.022078 34 138 141
-0.433197 0.355827 0.063685 68 1 84
0.490298 0.119346 -0.008166 72 33 114
-0.355630 0.507272 0.082003 68 1 84
-0.598039 -0.041732 0.512775 68 1 84
-0.270546 -0.394745 -0.167832 68 1 84
-0.187020 0.671912 0.059093 35 137 141
-0.121781 -0.352687 -0.256629 70 47 124
-0.499521 0.254216 0.451565 68 1 84
0.659595 -0.570200 0.442745 69 8 91
-0.359335 0.175273 -0.129994 68 1 84
-0.593640 -0.376933 0.047215 68 1 84
-0.413245 0.439203 0.118623 68 1 84
-0.166690 0.505122 -0.143670 35 168 131
-0.166021 -0.041807 -0.332223 68 1 84
-0.631222 -0.313431 0.114718 68 1 84
0.250554 0.648958 0.035933 69 52 127
0.133946 -0.213439 -0.206284 68 1 84
0.599845 0.020302 0.296490 68 1 84
0.210705 0.591323 -0.127382 199 224 31
0.238583 0.447954 -0.121102 96 201 96
0.414373 -0.160209 -0.118636 36 134 141
0.425773 -0.280456 -0.073584 85 198 102
-0.303109 -0.219507 -0.137040 70 14 97
0.669882 -0.487588 0.492581 68 1 84
-0.347589 0.493848 0.050554 68 1 84
-0.444794 0.331812 0.062158 68 1 84
-0.038154 -0.488611 -0.319695 46 109 142
0.614844 -0.288875 0.137248 42 176 126
0.537008 -0.295395 0.016466 62 188 115
-0.270420 0.612482 0.148065 68 1 84
0.477865 0.036626 -0.046346 67 58 131
-0.350768 0.385754 -0.037013 68 1 84
-0.683230 -0.269138 0.328625 68 1 84
-0.036219 -0.054320 -0.478412 68 1 84
0.092005 0.401123 -0.225240 55 88 140
0.347207 0.426303 -0.038961 72 33 114
0.560638 0.170243 0.438647 68 1 84
0.640825 -0.484058 0.349163 54 90 140
0.118874 0.553980 -0.207236 98 202 95
-0.301758 -0.056904 -0.184218 68 1 84
-0.603942 -0.000489 0.222496 68 1 84
-0.199455 0.435203 -0.134532 45 110 142
-0.560082 0.140157 0.201488 68 1 84
0.339108 -0.058209 -0.166257 47 105 141
-0.294884 -0.333645 -0.128887 68 1 84
-0.408428 0.116312 -0.103866 68 1 84
-0.283246 -0.500999 -0.284180 68 1 84
-0.455745 0.321450 0.073157 68 1 84
-0.020485 -0.376794 -0.301173 51 97 141
0.527669 -0.559353 0.050483 33 141 140
0.409097 -0.265760 -0.086796 68 190 112
0.605068 -0.398202 0.155882 37 130 142
-0.382840 0.215760 -0.092687 68 1 84
0.203769 0.252440 -0.176284 70 9 92
-0.622801 -0.061913 0.381647 68 1 84
-0.134487 -0.455972 -0.297260 66 64 133
0.223185 0.015606 -0.211663 68 1 84
0.362649 -0.483022 -0.216547 56 86 139
-0.570284 -0.106628 0.019013 68 1 84
-0.459767 0.396937 0.240601 68 1 84
0.600203 -0.068441 0.183582 71 37 117
0.135661 -0.075108 -0.238358 68 1 84
-0.255574 -0.034174 -0.207024 68 1 84
-0.019886 -0.009351 -0.459620 68 1 84
-0.091082 -0.237499 -0.357939 68 1 84
0.519442 0.278840 0.458822 68 1 84
0.047181 0.302204 -0.276800 58 83 139
0.590306 -0.049714 0.152018 72 28 110
-0.170287 -0.510581 -0.309993 45 110 142
-0.073913 0.229817 -0.289290 68 1 84
0.108522 0.447346 -0.205098 149 215 63
-0.275310 0.608862 0.147725 68 1 84
0.215697 0.666279 -0.037312 43 177 125
0.373546 0.543069 0.156214 68 1 84
0.328050 0.510845 -0.017617 53 92 140
0.245402 0.105085 -0.206467 68 1 84
-0.641783 -0.422316 0.170672 68 1 84
0.297213 -0.124727 -0.172290 50 99 141
-0.022043 0.124296 -0.306049 68 1 84
0.141002 0.469146 -0.188420 146 215 65
-0.011590 0.708261 -0.135366 31 161 135
0.449885 0.448951 0.155981 68 1 84
-0.319546 0.243670 -0.139829 70 11 94
0.447990 -0.199003 -0.088743 38 172 129
0.571310 0.167054 0.394276 68 1 84
-0.572255 0.048301 0.125574 68 1 84
-0.149423 0.368313 -0.204136 68 1 84
-0.349800 -0.308619 -0.121729 68 1 84
0.049818 -0.296199 -0.255474 56 86 139
-0.092357 0.381694 -0.239409 68 1 84
-0.330163 -0.499323 -0.272559 68 1 84
-0.132822 0.552835 -0.170565 44 177 125
0.047960 -0.365905 -0.235972 56 86 139
-0.564505 0.147431 0.257591 68 1 84
-0.559544 0.115183 0.432758 68 1 84
-0.552318 0.068242 0.528145 68 1 84
0.140157 0.678698 -0.134421 197 223 33
0.590701 -0.210782 0.079896 31 147 139
-0.442960 0.373578 0.402204 68 1 84
-0.078036 0.295149 -0.258637 68 1 84
-0.613706 -0.364807 0.085488 68 1 84
0.112408 -0.052735 -0.273889 68 1 84
0.137621 -0.038565 -0.232219 68 1 84
-0.495823 -0.326944 -0.052111 68 1 84
0.600928 0.022569 0.314276 68 1 84
0.623762 -0.088486 0.465225 68 1 84
-0.046339 -0.111476 -0.454444 68 1 84
-0.421544 0.456640 0.231986 68 1 84
-0.611133 -0.047465 0.165230 68 1 84
0.229814 0.447876 -0.128002 114 207 85
0.084792 0.313194 -0.269207 61 76 137
-0.507206 -0.293694 -0.022171 68 1 84
0.640971 -0.477043 0.343537 61 74 137
0.038367 0.235470 -0.288184 68 1 84
0.016329 -0.212538 -0.356133 68 1 84
-0.563683 0.153379 0.301424 68 1 84
-0.137421 -0.509316 -0.314830 50 98 141
-0.594178 -0.396220 0.045751 68 1 84
-0.580580 0.092080 0.275025 68 1 84
0.620686 -0.068213 0.436607 68 1 84
0.176672 -0.496974 -0.276309 68 1 84
0.359973 0.556666 0.183347 68 1 84
0.358056 0.261057 -0.107784 69 50 127
0.654779 -0.292499 0.285993 68 1 84
-0.004623 -0.268953 -0.350451 68 1 84
0.660936 -0.273528 0.429201 68 1 84
-0.555602 0.169070 0.355748 68 1 84
-0.632557 -0.361042 0.127207 68 1 84
0.451198 0.413076 0.102726 68 1 84
0.140689 -0.220273 -0.197576 70 9 92
-0.574680 0.091948 0.388320 68 1 84
-0.620978 -0.413327 0.106323 68 1 84
-0.466256 -0.430497 -0.177958 68 1 84
0.448134 0.384916 0.070658 68 2 85
-0.331898 -0.399085 -0.197856 68 1 84
0.097615 -0.098018 -0.276906 68 1 84
0.625399 -0.116330 0.304616 69 5 88
0.287570 0.010745 -0.192924 72 32 113
0.511038 0.336910 0.172282 68 1 84
0.571636 0.178291 0.235251 68 1 84
-0.015983 -0.081365 -0.470464 68 1 84
-0.298464 -0.136182 -0.166829 68 1 84
0.603312 -0.083861 0.182459 67 59 131
0.073062 -0.065092 -0.389594 68 1 84
0.574408 0.174306 0.253319 68 1 84
0.310061 -0.145327 -0.162884 43 115 142
0.314625 0.220022 -0.155704 70 9 92
0.220839 0.628677 -0.094388 112 206 86
0.206573 0.402522 -0.158976 35 136 141
-0.415115 -0.306888 -0.099587 68 1 84
-0.198126 0.620911 -0.068911 31 150 139
0.577387 0.101685 0.202121 68 1 84
-0.412437 0.061112 -0.114511 68 1 84
-0.301122 0.253053 -0.153381 68 1 84
-0.539843 0.119555 0.502067 68 1 84
-0.043614 0.280001 -0.265106 68 1 84
-0.056131 -0.248531 -0.372152 69 8 91
-0.411169 0.396493 0.063972 68 1 84
-0.273027 0.507800 -0.040144 70 45 124
0.663965 -0.376311 0.401448 71 24 106
0.648472 -0.478811 0.390698 71 43 122
0.608060 -0.216649 0.121238 40 123 142
0.413826 0.498809 0.225890 68 1 84
0.537910 0.201869 0.494073 68 1 84
0.263028 0.439351 -0.104446 83 197 103
-0.658382 -0.183908 0.454734 68 1 84
-0.489867 -0.206045 -0.048005 68 1 84
-0.129481 -0.338920 -0.236597 70 47 124
-0.010189 0.101236 -0.307982 68 1 84
0.539256 -0.354529 0.032187 154 216 60
-0.487025 0.335703 0.337111 68 1 84
-0.444792 -0.517463 -0.222805 72 34 115
-0.284803 0.600420 0.152216 68 1 84
-0.152945 0.265447 -0.205772 68 1 84
-0.101806 0.658807 -0.157244 30 151 138
0.036246 -0.279121 -0.294410 71 43 122
0.570136 0.130247 0.183753 68 1 84
0.557683 0.183819 0.171073 68 1 84
-0.033999 0.022985 -0.417026 68 1 84
-0.396046 -0.011911 -0.136198 68 1 84
0.342712 -0.553249 -0.246816 45 111 142
-0.562672 0.106485 0.158405 68 1 84
0.587110 0.116888 0.322810 68 1 84
0.103120 0.059672 -0.240291 68 1 84
0.537171 0.069812 0.053918 69 8 91
0.086162 -0.042898 -0.378205 68 1 84
-0.581667 -0.012819 0.094724 68 1 84
0.191221 0.568725 -0.151146 94 201 97
-0.398129 -0.451815 -0.221718 68 1 84
-0.676430 -0.522217 0.281566 68 1 84
0.538581 0.087294 0.064090 71 44 123
0.628726 -0.105064 0.389292 68 1 84
-0.504433 0.295590 0.183245 68 1 84
0.246288 -0.179794 -0.170761 48 103 141
-0.058516 0.016501 -0.337838 68 1 84
0.466479 -0.046860 -0.075325 40 122 142
-0.210493 0.060507 -0.212727 68 1 84
-0.178483 -0.008445 -0.279124 68 1 84
0.055312 0.450084 -0.220836 36 132 141
0.396017 0.447519 0.035287 68 1 84
-0.561792 -0.348165 0.005316 68 1 84
0.602459 0.025204 0.355704 68 1 84
0.056900 -0.258370 -0.274079 70 45 124
0.110034 -0.445164 -0.238548 72 25 107
0.525820 0.299014 0.173115 68 1 84
-0.444959 0.346507 0.076536 68 1 84
-0.129822 -0.164612 -0.324432 68 1 84
0.448331 0.452507 0.256648 68 1 84
-0.227361 -0.388344 -0.157017 68 1 84
0.165505 0.349501 -0.205640 49 101 141
0.516970 0.291139 0.448506 68 1 84
-0.525403 0.264226 0.262652 68 1 84
-0.265217 0.617087 0.135687 68 1 84
0.655671 -0.240231 0.460986 68 1 84
0.301163 -0.058782 -0.183148 57 85 139
-0.202109 0.067837 -0.215557 68 1 84
-0.488144 -0.450570 -0.171108 68 1 84
0.599522 0.038426 0.386569 68 1 84
0.261173 0.258917 -0.168977 68 1 84
-0.133528 -0.038363 -0.400762 68 1 84
0.107194 0.588326 -0.209503 77 194 107
0.353613 0.252645 -0.114089 71 43 122
0.289581 0.610183 0.020305 38 128 142
0.607916 -0.006444 0.355987 68 1 84
0.462772 0.423400 0.316389 68 1 84
-0.332431 -0.533532 -0.279878 68 1 84
-0.135980 0.336372 -0.228626 68 1 84
-0.552263 -0.024760 0.020503 68 1 84
-0.675712 -0.269886 0.547681 68 1 84
0.149476 0.691617 -0.097181 33 167 132
0.535349 0.241732 0.446610 68 1 84
-0.669181 -0.507728 0.265246 68 1 84
0.205004 -0.116039 -0.203542 68 1 84
-0.091913 -0.051023 -0.453467 68 1 84
-0.620282 -0.479601 0.103336 68 1 84
0.596340 -0.458325 0.174922 31 163 134
0.632379 -0.459982 0.287845 67 60 132
0.509345 0.231084 0.074294 68 1 84
0.394154 0.521979 0.183443 68 1 84
0.499150 0.358596 0.368053 68 1 84
0.189775 0.377747 -0.178625 38 127 142
-0.516660 0.179364 0.083247 68 1 84
-0.542854 -0.498836 -0.093382 68 1 84
-0.493204 0.322229 0.184178 68 1 84
-0.037264 -0.143769 -0.434723 68 1 84
0.447930 -0.435189 -0.114240 50 181 122
0.563332 0.140495 0.162798 68 1 84
0.235019 0.357877 -0.151729 71 39 119
-0.473323 0.301847 0.455003 68 1 84
0.410270 0.334013 -0.019446 68 1 84
0.565399 -0.491380 0.118368 199 224 31
-0.533029 0.067045 0.042182 68 1 84
0.633257 -0.179578 0.241176 68 1 84
0.572362 -0.472681 0.125216 165 218 53
0.259534 0.411218 -0.117570 79 195 105
-0.110695 0.450409 -0.193102 42 119 142
-0.577802 0.101302 0.322573 68 1 84
0.504737 0.037650 -0.010671 67 58 131
-0.263106 0.276501 -0.160383 70 12 95
-0.146576 -0.381305 -0.226161 72 33 114
-0.184252 -0.386569 -0.178752 68 1 84
0.292574 -0.107728 -0.178493 57 84 139
0.658004 -0.275936 0.338645 68 1 84
-0.241882 0.321594 -0.136128 71 18 101
0.249984 -0.413000 -0.167839 67 60 132
-0.102354 0.277409 -0.238534 68 1 84
-0.623370 -0.098734 0.481356 68 1 84
0.101477 0.482335 -0.209117 114 207 85
-0.412625 -0.349762 -0.110909 68 1 84
-0.337306 -0.517684 -0.275522 68 1 84
-0.257493 -0.052797 -0.204917 68 1 84
0.165399 -0.274747 -0.156497 71 17 99
-0.116347 -0.498699 -0.316768 49 102 141
-0.570396 0.034909 0.105787 68 1 84
-0.429197 0.417079 0.127429 68 1 84
-0.346894 -0.396593 -0.199224 68 1 84
-0.499055 -0.306629 -0.033109 68 1 84
0.340336 -0.398892 -0.169070 69 53 128
0.220992 0.120157 -0.214351 69 8 91
0.300099 0.569366 -0.017221 31 146 140
-0.297987 0.589923 0.152282 70 9 92
-0.480078 0.332681 0.147670 68 1 84
-0.692933 -0.334081 0.471918 68 1 84
0.347438 0.150195 -0.146603 68 1 84
-0.524610 -0.401913 -0.101714 68 1 84
-0.035661 0.319295 -0.282164 68 1 84
0.028674 -0.087429 -0.438551 68 1 84
-0.598317 -0.320721 0.061390 68 1 84
-0.140610 0.058806 -0.244946 68 1 84
-0.107419 -0.157281 -0.369564 68 1 84
0.321190 0.472848 -0.043931 40 122 142
-0.300661 -0.314193 -0.129780 68 1 84
-0.176379 -0.467501 -0.290030 61 74 137
-0.268258 -0.044402 -0.201244 68 1 84
0.011896 0.719498 -0.109768 30 158 136
-0.398864 -0.372620 -0.172307 68 1 84
0.057486 -0.392842 -0.234046 63 69 135
-0.097220 -0.272277 -0.332700 68 1 84
0.043578 -0.296734 -0.268140 62 73 137
-0.661319 -0.218608 0.535247 68 1 84
0.479445 0.395699 0.156844 68 1 84
0.094145 0.274930 -0.246465 54 91 140
-0.045363 0.625585 -0.208213 48 180 122
0.038731 -0.196521 -0.334082 68 1 84
-0.428946 -0.367939 -0.154752 68 1 84
0.531278 0.230604 0.124844 68 1 84
-0.404008 0.441156 0.356782 68 1 84
-0.529852 0.243407 0.346230 68 1 84
0.128193 0.265322 -0.222927 70 49 126
-0.031997 0.275864 -0.267611 70 9 92
0.608172 -0.006270 0.361014 68 1 84
-0.223727 0.505469 -0.089075 62 73 137
-0.429679 -0.350466 -0.106349 68 1 84
-0.597622 0.025866 0.245317 68 1 84
0.391424 -0.044934 -0.136722 43 116 142
0.144035 0.620489 -0.177283 205 224 29
-0.642094 -0.411951 0.168866 68 1 84
-0.449292 0.268518 0.018941 68 1 84
0.456934 -0.421883 -0.092348 30 160 135
0.514085 0.170588 0.050666 68 1 84
0.143852 0.466251 -0.186996 105 204 91
-0.081729 -0.123478 -0.429478 68 1 84
0.469609 0.415210 0.158057 68 1 84
0.517257 0.349500 0.291688 68 1 84
-0.469185 0.147548 -0.022836 68 1 84
0.436046 -0.237492 -0.082436 54 184 119
-0.449041 -0.281693 -0.064002 70 14 97
0.228026 -0.167316 -0.180835 67 60 132
-0.201170 0.663279 0.063713 41 120 142
-0.282799 -0.097828 -0.185100 68 1 84
-0.121972 0.659590 -0.135113 40 174 127
0.116097 -0.036075 -0.278636 68 1 84
-0.339492 0.340576 -0.075931 68 1 84
-0.615727 -0.516206 0.085275 68 1 84
0.218564 -0.107714 -0.201289 71 42 121
0.549835 -0.391821 0.051954 144 214 67
0.617929 -0.592707 0.281521 57 85 139
-0.519782 -0.326432 -0.033010 68 1 84
-0.645731 -0.132672 0.211910 68 1 84
-0.415160 0.148194 -0.087782 68 1 84
-0.446758 -0.246089 -0.065648 68 1 84
-0.629661 -0.167800 0.116755 68 1 84
0.581840 0.149957 0.311553 68 1 84
0.378983 0.278129 -0.082464 68 1 84
-0.560512 -0.068725 0.014731 68 1 84
0.181155 0.182466 -0.234109 68 1 84
-0.339167 0.462772 0.009569 68 1 84
-0.176019 0.576219 -0.121071 64 189 114
0.287500 -0.537406 -0.272187 53 93 140
-0.558202 -0.012143 0.040588 68 1 84
0.526858 0.309767 0.189644 68 1 84
-0.268226 -0.106752 -0.189822 68 1 84
-0.428994 0.280941 -0.002902 68 1 84
-0.633904 -0.135769 0.149977 68 1 84
0.254389 0.582354 -0.077157 100 203 93
0.308702 0.036885 -0.181946 68 57 130
0.551912 -0.325886 0.040603 105 204 91
0.586987 0.011661 0.187794 68 1 84
0.612494 -0.196908 0.140217 54 91 140
0.591331 0.086769 0.305312 68 1 84
-0.619293 -0.104988 0.543370 68 1 84
0.049886 -0.499808 -0.311609 72 28 110
0.535257 0.297056 0.207165 68 1 84
-0.502822 -0.492351 -0.163430 68 1 84
-0.066606 0.003768 -0.381230 68 1 84
-0.509510 -0.374727 -0.093013 68 1 84
-0.339467 0.204036 -0.136679 68 1 84
-0.415524 -0.380532 -0.177065 68 1 84
-0.390862 0.439056 0.069755 68 1 84
-0.436997 0.374348 0.090449 68 1 84
-0.519139 -0.198331 -0.029395 68 1 84
0.339267 0.566508 0.065942 71 39 119
0.169005 -0.445787 -0.212266 72 26 108
0.583220 0.094558 0.236165 68 1 84
0.301027 0.510795 -0.049143 30 156 137
-0.210139 0.655486 0.030064 38 128 142
0.504594 0.241123 0.071243 68 1 84
0.532498 0.219639 0.494067 68 1 84
0.128399 -0.107802 -0.243546 68 1 84
-0.122989 -0.347082 -0.253008 71 42 121
0.307199 -0.491451 -0.244725 55 88 140
-0.194080 -0.219323 -0.197591 68 1 84
-0.223664 -0.436191 -0.227213 68 1 84
0.603332 0.012986 0.418121 68 1 84
-0.230948 -0.153737 -0.199452 68 1 84
0.127991 -0.259693 -0.180782 70 49 126
0.657332 -0.549157 0.423224 69 52 127
-0.274034 0.202997 -0.187029 68 1 84
-0.680473 -0.255950 0.408041 68 1 84
0.259039 -0.369432 -0.150194 62 73 137
-0.488005 0.313224 0.145232 68 1 84
0.657827 -0.392167 0.378502 72 33 114
-0.350188 0.221942 -0.120256 68 1 84
-0.659869 -0.166649 0.383179 68 1 84
-0.599856 -0.053052 0.530378 68 1 84
-0.546342 0.135429 0.129856 68 1 84
0.226248 0.349896 -0.158194 68 55 129
-0.061118 0.185656 -0.307633 68 1 84
-0.176650 -0.272545 -0.181388 70 12 95
-0.584349 0.038633 0.432621 68 1 84
0.050776 -0.506762 -0.313083 72 28 110
0.590141 0.058549 0.254202 68 1 84
0.147371 0.201157 -0.251945 68 1 84
0.236174 0.063900 -0.207663 68 1 84
0.079197 -0.045671 -0.388371 68 1 84
0.514640 0.193397 0.063032 68 1 84
-0.651264 -0.141847 0.379340 68 1 84
0.514874 -0.373956 0.006021 136 213 71
-0.289463 -0.400712 -0.182185 68 1 84
-0.213632 0.335348 -0.148111 71 38 118
-0.588829 -0.380386 0.038078 68 1 84
0.609662 -0.525265 0.247733 38 129 142
0.652455 -0.216136 0.499842 68 1 84
-0.424096 0.123798 -0.086802 68 1 84
-0.010007 0.415687 -0.228847 68 1 84
0.469153 0.414364 0.319607 68 1 84
-0.678162 -0.220817 0.351449 68 1 84
-0.641678 -0.501629 0.172169 68 1 84
-0.522157 -0.285727 -0.009103 68 1 84
0.677082 -0.413187 0.488276 68 1 84
-0.046308 -0.437807 -0.308780 51 96 141
0.209059 0.673531 -0.007056 56 86 139
-0.132728 -0.270841 -0.266266 68 1 84
0.428766 0.483246 0.180599 68 1 84
0.521249 0.294347 0.421491 68 1 84
-0.677323 -0.550640 0.281667 68 1 84
0.418405 -0.200758 -0.106155 30 157 136
0.530063 -0.238025 -0.007391 48 180 122
0.658730 -0.256895 0.390398 68 1 84
0.601495 0.030845 0.355162 68 1 84
0.176573 0.684734 -0.069475 30 160 135
0.436373 -0.211662 -0.092109 37 171 129
-0.399051 -0.302904 -0.109350 68 1 84
-0.532565 0.129173 0.514506 68 1 84
0.639751 -0.168951 0.318238 68 1 84
-0.562737 0.099900 0.441336 68 1 84
0.557926 0.113554 0.127847 68 1 84
-0.520289 -0.359523 -0.066842 68 1 84
0.655221 -0.304594 0.297615 68 1 84
-0.136548 -0.026147 -0.393323 68 1 84
0.518717 -0.087097 -0.023324 40 123 142
-0.556676 0.171658 0.338571 68 1 84
0.338624 0.459765 -0.032010 65 66 134
-0.532544 0.242102 0.328149 68 1 84
0.539146 -0.385597 0.036444 181 221 43
-0.689617 -0.374152 0.354532 68 1 84
0.579942 0.070281 0.468952 68 1 84
-0.421063 -0.288537 -0.091720 68 1 84
-0.547758 0.189147 0.364219 68 1 84
-0.542467 0.114856 0.498966 68 1 84
0.557127 -0.416804 0.069664 103 204 92
0.224348 -0.249798 -0.154073 68 57 130
0.638672 -0.364807 0.238272 56 87 140
0.367505 -0.325911 -0.119093 50 181 122
-0.666809 -0.200768 0.424342 68 1 84
-0.146828 0.688901 -0.025639 64 189 114
-0.578249 -0.000544 0.553539 68 1 84
-0.497950 0.096235 -0.003261 68 1 84
-0.671741 -0.266339 0.233099 68 1 84
-0.007746 0.554426 -0.229873 34 139 141
-0.314437 -0.180559 -0.145067 70 9 92
0.606793 -0.025344 0.299546 68 1 84
-0.392906 0.348037 -0.007847 68 1 84
-0.673447 -0.209600 0.385681 68 1 84
0.210417 0.217266 -0.209819 68 1 84
0.610095 -0.111721 0.188173 71 37 117
-0.166219 0.680486 0.006649 31 162 134
-0.675202 -0.295453 0.257876 68 1 84
-0.637301 -0.089912 0.281805 68 1 84
-0.014233 0.329215 -0.287208 68 1 84
0.340020 -0.337238 -0.138122 42 119 142
0.350410 -0.485659 -0.223747 64 67 135
-0.400695 0.449461 0.343693 68 1 84
-0.536173 -0.148390 -0.026408 68 1 84
-0.648209 -0.160280 0.189026 68 1 84
-0.272192 0.106958 -0.197443 68 1 84
0.162002 0.587937 -0.173391 202 224 30
-0.341596 -0.185650 -0.133290 68 1 84
0.189456 0.456725 -0.157217 41 175 127
0.238251 -0.443815 -0.222822 68 1 84
0.628892 -0.457436 0.275070 47 106 141
0.607040 -0.120510 0.164978 59 81 138
-0.408892 0.475017 0.215512 68 1 84
0.458974 0.254037 0.004918 71 37 117
0.303702 -0.112878 -0.172985 55 89 140
-0.145645 -0.130196 -0.305387 68 1 84
-0.177723 0.611377 -0.104169 30 157 136
0.162882 0.605655 -0.167984 105 204 91
0.309926 -0.456909 -0.220602 63 69 135
0.157065 0.037806 -0.220018 68 1 84
-0.507665 0.177401 0.061110 68 1 84
0.317679 -0.334413 -0.148372 48 104 141
0.641041 -0.556210 0.333500 51 97 141
0.580967 0.130056 0.386601 68 1 84
-0.463871 0.115850 -0.043774 68 1 84
0.267849 0.227773 -0.182689 68 1 84
-0.302288 -0.447855 -0.230296 68 1 84
0.489736 0.368501 0.388461 68 1 84
-0.427462 0.434432 0.150440 68 1 84
0.550664 0.216824 0.421349 68 1 84
0.567872 -0.546260 0.146637 38 129 142
0.449000 -0.498041 -0.143303 40 174 127
-0.604723 -0.019553 0.425763 68 1 84
-0.026233 0.178248 -0.312268 68 1 84
0.323246 0.092154 -0.169500 71 43 122
0.532234 0.320835 0.286812 68 1 84
-0.286411 0.462752 -0.050740 68 1 84
-0.227640 0.381631 -0.131778 67 59 131
0.653503 -0.221939 0.406972 68 1 84
0.048727 -0.109770 -0.380495 68 1 84
-0.356548 0.359128 -0.048124 68 1 84
-0.639988 -0.406958 0.160148 68 1 84
-0.545501 0.205927 0.335585 68 1 84
-0.682142 -0.467485 0.327869 68 1 84
0.459363 0.434904 0.278049 68 1 84
0.291883 -0.406559 -0.167172 71 44 123
0.420964 0.489301 0.233235 68 1 84
0.107753 -0.436025 -0.223229 67 58 131
0.574141 -0.422440 0.103367 79 195 105
0.512053 -0.393934 0.001214 159 217 56
0.037660 -0.386347 -0.262226 69 50 127
-0.548471 0.094620 0.504056 68 1 84
0.442537 0.167090 -0.055851 52 94 141
0.255570 0.140435 -0.202321 69 8 91
-0.099852 0.123210 -0.281881 68 1 84
-0.526606 0.090115 0.043181 68 1 84
-0.280131 0.231794 -0.176436 68 1 84
-0.131936 -0.393354 -0.260654 71 22 105
-0.093971 -0.072694 -0.450339 68 1 84
0.505885 -0.276576 -0.018436 119 208 82
0.610982 -0.138961 0.168588 68 57 130
-0.639339 -0.426593 0.162463 68 1 84
0.287554 -0.173974 -0.161301 52 94 141
0.508028 -0.124076 -0.041967 36 133 141
0.642145 -0.216511 0.248279 68 1 84
0.430404 0.258535 -0.031106 68 1 84
0.613335 -0.039426 0.448419 68 1 84
0.221087 0.029477 -0.212517 68 1 84
-0.588620 0.062380 0.275906 68 1 84
-0.474634 0.284863 0.480658 68 1 84
0.263705 0.532304 -0.082904 149 215 63
-0.684297 -0.277790 0.336216 68 1 84
0.607129 -0.001093 0.358204 68 1 84
-0.277174 0.066116 -0.197549 68 1 84
-0.460858 0.207818 -0.002885 68 1 84
0.630719 -0.133361 0.317591 68 1 84
-0.417823 -0.300091 -0.096605 71 15 98
-0.137750 -0.315257 -0.220268 71 22 105
-0.051349 -0.404480 -0.303796 46 109 142
-0.283503 0.597651 0.078264 71 18 101
-0.321569 0.463833 -0.012863 68 1 84
0.357028 0.083111 -0.149030 70 9 92
-0.702467 -0.486308 0.384213 68 1 84
-0.355004 0.334144 -0.063718 68 1 84
-0.692728 -0.359219 0.391590 68 1 84
0.550213 0.198457 0.446138 68 1 84
-0.515263 0.261239 0.384191 68 1 84
0.533454 0.224936 0.482717 68 1 84
-0.334373 -0.135692 -0.150260 68 1 84
0.509623 0.173767 0.043686 72 28 110
-0.547063 0.010284 0.032749 68 1 84
-0.222962 -0.417465 -0.194799 68 3 87
0.320319 0.502550 -0.031384 44 114 142
-0.569242 -0.356096 0.012978 68 1 84
0.205163 -0.380119 -0.148176 57 84 139
-0.452055 0.409733 0.210753 68 1 84
-0.603042 -0.029681 0.461377 68 1 84
-0.017068 -0.476809 -0.316726 58 82 139
0.179911 0.321093 -0.194754 33 142 140
0.402567 -0.197815 -0.115171 34 167 132
0.491971 -0.479387 -0.050486 37 171 129
-0.483113 0.336659 0.168168 68 1 84
-0.557924 0.100207 0.131062 68 1 84
0.182880 -0.051450 -0.220174 68 1 84
-0.437388 0.408582 0.136808 68 1 84
0.208498 0.245767 -0.183607 68 1 84
-0.587021 0.050397 0.204704 68 1 84
0.166058 0.308562 -0.206633 49 100 141
-0.221198 0.136289 -0.216931 68 1 84
-0.437877 0.016457 -0.101479 68 1 84
0.224448 -0.169259 -0.181606 71 40 120
-0.637452 -0.291354 0.125563 68 1 84
-0.436793 0.372371 0.428625 68 1 84
0.406430 -0.365737 -0.088983 61 187 116
0.321924 0.307168 -0.119497 68 1 84
-0.477549 -0.051155 -0.078858 68 1 84
0.346158 -0.533689 -0.244340 42 118 142
0.421480 -0.122907 -0.117427 50 99 141
0.146215 -0.491373 -0.281455 71 21 103
-0.579847 0.095301 0.306948 68 1 84
0.396522 0.215784 -0.088068 68 1 84
0.309179 -0.500435 -0.249763 58 82 139
-0.596782 -0.045685 0.107823 68 1 84
-0.397201 0.391450 0.034433 68 1 84
-0.383562 0.189651 -0.103183 68 1 84
0.632772 -0.555090 0.310456 35 135 141
-0.659990 -0.164072 0.374195 68 1 84
-0.657009 -0.174412 0.429208 68 1 84
0.607445 -0.039376 0.281034 68 1 84
-0.109878 0.200755 -0.283235 68 1 84
0.667441 -0.491485 0.473017 70 11 94
0.163792 0.493417 -0.174284 189 222 38
0.255076 0.593580 -0.070491 53 183 120
-0.601202 -0.189577 0.060099 68 1 84
0.595166 -0.383570 0.125806 40 174 127
0.250369 -0.291653 -0.151676 61 75 137
0.349422 0.147657 -0.145590 68 1 84
0.486135 0.090217 -0.022377 67 59 131
0.652464 -0.256293 0.277667 68 2 85
-0.520648 0.276546 0.297243 68 1 84
0.151570 -0.253039 -0.171600 68 1 84
0.392009 -0.025154 -0.135349 54 90 140
-0.663969 -0.214724 0.216223 68 1 84
0.116402 0.273587 -0.234107 65 66 134
-0.473645 -0.328717 -0.063181 68 1 84
0.665104 -0.460448 0.435337 72 26 108
0.574954 -0.430982 0.109349 141 214 68
0.652915 -0.239835 0.301593 70 14 97
0.092642 0.686709 -0.156200 89 199 100
0.211100 0.427930 -0.147681 121 209 81
-0.403353 -0.403724 -0.193687 68 1 84
